ncols 200
nrows 85
xllcorner 240000
yllcorner 341050
cellsize 50
208 210.2 211.1 210.8 211.3 213.7 215.7 218.6 222 226.2 231.6 238.7 246.8 256.4 266.8 282.8 300.6 311.4 321.4 328.3 335.9 341.4 344 345.8 347.8 349.9 350.8 353.1 355.5 358.4 362.8 367.4 370.3 366.6 358.9 348.3 335.9 327.4 318.2 308 291.6 271.2 259.2 249.7 244.4 243.3 242.1 240.6 240.3 240.9 246.7 252.8 262 271 288.8 300.2 307.2 316.5 317.2 315.3 312.8 307.5 302 293.3 280.5 272.9 263.5 253.8 243 232.8 223.3 213.9 205.9 196.3 186.5 179.8 174.5 171.7 169.8 168.1 167.6 163.9 162.6 161.7 160.5 159.2 158.1 157.1 156.9 156.2 156 155.2 156.2 157.6 157.1 156.5 157.4 158.9 160.5 162.8 165.3 169.3 171.8 174 176.5 180.2 184.6 189.1 194.7 195.6 196 204.3 207.8 211 216.2 224.7 229.9 234 235.9 233.2 228.6 224.4 217.2 207.3 193.7 182.8 176.4 170.9 166.1 159.8 153.9 151.1 147.7 143.6 140.6 137.5 135.2 134.2 131.6 131.3 129.6 127.5 124.6 122.7 122 122.6 124.4 124.2 122.6 121.1 119.2 117 114.1 114.2 111.6 109 106.7 105.6 104.5 104.3 108.4 115.3 121.7 128.5 132.9 130.3 127.5 128.1 130.2 132.4 136.2 140.5 141.5 142.3 143.9 147.8 151.3 151.3 150.5 152.9 156.4 157.4 158.8 159.5 161.1 163.2 162.7 163.7 165.2 165.3 165.2 164.8 164.4 164.6 164.9 165.2 165.5 165.9 166.3 167.2
206.6 208.9 208.3 207.8 207.4 210.1 212 214.6 218.1 221.5 226.2 232.4 240.5 249.6 262.3 279.3 291.5 300.2 308.8 317.2 322.7 328.2 330 329.8 329.8 333.8 334.4 336.9 339.9 343.4 347.9 350 348.3 345.8 344 338.6 329.8 319.8 316.6 309.4 297.2 278.1 260.7 251.5 239.9 240.1 238.2 236.2 235.3 234.9 239.6 246 253.8 261.8 272.5 283 291.7 299.7 304.4 306.2 305.2 302.6 299.9 291.1 278.8 272.6 263.2 253.5 243 233.2 223.6 213.2 204.5 195.3 187 180.4 174.4 171.1 169.1 167.8 166.1 163.1 162.4 161.6 160.6 159.3 158.1 157.5 158.1 158.2 158.5 156.8 154.9 156.1 156.6 155.7 156.4 158.2 160.4 163.2 165.9 169.8 172.1 174.1 176.1 180.4 185.2 189.7 195.6 196.8 198.5 209.3 214.1 216.1 221.4 228.6 236.2 240.4 240.3 237.9 229.5 221.1 212.2 202.4 191 182.4 175.5 169.4 163.6 157.8 152.9 151 146.3 142.2 138.6 136.5 134.5 132.3 129.6 128.2 125.7 122.6 120.4 119.5 119.3 120.4 122.2 123.3 122.2 120.4 119.1 116 112.8 111.5 110 108.6 106.4 104.8 103.8 105.1 108.2 115.1 123.9 129.8 132.7 123 122.8 124.3 126.1 128.6 132.8 136.3 138 138.2 142.7 147.6 148.2 147.6 150.8 151.6 155.2 153.4 155.3 157.5 158.2 160.7 163 165.4 166.2 167.9 168.2 166.7 165.1 165 165.4 165.7 165.9 165.8 166.2 167
206.1 206.6 205.5 204.6 203.8 206.5 208.4 210.4 213.9 217.3 221.2 226.9 233.8 242.9 256.2 270.9 280.7 289.6 296.8 303.8 306.7 309.4 312.8 316.3 318.1 318.4 321.3 322.7 326.2 329.7 330.5 331.3 330.3 327.1 323.7 321.3 317.5 317.4 314.3 306.8 298.8 284.7 264.9 252 244.3 234 234.1 232 230.8 230.1 233.6 240.2 245.6 253 261.4 271.8 278.9 287 291.3 296.1 298 297.4 297.2 287.7 277.3 270.4 261.6 252.2 241.9 232.2 222.9 212.6 204.2 196 186.2 179 173.8 170.8 168.2 166.5 164.2 162.8 162.1 161 159.8 158.6 157.7 159.6 160.9 161 161.1 159.9 156.5 154.7 154.6 155 156.1 158.2 160.5 163.1 165.8 169 171.4 173.3 175.3 180 184.9 190.2 196.4 198.4 200.6 213.7 220 223 230.2 236.6 243.3 246.5 246.8 240.9 230.7 221.1 210 197.1 188.7 181.9 174.6 168.5 162.7 155 150.8 147.9 144.4 140.3 137.9 134.9 132.7 129.7 129.6 128.6 126.2 124 121.4 118 117 117.4 118.7 120.6 120.1 119.3 116.9 113.2 109.7 108.8 108.2 107.2 106.2 104.6 103.5 104.3 109.6 117.3 125 125.5 124.7 119.7 120.6 122.8 129.6 127.3 130.1 132.5 135 136.6 139.2 143.1 143.8 145.8 151.2 150.1 149.4 152.6 155.5 158.4 159.1 160.7 164.3 166.5 168.1 170 170.7 170.6 168.4 165.6 165.7 165.9 165.7 165.8 166.3 166.9
204.1 204.6 203.3 201.4 202.7 203.1 204.5 206.7 209 212.8 216.5 221.1 227.9 235.6 247.6 259.5 269.1 277.5 283.4 287.5 290.9 294 298.8 299.7 301.6 303.3 307.4 310.3 313.3 314.7 315.8 314 311.9 310.6 310.5 308.8 309 309.8 306 298.5 295 288.7 274.7 255.3 243.8 236.4 230 227.6 226.5 225.8 228.3 233.5 239.1 245 251.8 259.4 265.6 273.4 282.1 287.8 291.6 293.7 295.8 285.5 274.6 267.4 258.2 249.4 238.8 230.3 221.3 212.9 204.1 196.4 187.9 177.3 173 170.3 167.6 165 162.5 162 161 159.9 158.8 157.7 156.8 160.1 160.5 158.4 158 158.5 158 153.3 153.7 155 156.4 158.1 160.6 163.2 165.6 167.6 169.9 172.5 174.6 179.6 184.6 190.6 197.4 199.5 201 216.9 223.1 229 235.3 243.9 250 253.2 251.1 245.5 234.5 219.6 208.1 196.1 187.7 180.2 173.1 167.4 161.9 154.6 150.2 146.4 142.9 138.6 137.2 135.7 132.7 131.5 132 131.1 127.5 124.7 122.4 118.7 115.5 113.7 114.9 116.4 115.9 114.1 111.6 108.3 106.2 106.2 106.4 106.4 105.6 104.2 103.1 105.7 112.6 118.2 122.8 126.3 123.1 118.1 119.7 126.1 129.9 131.4 130.9 130.6 133.2 134.3 136.3 139.3 139.6 143.9 143.9 146.6 150.7 154.1 158.8 159.2 159.2 160.5 164 167.2 169.6 171.4 172.3 172.3 171.8 170.7 168.1 166 165.4 166.1 166.8 167.3
201.8 202.1 200 198.1 199.1 199.2 200.7 202.9 205.2 207.8 211.6 215.1 221.5 228.6 238.3 247.1 255.9 263.4 268.8 273.9 277.2 281.2 283.9 285.8 288.4 291 294.4 296.9 299 300.3 301.4 301.4 300.3 298.4 297.6 295.9 296.5 292.7 289.6 284.8 282 283.4 280.1 260.5 243.7 235.9 228.6 225.3 222.6 221.6 223.5 228.1 233.6 238.4 244.2 249.8 257.5 264.6 270.2 276.4 280.8 285.6 284.9 280 270.5 263.4 254.9 245.8 235.2 227.2 218.8 211.1 203 195.6 188 180.2 173.9 169.4 166.8 164.1 161.5 160.5 159.5 158.5 157.4 156.3 155.8 156.5 155.8 155.4 155.2 155.2 154.6 153.6 153.8 155.3 156.6 158.1 160.6 162.9 165.1 167.1 169.1 171.1 174.2 179.6 185.3 191.3 198.3 200.2 204.1 214.2 223.4 233.3 239.1 249 255.2 257.2 254.5 246.6 236.1 223.3 208.1 195.8 186.9 179.1 171.2 165.3 160.3 155.2 150.3 145.6 141.5 138.1 136.2 134.6 133.9 132.6 132.7 131.8 129.5 126.8 121.9 118.6 115.7 112.8 111.6 112.5 110.2 106.3 103 103.1 103.9 104.1 104.3 104.5 104.6 102.9 104.1 110.3 115 119.5 125.3 127.9 119 116.5 118.7 123.7 127.4 130.9 132.4 133.6 133.1 134.5 135.4 137.6 140.6 142.6 146.4 149.7 151.6 155.5 158.1 159.3 159.5 160.9 164.7 167.2 169.5 171.7 173.8 174.2 173.9 174.8 175.9 174.1 171.7 168.8 167.2 167.3
199.6 199.4 197.1 194.9 195 195.3 196.8 199.2 201.4 203.6 206.5 209.7 214.8 220.8 227.5 235.4 243.3 249.4 255.5 260.1 263.8 267.5 269.5 272 275 278.1 280.7 282.3 285.5 286.8 287.7 288.7 286.8 285.6 284.6 283.2 279.6 275.9 272.5 269.5 268.4 270.5 274.2 265.6 248.1 233.8 225.8 221.2 220.3 217.3 219.6 222.8 228 232.7 237.1 241.9 248.5 253.6 258.1 262.4 267.7 272.2 269.5 267.3 263 256.2 248.6 240.3 229.9 222.7 216 208.9 201.6 194.5 188.9 183.8 175.7 169.1 165.9 163.2 160.5 158.9 157.9 156.9 155.8 154.8 154.3 153.6 153.7 153.9 153.8 153.3 153.2 152.6 153.5 154.9 156.3 157.8 160.1 162.4 164.6 166.6 168.6 170.8 173.5 179.7 186.9 192.4 197.6 202.4 206.4 214.4 224.5 235.3 242.1 252.5 259.5 260.4 257.1 248.3 235.4 223 208.3 194 185.5 178.3 170.9 165.6 158.3 151.8 145.8 143 140.1 137.9 136.3 135.3 133.8 132 130.7 129.6 127.4 126.1 122.4 117.1 115.3 112.6 109.8 107.9 104.3 101.3 100.1 101.6 101.3 101.9 102.9 102.1 103.1 106.4 110.7 113.9 117.2 125 128.4 125.9 115.9 115.5 119.2 122.4 126.7 129.5 132.4 133.1 134.4 135.3 136.4 137.6 140.2 144 148.1 150.2 151.9 154 156 157.6 157.1 160.9 164.3 167 169.4 170.8 172.1 174.3 175.1 177 180.7 181.7 178.2 175.6 172.2 168.4
194.9 195.3 193.1 191.3 191 192.6 193.8 195.2 196.9 199.5 202.5 205.4 208.5 213.9 220.8 226.1 231.7 237.5 242.5 244.1 247.3 248.4 251.9 255.8 259.8 263.8 267.8 270.4 274.3 275.6 275.5 275.4 275.3 273.5 271.4 268.1 265.8 262.8 261.3 259.5 257.9 257.2 265.4 257.3 243.9 228.9 222.4 218.2 217.1 213.5 215.6 218.1 222.5 227.1 231.1 235.1 239.1 244 248.3 252.1 254.6 253.8 253.9 254.2 252 248.3 242 233.1 223.6 216.8 211 205.3 199.6 194.8 190 185 178.2 170.6 165.4 162.3 159.6 157.4 156.4 155.4 154.5 153.9 153.4 152.9 153.1 153.2 153.2 153.2 152.5 152.5 153.5 154.4 155.6 157.2 159.6 161.9 164.2 166.1 168.3 170.5 173.4 181.1 187.7 193.4 198.4 205.1 208.6 211.6 221 234.4 243.1 252.8 260.7 260.5 255.7 245.2 233 220.2 206.2 192.1 184.1 177.2 171 164.2 156.9 149 144.6 140.9 139.5 137.5 136.2 134.9 133.5 131.6 129.9 128.5 125.9 125.2 121 117.1 115 112.7 109.1 104.6 101.9 100.1 100.5 104.8 106 105.7 106.1 107.8 107.7 109.5 114.2 118.3 127.1 130.2 127.5 126.6 113.6 114.9 117.9 121.4 125.4 128 131.1 134.5 135.9 136.8 137.5 138.6 139.8 142.3 144.8 148 150.1 151.3 153.3 153.5 155 160 163.6 166.2 168.6 169.9 170.7 174.3 176.9 178.1 180.7 183.7 183.8 182.8 179.1 175.2
190.9 190.9 189.8 188.3 187.9 190 191.2 192 193.6 195.3 198.1 201.1 203.4 207.1 212 217.6 221.6 226.3 229.8 232.2 235.2 236.5 239.6 243.8 248.1 252.3 255.9 259 261.6 263.4 265.4 265.3 263.4 261.7 259.5 256.9 254.1 253.1 252.7 251 249.1 247.2 244.2 240.5 232.8 223.6 218 215.2 214.2 210.8 211.4 213.9 217.6 221.5 224.8 228.8 231.4 234.6 238.2 241.3 244.2 242.9 243.1 243.4 243 239.8 233.6 224.9 216.1 212.3 206.9 201.5 196.8 193.2 189.5 185.5 180.2 173.5 166 161.2 158.4 156.6 155.2 154.3 153.8 153.3 152.8 152.3 152.4 152.5 152.6 152.6 152.7 151.8 153 154.1 155.2 156.5 159 161.4 163.7 165.8 168.3 171.3 174.7 181.7 188.5 194.4 199 206.5 209.1 212.6 221 232.1 241.6 250.4 255.9 257.2 250.7 240.4 227.9 214.9 201.5 189.7 182.5 175.7 169.3 163 156.5 148 141.7 138.9 138.7 137 135.1 134 132.8 131.4 130.6 130.1 126.2 122.9 120.4 117.1 115 113 109.5 104.9 101.7 99.3 100 103.7 107.1 108.1 107.9 107.7 107.2 108.2 116.7 126.8 126.2 116.5 114.8 123.1 115.2 113.4 114.3 117.4 121 126.7 130.7 134.2 136.9 138.2 138.9 139.4 140.2 141.5 142.4 144.2 146.6 148 149.7 151 153.1 158.9 162.2 164.8 166.1 167.3 168.2 172.7 175.6 177.8 180.7 183.6 185.4 186.1 183.9 181.7
185.7 186.3 186.7 185.6 185 187.3 188.4 189.2 190.7 192.3 193.8 196.8 198.6 201.4 204.6 208.8 212.6 216.7 220.3 222.8 224.7 227.2 230.3 234.4 238.5 241.9 246.4 249.3 252.3 253.9 255.5 255.6 253.2 251.2 249.1 246.9 245.3 244.5 243.5 241.9 240.8 238.2 235 231 225.5 219.3 213.9 211.9 210.2 208.7 207.4 210.6 213.1 216.3 219.6 222.5 225.4 227.6 229.7 232.2 233.5 234 233.9 234 233.7 230.7 224.8 217.2 209.1 206.4 203.2 198 194.1 190.4 187 183.5 181.3 173.8 165.9 160.5 157.8 155.9 154.7 154.3 154 153.6 153.3 152.8 152 152.1 152.2 152.3 151.6 151.3 152.1 152.8 153.6 154.9 157.4 160.3 163.3 166.5 169.5 172.8 176.8 183.4 190.1 194.3 200.4 206.8 207.7 210.7 225.4 231.4 238.4 246 250.1 248.6 242.2 231.3 219.9 207.2 197.2 188.8 181.4 174.6 167.6 160.6 153.7 145.4 141.2 138.5 137 135 133.8 132.6 131.9 132.7 131.9 131.2 128.7 125.4 121.2 118.1 116.3 114.4 112 107.2 102.8 100.4 98.8 97.8 101.5 102.5 103.3 103.9 104.4 103.5 112.1 120.6 120.6 116.3 115.3 115.8 116.1 111.4 113.4 118.1 118.4 122.8 129.8 133.6 137.5 139 140 140.1 141.2 141.7 142.9 143.8 145 146.7 147.7 149 151.4 155.3 160.3 163.2 164.6 165.4 166.7 169.6 171.8 174.8 179.1 182.3 184.8 186.3 186.5 186.8
181.3 181.2 182.5 182.4 182.3 184.5 185 185.7 187.1 189.2 190.1 192.1 194.2 195.5 198.3 201.9 205.8 208.8 212.3 214.5 217.7 219.9 223.4 226.5 229.8 233.5 236.4 239.8 244.3 246.1 246.2 246.1 244.8 243.6 240.5 238.1 236.8 236.1 235 234.6 232 230.1 227.9 224.4 219.1 214.6 210.9 208.8 207.5 206.7 205.8 206.6 209.4 212.2 215.3 218.1 220.4 222.4 224.1 224.8 226.3 226.8 225.9 226.6 225.8 222.6 216.7 209.7 203.8 202 199 195.7 192.4 188.9 185.1 181.4 178 171 164.8 160.9 157.7 155.7 155.1 154.8 154.4 154 153.7 153 152 151.9 152 151.2 150.4 150 149.8 149.6 151.9 153.5 156.5 159.8 162.7 166.2 170.3 173.4 178.4 184.7 190 194.5 201.4 206.5 206.7 209.5 224.8 230.3 235.9 240.4 242.9 241.3 234.7 224.5 214.7 202.7 192.6 188.4 181.2 173.9 166.8 159.4 151.6 144.2 139.9 137.1 135.6 134.2 132.7 131.6 132.4 133.7 132.7 131.3 130.1 125.8 120.9 119.2 117.6 115.8 113.8 110.1 104.8 101.8 99.7 97.8 95.9 96.2 95 95.1 97.7 100 108.4 111.3 115.8 115.1 121 121.8 115.4 110.4 112.6 115 117.3 120.8 126.1 131.3 135 138.1 139.5 140.6 141.4 142.1 142.5 143.2 144.2 145.4 146.6 147.5 149.1 151 156.2 160 163.7 164.2 164.5 165.8 167.8 170.5 175.4 179.5 181.7 184.8 186.3 189.3
176.9 176.7 178.9 179.6 179.5 181.3 182.4 183.5 184.5 185.6 186.8 187.7 189.6 191.5 194 196.8 199.4 202.5 206.9 209.9 212.7 215.3 217.2 219.8 222.8 225.7 229.2 233.9 237.8 239.9 240.6 239.2 237.8 236.1 232.8 231.6 230.2 229.1 228.8 227.7 226 224.1 221.6 218.8 214.2 211 208.5 206.4 205.4 204.1 202.8 203.6 206.2 208.9 211.6 213.8 216 218.3 219.4 220 221 219.9 219.4 220.6 218.6 215.2 209.4 202.5 198.8 197 195.7 192.8 190 187.5 184.7 182 178 170 164.1 160 158 156 154.9 154.9 154.7 154.4 153.9 153.1 152.3 151.6 150.9 150.1 149.3 148.8 148.6 149.2 150.9 153 156.3 159.1 162.1 165.5 169.6 173.9 179.9 186 190.1 195.8 201.1 205.4 206.6 210.1 222.3 227.2 233.1 235.4 235.2 232.4 226.8 218.4 209.4 193.5 187.6 185.2 181 173.6 164.6 156.2 148.6 142.5 138 136 134.7 133.2 132 131.7 132.5 133.4 132.3 131.2 130 127.6 122.3 120.8 119.7 118.1 114.3 111.7 108.5 105.5 102 99.1 97 94.8 95.1 94.6 93.2 95.2 104.5 113.6 118.2 117.9 121.2 120.3 108.8 109.1 111.3 114.2 116.9 119.5 123.2 127.8 131.2 133.3 136.2 138 139.3 141.1 141.6 142 143.2 144.6 145.8 146.3 147.7 149.5 150.7 154.8 159.7 162.1 162.8 163.2 162.8 163.3 167.1 172.1 176.6 182.1 187.4 191.4
174.6 174.1 176.1 176.1 177.7 179.1 180.5 181.2 181.4 182.1 182.9 184.8 185.9 188.2 190.5 192.7 195.2 198.5 201.9 204.8 207 208.9 211.2 213.1 215.9 220.3 224.6 228.6 233.1 234.7 234.1 232.9 231.7 229.5 227.5 225.7 224.6 223.5 222.6 221.2 219.8 217.8 215.7 213.6 210.4 207.9 205.8 203.9 202.7 201.5 201.8 200.5 203.7 206.5 208.2 210.3 212.5 214 214.8 215.3 216.2 214.8 214.3 214.9 212.7 206.9 201 196.8 193.7 192.8 192.3 189.8 187.8 185.7 183 180.2 176.4 171.1 164.3 161.1 159.4 156.3 154.5 154.7 154.7 154.3 153.3 153.1 153 151.8 150.4 149.2 148.4 148 148.1 150 151.9 153.9 155.6 158.4 161.5 164.9 169.2 174.8 180.4 186 191.4 196.5 201.1 204.8 206.5 210.8 218.5 223.3 227.3 229.4 227.7 224.5 218.4 210.7 199.2 189.9 185.6 182.9 179.2 172.1 163.3 152.9 145.6 139.7 136.6 134.9 133.7 132.7 131.9 132.3 132.4 132.9 131.7 130.7 129.7 129.2 128.5 124.6 125.4 125.6 117 113.6 109.9 107.3 103.6 100 97.9 95.6 94.4 94.5 94.5 93.8 99.7 106.6 115 119.3 123.8 122.6 116.2 107.1 110.4 113.8 116.5 118.3 120.8 125.1 127.2 128.5 131.7 135 135.8 138 139.3 141.1 142.5 143.9 145.1 146.3 147.6 148.9 150.3 150.9 153.5 157.4 159.2 158.8 159.1 157.8 161.2 165 169.6 176.5 183.5 189.6
175.3 172.5 172.7 173.8 175.2 176.7 178 178.8 179.2 179.1 180.1 181.5 182.8 184.8 187.1 189.5 191.2 193.6 196.5 199.4 201.5 203.6 205.4 207.6 210.5 214.9 219.9 224.2 228.1 229.3 229.5 228.7 226.8 223.9 222.1 220.6 219.5 218.7 217.9 216.7 215.4 214.1 212 209.7 207.6 205.7 203.7 201.6 200.4 199.8 198.8 198.1 201.5 203.2 204.9 206.9 208.2 209.2 210.2 210.7 211.2 209.2 208.2 206.3 202.7 194.8 192.3 189.9 188.8 189.2 189.3 187.6 185.6 183.8 181.1 178.3 174.7 171 161.4 163.1 160 156.5 154.1 154.3 154.6 154.7 154.6 154.5 153.8 152.3 150.7 149.3 148.7 147.7 147.6 149.9 152.4 155.3 157.6 158.7 161 164.6 170 174.6 180.2 185.8 191.1 195.7 200 203 205.9 210.8 216.9 220 223.5 225.7 224.5 218.5 209.7 202.5 194.9 190.3 186 181.9 176.2 168.9 158.9 147.8 141.3 137.3 135.7 134 132.4 131.1 130.7 131.6 132.4 132.2 131.4 130.5 129.5 129 128.8 125.4 121.1 120.3 117.2 114.3 111.3 107.3 105.1 102.3 98.1 95.1 93.9 93.6 93.4 93.7 98.6 103 106 104.6 106.5 111.2 112.5 104.6 109.3 113.2 115.3 117 117.5 119.8 120.2 124.8 127.4 131.2 132.4 135 138.6 141.7 143.4 145.1 146.6 147.9 149.5 150.3 150.2 151 151.8 154.6 156.4 157.8 156.1 156.5 157.9 160.5 164.9 169.1 173.3 182.5
175.9 170.5 170.6 172 172.3 174 175.2 175.3 175.9 176.3 177.2 178.6 180.4 181.7 184.4 186.1 187.5 189.4 192.2 194.5 196.4 198.5 200.3 202 205.6 209.2 215.1 219.7 223.4 225.3 225.2 223.5 221.6 218.9 217.1 216.2 215.3 214.4 213.7 212.6 211.3 210 208.6 206.5 204.5 202.6 200.7 199.1 197.8 196.8 195.9 195.5 197.8 200.4 202.4 202.5 203.5 204.5 205.6 206 205.1 203 201.3 197.4 189.4 187.5 186.6 184.6 184.4 184.8 184.9 182.2 182.1 180.9 178.9 176.3 173.2 167.9 162 164 159.9 156.3 153.2 153.5 154.7 154.6 154.6 154.6 154.5 153.1 151.1 147.9 146.8 148.3 148.4 149.1 152.2 154.6 157.2 159.6 160.8 165.2 170.2 173.7 180 185.5 190.1 194.1 198.5 201.8 205.1 209.6 214.3 218.2 222.2 224.3 221.8 215 204.6 198.4 193.6 190 186.3 182.4 177.8 166 154 143.9 139.1 136.4 134.5 132.9 131.5 130.2 129.5 130.5 130.5 130.2 130 129.8 129.2 128.4 123.6 118.7 118 117.1 115.4 114.2 111.9 109.9 109.9 105.2 101.5 95.8 93.7 92.8 93.1 93.8 98.9 100.1 99.6 99 98.9 101.6 106.5 102.8 106 110.4 113.6 113.9 113.8 114.6 120.9 125.8 130 135 137.7 138.3 141.4 143.4 146.8 147.2 148.4 149.8 151.4 152.6 152 151.5 152.1 153.3 155.1 155.1 155.1 156.2 156.9 158.9 163 165.7 166.9 173.9
175 168.9 168.4 170.1 169.3 171.3 171.8 172 173.2 174.1 174.7 176 178.4 179.6 181.2 182.6 184 185.8 187.7 189.5 191.4 193.4 195.2 197.6 200.7 204.1 209.8 216.6 220.7 221.6 221.1 218.9 216.1 214 213 212 211 210.1 209.5 208.6 207.3 205.9 204.5 203.2 201.6 199.8 198.3 197 195.7 194.3 192.4 193.5 195.7 197.3 198.8 199 199.1 200.1 201 199.8 196.9 195.4 191.8 188.7 185.4 183.9 181.9 180.3 179.4 179.9 179.3 176.1 177.5 177.5 176.6 174.1 171.3 162.8 163.5 163.1 159.2 155.9 154.3 153.5 154.7 154.6 154.7 154.6 154.5 154.4 147.7 146.4 147.1 148 148.9 150.6 153 154.2 156.4 159.5 160.9 163.5 169.3 172.9 178 184.2 188.7 192.3 196 199.9 201.7 204 208.6 216.2 220.9 222.7 219.9 215.2 204.8 197.4 192.5 188.7 185 181 175.8 160.6 148.8 141.6 136.7 134.8 133.3 132.9 131.6 130 128.4 128.4 128.2 127.4 127.1 127.1 127 125.2 121.9 119.4 120.1 116.6 115.7 113.7 113.4 115.7 117 108.6 103.2 98 92.6 92.1 92.7 94.6 98.1 98.5 97.9 97.3 97.1 98.4 101.6 101.9 105.6 108.8 111 111.3 112.4 115.7 120.9 125.6 130.2 135.4 138.9 140.4 143.8 145.6 148.1 148.3 149.5 150.8 152.3 153.3 152.9 153.1 154 153.6 154.4 154.4 155 155.7 155 156.5 160.2 162.6 165.3 169.3
173.7 168.8 166.6 166.9 166.6 168.5 169.1 169.8 171 171.9 172.3 173.6 175.3 177.1 178.3 179.7 181.1 182.5 184.3 185.8 187.5 189.2 191.2 193.5 196.1 200 205.6 213.2 217.3 218.4 217.2 214.4 211.6 210.2 209.2 208.2 207.2 206.9 206 205 203.8 202.7 201.5 200.3 199 197.4 196.1 194.8 193.5 191.9 189.4 190.5 191.8 193.1 194.7 195.1 195.3 195.8 196.1 192.9 189.9 188.2 187.5 184.5 181.2 179.3 177.6 175.9 174.3 170.3 168.9 167.3 168.2 173.2 173.5 171.6 168 162.5 164.2 162.5 159.3 156.8 154.1 152.8 154.5 154.6 154.8 154.5 154.4 151.4 146.4 148.6 148.8 148 149.7 154 156.7 157.4 156.6 158.9 160.6 162.8 165.5 170.9 174 180.6 183.5 187.7 190.5 194.4 197.4 200.3 206.1 215 220.4 221.9 219.3 214.1 206.9 197.2 190.7 187.1 183.4 178.3 170.3 154.5 144.7 138.7 134.6 133.3 132.9 132.6 131.7 130.4 128.3 126.9 126.2 125.7 125.1 124.9 127 127 124.3 124 123.7 118.2 117.3 115.9 115.5 117 118 114.7 105.1 98.7 91.9 91.7 92.4 94.9 97.7 98.1 97.1 96.2 96 97.1 98.1 100.1 103.1 106.3 108.1 110.2 112.3 115.2 120.1 124.9 130.6 133.9 138.2 140.6 145.7 148.4 149.4 149.5 150.6 151.3 151.9 152.2 152.3 152.7 153.7 154.1 154.5 154.7 154.3 153.4 152 152.1 153.8 157.9 162.5 164.8
172.2 167.4 164.8 164.7 164.6 165.1 165.8 167 168.3 169.1 169.9 171.7 173.6 175.7 176.3 177.1 178.4 179.5 181 182.5 183.9 185.8 187.9 190 192.5 197.1 201.9 208.5 212.2 213.4 212.6 210 207.5 206.5 205.5 204.5 204.5 204.2 203.3 202.3 201.1 199.9 198.8 197.6 196.4 195.3 194.1 192.9 191.5 189.7 187.6 187 188.4 189.6 190.8 190.8 190.8 190.5 189.4 186.3 184.8 185.7 184.8 181.5 177.9 176.4 174.6 172.9 170.9 166.9 166 165.6 164.8 164.1 164.9 168.1 164.6 163.3 164.8 162.7 159.5 155.9 152.6 150.3 151.3 154.2 153.7 153 151 149.5 147.3 152.5 149.7 149 151.1 154.8 157.1 156.9 156.7 158.6 162.1 164.8 166.2 170.9 171.6 173.8 176.8 181.3 187.5 190.5 193.2 196.1 205.6 212.5 217.6 219.9 218.7 212.8 206 198.3 188.6 184.8 180.7 175 165.3 149.3 140.2 135.4 133.2 132.8 132.7 132.4 131.3 130 128.6 126.2 125.2 124.6 124 123.7 123.3 126.2 128.1 128.4 127.6 121.7 117.2 116.8 118 122.1 120.8 116.4 107.4 100.4 91.8 91.5 91.1 94 96.1 98.2 96.2 95 95.5 96.8 96.7 99.6 103 106.1 109.5 110.9 112.1 114.5 118.4 124.4 130.2 132.1 136.5 140 144.4 148.2 150.3 150.6 150.5 151.1 150.5 150.7 151.3 151.7 152.2 152.1 153.1 155.1 154.5 152.6 150.5 150.4 151.2 157.9 160.9 163.6
170.3 165.8 163.1 163.1 162.5 162.9 163.3 165.3 165.7 166 168.3 170.1 171.9 173.2 173.8 174.6 175.7 176.9 178.1 179.7 181.3 182.5 184.6 186.6 190.5 196.2 200.5 204.2 207.5 208.5 207.9 205.9 203.7 202.8 201.8 201.8 201.8 201.4 200.6 199.6 198.4 197.2 196 194.9 194.2 193.4 192.3 191.1 189.4 187.7 184.2 182.8 184.1 185.9 186.6 186.1 185.3 185.7 184 181.3 183.5 183.1 181 177.2 174.7 173.1 171.6 169.8 167.4 166.2 171.6 173 172.8 164.7 163.5 163.5 163.5 164.6 165.5 162.7 159.5 158.1 152 148.4 149.3 152.3 155.4 153.8 150.8 148.5 146.8 150.8 151.1 150.9 151.7 154.1 156.4 154.8 156.2 161.3 164.9 164.7 164.6 167.4 170.8 172.9 175 178.4 183.8 186.1 188.9 192.2 199.3 207 213.5 215.8 215.2 209.2 202.3 193 185.9 182 177.1 170.8 158.1 144.5 136.7 133.7 132.2 132 132 132 130.9 129.6 128.3 126.2 124.3 123.6 123.2 123.1 122.8 122.3 127.9 127.7 124.5 122.2 119.1 119.5 123.9 123 120 112.6 108.3 103.2 92.2 90.6 90.9 92.2 93.5 94.1 94.2 94.5 94.3 94.7 96.8 99.5 103.8 114.1 113.6 112.8 113.6 113.8 117.8 124.6 126.9 129.5 133.2 139.3 142.7 147.3 149.1 150.3 150.5 149.6 148.9 149.1 149.8 150.1 150.1 150.1 150.9 152 151.9 151.7 149.3 149 150.7 154 158.4 160.6
170.4 164.8 160.3 160.7 160.4 161.1 162.7 163.3 163.7 164.3 166.7 168.6 170.4 171.3 172.1 173 173.9 175.3 176 177.3 178.8 180 181.3 184.8 189 194.8 198.5 201.3 203.1 204 203.5 201.7 200 199.1 199.1 199.1 199.1 198.7 197.9 196.8 195.7 194.5 193.5 192.8 192.1 191.3 190.4 189.1 187.4 185.7 182.9 179.8 179.3 179.9 178.2 177.4 177.7 177.9 176.9 177.9 179.5 178.8 176.2 174.1 171.5 169.9 168.3 166.8 167.1 168.1 170.8 171.3 171.9 169 164.3 163.9 166 166.6 167.3 167.4 165.1 160.6 151.3 149.1 147.9 149.7 152.6 151.2 148.8 146.1 144.4 147.7 149 148.7 150.5 153 154.2 154 157.2 161.2 163.1 162.7 165 167.6 170 171.7 173.2 175.5 180.8 182.8 185.2 188.6 194.6 201.9 208 210.8 208.9 203.6 196.8 187.8 182.6 177 173.2 166.6 152.4 139.8 134.6 132.8 132.2 131.8 131.4 131.3 130.3 129.1 127.8 126.2 123.6 122.3 122.8 123.1 121.6 121 120.9 124 121.8 120 120.4 124.3 123.8 119 113.8 110.2 107.6 104.8 95.5 90.1 90.9 91.1 91.2 91.9 92.6 92.9 93.6 93.8 96.3 100 105 111.8 114.5 114.9 115.2 115 114.7 119.4 122.8 126.1 131.6 136.6 141.2 145.5 148.1 148.8 148.5 147.7 147.4 147.4 147.2 147.2 148.1 148.2 148.2 148.2 149 149.1 148.9 147.7 149.7 151.6 153.6 157.5
170.3 164.5 159.1 159 158.9 159.9 160.7 161.2 161.7 162.6 164.9 166.8 168.7 170 171 172 172.8 173.7 174.1 175 176.4 177.5 179.7 182.6 187.2 192.5 196 198 198.9 199.5 199.3 197.8 196.5 196.5 196.4 196.4 196.4 196 195.3 194.1 192.9 192.2 191.5 190.7 190 189.2 188.3 186.9 185.3 183.7 181.2 175.9 174.9 173.8 172.2 172 172.8 173 174 174 175.1 173.8 171.4 169.3 167.6 166.5 165.3 165.1 166.8 168.3 169.7 171.2 170.8 169.3 167.3 167.4 167.1 166.6 165.4 167.4 168.1 164.2 157.2 152 148.5 146.9 147.9 147.7 145.9 145.4 144.3 144.5 146.1 145.4 149.5 151.7 152 152.8 155.4 159 162.2 162.3 166.7 170 168.1 169.4 171 173 177 179.5 181.3 183.6 189.8 197.5 201.4 202.9 201.9 196.8 189.3 183 176.5 173.4 168.4 161.7 147.7 138.3 133.8 132.2 132.1 131.8 130.9 130.6 130 128.3 126.9 125 123.6 121.8 121.5 122.5 121.3 119.6 118.9 118.8 118.4 117.7 119.3 123.8 119.2 114.9 111.8 109.9 108.6 105.2 98.5 91 89.8 90.8 90.3 90.4 90.6 91.9 92.4 92.6 96.3 100.2 106.9 112.5 113.7 114.7 115.6 113.9 113.2 115.6 118.6 124.2 131 135.8 142.6 145.7 145.7 145.9 145.9 145.8 145.2 143.8 143.9 143.8 144.1 144.4 144.4 145.3 146.1 147 147.7 148.8 148.8 149.4 151.3 153.8
172.3 166.4 158.4 157.5 157.4 158.1 159.2 159.7 159.9 160.8 162.8 164.8 166.9 169 170 170.9 171.7 172.2 172.5 172.7 174 175.3 177.8 180.7 185.5 189.9 192.5 194.6 195.4 195.6 195.3 194 193.8 194.1 194.1 194 193.9 193.3 192.6 191.6 190.8 190.1 189.4 188.6 187.9 187.2 186.3 184.4 182.7 181 177 173.6 171.5 170.8 169.7 168.7 169.2 170.2 171.4 171.3 169.9 168.4 166.1 164.9 163.6 163.3 164.2 166.2 167.2 168.6 170 171.1 170.6 169.5 168 167 165.7 166 164.1 165.6 167.2 164.2 158.9 155.9 149.3 147 144.9 145.5 144.6 144.3 142.3 142.2 142.7 143.4 147 149.1 150.1 151.8 158.2 161.6 162.8 164.5 167.1 168.3 166.5 167.5 168.7 170.9 173.2 175.6 176.8 178.4 183 190.2 193.1 194.3 192.9 188.7 183 177.4 170.9 167.7 163.7 156.3 143.8 136.7 132.9 132.2 132.1 131.3 130.5 129.8 129.7 128.2 125.9 123.9 122.2 120.6 120.5 122.1 121.1 119 117.2 116.3 115.7 116.5 115.2 118.9 119.9 115.5 113.1 111 107.6 103.8 102.5 98.9 91.8 88.4 89.1 89.2 89.9 92.1 91.4 91.7 96.6 100.3 109.7 110 111.3 112.7 113.5 112.6 111.9 113 115.3 121.5 127.8 134.4 139.1 141.9 143 142.4 142.5 142.9 143.6 142 140.6 140.5 140.6 140.7 141.2 141.7 142.7 144.4 145.7 149.2 148.4 148.1 149.8 151.4
172.1 167.3 160.7 156.6 156.1 156.2 157.3 158.3 158.3 159.2 161 163 165 167.2 168.8 169.7 170.2 170.7 171.1 171 172.1 174.1 176.6 180 182.9 186 189.2 191.3 192 191.8 191.5 191 191.3 191.5 191.7 191.6 191.5 190.7 190.1 189.5 188.8 188 187.3 186.6 185.8 185.1 183.9 182 179.9 177.1 174.1 172 170.2 168.6 167.4 166.2 166 167.4 168.3 166.2 165.8 163.5 162.1 160.9 161.1 163.2 165.3 167.3 169.2 170.2 170.4 170.6 170.4 167 163.6 162.6 164.9 163.7 162 161.4 165.5 163.1 159.6 155.4 150.6 149.4 148.8 145.6 144 143.6 141.4 140.7 140.6 143.7 150.4 152.6 150.7 153.3 159.6 162.8 162.5 163.7 164.4 164.6 166.2 167.2 168.4 168.8 170.2 171.3 172.7 174.8 177.2 181 186 186.4 184.3 181.6 176.7 170.9 165.5 162.2 159.6 151.5 140.8 135.1 132.3 131.8 131.4 131.1 130.9 130.2 129.4 127.5 125.2 123.1 121 119.6 121.2 123.2 121.1 118 116.1 115.2 114.1 112.8 112.1 110.7 112.1 113.3 111 108.9 105.9 104.4 103.9 103.6 102.8 94.4 87.8 88.7 89.1 90.6 91 94.3 97 101.3 107.4 107.6 108.8 109.7 110.6 110.8 110.3 110.9 113.4 121.9 126.5 133 137.5 138.1 139.6 139.3 139 140.9 139.9 138.2 137.7 137.5 137.6 137.6 138.8 140 140.9 141.7 145.1 147.5 147.8 146.2 147.3 150.5
170 167.1 161.9 154.7 154.4 154.7 155.7 156.4 156.8 157.8 159.4 161.4 163.3 165.4 167 167.8 168.6 169.2 169.7 169.3 171.1 172.8 175.5 178.2 179.7 182.3 185.5 187.4 188.1 187.9 188.1 188.4 188.7 188.9 189.2 189.3 188.8 188 187.7 187.2 186.5 185.8 185.2 184.5 183.7 183 181.5 180 177.2 174.2 171.8 170.5 169.6 168.8 164.5 164 162.6 162.8 163.3 161.3 160.7 159.7 158.9 159.5 161.3 164.9 169 170.5 170.8 169.5 165.6 169.2 168.7 161.7 160.1 160 162.5 161.4 160.2 160.6 164.5 162.4 159.3 153.5 149.5 149.5 149.6 146.5 145.1 143.7 141.5 139.4 141.9 147.1 150.9 153.7 151.3 154 158.7 160.3 161.3 161.9 161.8 163.6 166.6 167.9 169 169.1 168.9 169.8 171.1 172 173.4 176.1 179.6 179 177.6 175.1 170.6 165.9 163.1 158.8 150.4 143.7 138.1 133.7 131.9 131.4 131 130.6 130.5 130.2 128.4 126.5 124.3 121.7 118.8 118.8 122.1 121.7 119.4 116.5 115 114.3 114 113.7 113.4 111.9 112.1 113.2 111.9 108.6 105.9 103.9 103.6 103.4 103.2 102.3 94.9 89 87.6 88.4 88.6 93.2 99 101.6 103.1 105.5 107.1 108.7 108.4 105.9 107.4 108.4 110.5 116.4 124.4 130.9 132.7 133.5 134.9 136.1 138.3 136.8 135.6 135.1 134.7 134.7 134.7 135.1 136.6 138.3 139.3 138.4 139.1 141.3 142.5 143.2 144.4 146.5
166.9 164.5 160.9 155.5 153.5 153.4 154.5 154.9 155.8 156.7 157.6 159.4 161.5 163.3 164.2 165.1 166.6 167 167.7 168.3 169.7 171.1 173.5 175.4 176.9 178.6 181.2 182.2 183.1 184.2 185 185.9 186.2 186.4 186.6 186.4 186 185.6 185.2 184.9 184.3 183.6 182.9 182.2 181.6 180.9 179.5 177.7 174.5 171.3 169.8 169.8 168.8 167.8 165.6 161 160.5 159.4 158.6 158.2 157.6 157.9 159.1 163.7 166.5 168.6 170.5 170.2 166.4 162 162.2 165.9 167 161.7 159.1 158.9 159 158.9 157.4 156.2 160.1 160.5 157.2 149.9 148.5 148.6 148.7 146.8 144.8 142 139.4 138.2 142.3 146.3 149.1 151.2 151.8 153.5 155.6 157.2 155.8 154.2 156 158.9 163.5 166.9 168.6 169 167.9 168.1 169 170.3 170.7 172.7 174.1 172.3 170.9 169.1 166 161.9 158.9 150.5 143.6 139.2 136.2 132.4 131.4 130.9 130.8 130.2 129.7 128.4 127.2 125.4 122.1 118.9 116.6 122.6 120.4 118 115.7 114.3 114.5 114.6 114.7 114.7 114.4 114 113.5 113 113.3 109 104.6 103.7 103.5 103.4 103.3 103 100.3 92.8 86.5 86.1 88 90.8 100.1 100.4 101.2 102.7 104.1 102.2 108.2 109.3 109.5 108.5 109 112.1 116.7 124.4 126.1 127.5 128.8 132.2 136.4 133.2 132.6 132.4 131.9 131.8 131.9 132.8 134.4 136 136.7 136.4 136.2 138.7 141.5 141.1 142.4 144.2
161.7 159.8 158.6 155.5 152.5 152.1 152.9 153.8 154.7 155.6 156.4 157.4 159.2 160.7 161.9 163.3 164.5 166.2 166.6 167.6 168.3 169.5 171.1 172.6 174.2 175.9 177.1 178.6 180 181.1 181.9 183 183.7 183.9 183.8 183.9 183.4 183.1 182.8 182.4 182.1 181.4 180.7 180.1 179.4 178.8 177.6 174.7 171.5 169.5 169.5 169.1 167.5 165.1 163.9 159.6 159.4 158.3 157.9 157.3 157.5 160 162.3 165.6 167.6 168.8 169.2 162.6 161.8 161.4 161.4 162.1 163.6 160.7 160 159.3 158.4 156.1 153.9 153 154.1 157.7 155.1 149.4 147.8 147.5 147.2 145.4 143.3 140.5 137.6 139.9 141.5 142.4 145.3 149.5 151.4 152.7 154 152.8 152.8 152.7 154.6 156.5 160.2 163.5 165.1 165.9 166.1 165.7 166.9 168.1 168.1 170.1 169.7 167.7 165.4 164 161.2 157.9 151.2 143.8 138.9 135.3 133.2 131.8 131 130.6 130.7 130.3 128.3 126.6 125.5 123.1 120.5 117.4 117.1 118 116.1 114.9 114.2 113.3 113.6 114.1 114.2 114.2 114.3 113.5 113.3 112.7 113.4 110.4 104.7 103.5 103.3 103.2 103 102.3 96.7 91.9 88.3 86.8 87.3 89.7 98 99.7 100.6 100.1 98.8 105 107.8 110.8 110.8 110.4 109.4 111.7 115.3 121.2 121 124.2 126.4 128 130.1 130.9 129.9 129.2 129.1 129 129.4 130.5 132.1 133.4 133.9 134.2 133.9 136.7 139.3 139.2 141.9 144.6
157.3 156.2 154.9 153.6 151.2 150.7 151.7 152.7 153.6 154.5 155.2 156 157.2 158.3 160.6 163.3 164.7 165.7 166.6 167.2 167.7 168.3 169.1 170.8 172.5 173.6 174.6 175.6 177.1 177.9 178.9 179.9 181 181.3 181.4 181.5 181.1 180.6 180.3 179.9 179.7 179.5 178.8 178.2 177.6 176.9 175.2 171.9 169.2 168.7 169.3 168 164.5 161.8 157.9 158.6 158.3 157.5 157.2 157.8 159.7 161.9 163.9 165 164.9 165.7 161.4 163.2 162.1 161.7 161.3 161.5 162.2 160.7 160.3 159.9 158.5 155.2 150.6 151.1 152.4 154.8 152.3 148.1 147.2 146.5 145.5 142.7 140.1 138 136.5 138.9 141.7 142 144.5 147.6 149.9 151 151.9 151.9 152.3 152.3 153.2 155.1 156.4 158.9 160.3 161.5 161.4 162.5 162.9 163.3 164.7 166.6 165.9 161.2 159 157.6 155.7 150.8 143.5 138.8 133.7 133.7 132.8 131.6 130.9 130.8 130.7 130.5 129.2 127.4 124.3 120.3 117.9 115.9 115.1 114.7 113.7 113.9 113 112.5 112.8 113.3 113.7 113.8 113.5 112.8 112.8 112.5 112.7 112.6 106.5 103.3 103.1 102.6 102.2 101.3 93.9 90.4 87.6 85.2 86.4 87.5 95 98.5 97.3 96.7 99.1 103.4 106.7 110.2 111.9 111.8 111.8 110.2 115.1 116.8 117.9 121.6 123.7 124.2 126.2 126.5 126.9 126.9 126.8 126.7 127.2 128.3 129.6 129.3 129 127.8 130.2 133.6 133.9 134.5 138.9 143.1
153.9 152.6 151.4 150.1 149.4 149.5 150.5 151.6 152.7 153.2 154 154.9 155.8 157.8 161 163.6 165 166.5 166.3 166.9 167.2 166.8 167.4 169.1 170.2 171.2 172.2 173.2 174.2 176 176.9 177.7 178.6 179 179.1 179.2 179 178.1 177.7 177.4 177.4 177.6 177 176.4 175.8 174.7 172.1 169.2 167.5 168.6 167.8 166.3 163.1 158.9 156.7 157.1 157 156.7 156.9 158.5 160.5 162.3 163.6 164.8 164.6 160.3 161 164.1 163.6 162 161.5 161.3 161.2 160.4 159.8 159 157 152.4 150.1 149.7 150.5 152.4 150.7 147.6 146.6 145.7 143 139.3 137.8 136.4 135.7 137.9 140.3 140.8 142.5 144.8 147.4 148.4 149.5 149.9 151.9 151.8 152.6 153.8 153.8 155.6 156.6 157.3 156.3 158 159.3 159.9 160.4 157.7 157 155.3 154 152.2 148 141.9 137.5 133.7 132 132 132.5 131.3 131.2 131.1 130.8 130.5 129 127.3 124.1 120.1 117.8 115.9 113.2 112.6 112.8 113 112.2 111.9 112 112.5 113 113.3 112.6 112.4 112.4 112.5 112.8 113.1 110 103.1 102.5 102.1 101.6 97.6 94.6 89 86.6 84.1 86.6 86.6 91.2 94.7 95 94.7 98.4 102.4 105.4 109.2 112.1 113.7 113.3 111.9 112.2 113.6 115.4 117.4 120.1 122 123.7 124.4 124.4 124.9 124.8 124.9 125.2 124.9 126.2 126.2 125.2 126.6 127 127.5 129.5 130.3 134.6 137.7
150.1 149.6 148.3 147.9 148 149.2 149.8 150.9 152 152.4 152.7 153.1 155 157.9 160.6 162 164.4 166.1 166.6 166.8 166 165.7 165.8 166.9 168 169.1 170.3 171.4 172.5 174.4 175 175.7 176.1 176.6 176.8 176.9 176.8 175.6 175.2 174.9 175 175.3 175.2 174.5 173.9 172.1 169 166.6 166.7 166.9 164.1 161.4 158.8 155.7 155.6 155.5 155.4 156.1 157.1 158.4 160.3 160.5 161.8 162.6 160 161.1 163 164.7 168.8 164.8 162.6 161.8 162 160.4 159.8 158.6 155.5 153.2 150.4 148.2 148.9 149.5 149.8 146.2 145.8 143.3 140 137.7 136.6 135.2 134.4 137.7 138.4 140.1 141.7 143.3 144.8 145.5 146.3 147 148.5 150.1 151.2 151.5 151.5 152.1 152.6 153.2 153.2 153.4 153.6 154.8 154.1 152.5 150.1 148.1 147.1 143.9 140 135.3 132.4 131.7 131.7 131.7 131.6 131.3 131 130.6 130.3 129.9 128.9 127 123.6 120.1 118.3 115.9 113.4 111.5 111.8 112 111.6 111.3 111.1 111.6 112.1 112.4 112.1 112.4 112.5 112.6 112.9 113.1 112.1 102.8 102.1 101.7 99.6 95.8 94.5 90.1 86.8 84.1 85 85.8 88.9 92.1 92.7 94.2 98.3 101.1 104.7 107.2 109.8 111.7 112.7 112.2 111.5 111.9 112.3 113.7 116.4 117.8 118.9 119.3 120 121.2 119.9 119.7 120.7 123.8 124.6 123.8 123.3 123.4 123.5 123.3 125.4 126 129.2 132.4
146.2 146.2 146.1 146.5 147.7 148.9 149.6 150.2 151.3 151.6 151.9 152.5 154.5 157.3 159.4 161.4 162.8 163.3 165.6 165.2 164.9 164.6 164.7 165.4 166.5 167.6 168.7 169.8 171 172.5 173.1 173.7 173.8 174 174.4 174.5 174.6 173.5 172.7 172.5 172.7 172.9 173.3 172.6 171.3 169.5 167.6 165 164.9 162.9 160.2 154.7 153.5 153.2 154.2 154.5 154.3 156.1 157.4 158.7 158.8 159 160 159.4 162 162.8 163.2 163.9 167.8 169.7 167.5 165.4 165.3 162.8 159.8 158.5 156.9 153.1 150.3 148.7 147.5 148.4 148.4 145.1 143.9 140.6 137.7 136.1 135.1 134 133.3 135.2 136.6 138.1 139.7 141.3 142.3 143 143.6 144.4 145.4 146.3 147.6 148.3 149 148.7 148.2 148.5 148.8 148.7 148.8 148.6 147.3 145.9 144.6 142.1 139.7 135.9 133.8 131.9 131.9 131.8 131.6 131.4 130.4 130.6 130.4 130 129.7 129.3 128.7 126.7 123.3 119.9 117.9 115.9 113.6 111.1 110.6 110.8 110.7 110.3 110.1 110.7 111.2 111.8 112.1 112.3 112.6 112.8 112.9 112.8 112.1 102.9 101.6 100.1 97.3 95.2 93.8 91.1 87.3 85.2 84.3 86 87.5 89.6 92.7 97.6 98.1 99.9 103.9 106.2 108.5 109.9 111.4 110.9 109.5 110.3 110.9 111.7 114.1 115.4 115.1 115.9 116.7 118 117.4 116.6 119.7 121.4 122.2 121.6 121.4 121.3 120.3 119 120.6 121.3 123 122.5
144 143.2 145 146.3 147.4 148.6 149.4 149.9 150.5 151 151.1 151.3 153.9 156.6 158.8 161.6 163 163.4 164.3 164.3 164 163.6 163.6 164.2 165.1 166 167.1 168.3 169.5 170.5 171.1 171.7 171.6 171.8 172 172.2 172.3 171.3 170.2 170.2 170 169.9 170.1 169.4 168.5 166.6 164.5 162.3 160.8 159 153.2 151.9 151.9 152 152.8 153.6 156 156.3 157.8 157.6 157.4 157.4 157.9 161.5 162.6 162.2 162.5 164.2 165.8 166.5 165.7 164.7 164.4 162.3 160.7 158.4 159.1 154.4 150.6 149.4 148.1 146.9 146.2 143.1 140.4 139.1 136.3 135.3 134.4 133 132.2 133.3 134.7 136 137.7 139.2 139.8 140.5 141.1 141.8 142.4 143.4 145 146.8 147.5 144.4 143 142.1 142.9 143.2 143.1 141.4 140.1 139 138.3 136.7 133.5 132.1 131.7 131.7 131.7 131.7 131.1 130.8 129.6 129.9 129.7 129.5 129.1 128.7 127.7 126.3 122.8 119.9 117.8 115.8 113.4 111.5 109.7 109.1 109.1 108.9 109.3 110.8 111.7 111.6 111.9 112.2 112.5 112.5 112.4 112.4 111.3 102.5 100.6 98.7 95.7 95 94 89.9 86.4 84.2 83.3 84.5 86.8 89 93 97.2 97.4 99.1 101.9 104.8 106.3 109.1 109.8 109.6 108.9 108.4 109.7 110.9 111.9 112.2 112.2 111.8 113.3 114.6 115 114.4 117.3 119.6 119.3 118.5 117.3 117.4 114.5 115.3 116.4 116.5 117.2 117.3
142.2 142.2 144.9 146.6 147.7 148.4 148.5 148.9 149 149.1 149.2 150 152.7 155.8 158.5 161.8 162.6 162.9 163.1 163.1 163 162.7 162.5 163 163.9 164.8 165.7 166.7 167.9 168.6 169.1 169.7 169.5 169.6 169.9 170.1 170.1 168.6 167.2 166.5 166.7 166.8 166.5 165.9 164.9 162.9 160.4 157.8 156.5 151.6 150.4 150 151 152.9 155 154.8 156.3 156.5 156.4 156.2 156 155.9 156.7 160.8 161.4 161.8 161.9 163.3 163.9 162.9 162.4 161.5 160.6 159.6 157.2 156.4 156.2 151.7 150.2 150 149.3 145.7 143.3 140 138.3 136.9 135 133.9 133.6 132.2 131.2 132.4 133.3 134.5 136.1 137.4 138.8 139.6 140.4 141.2 141.6 143.2 145.4 146.6 144 140.1 138.9 137.4 137.6 137.7 136.3 135.3 134 133.8 133.5 133.1 131.3 131.2 131.9 131.5 131.4 130.9 130.1 129.2 129.2 129.3 129 128.8 128.6 127.7 126.5 125.4 122.2 119.9 117.9 114.9 112.9 110.7 109.3 108.8 108.6 107.6 109.4 111.8 111.4 111.4 111.7 111.9 112 111.8 111.5 111.5 107.2 102.4 99.8 97.8 96.4 95.8 93.4 90.1 86.2 84.5 82.8 85 86.8 88.9 92.7 94.2 95.8 97.6 102.1 104.3 105.7 107.5 107.6 107.5 106.9 106.9 107.3 107.7 108 108.3 109.1 109.4 111.1 111.2 111.6 111.9 113.3 113.5 114.3 114.2 112.4 112.3 111.2 112.2 113.1 114.1 115.2 115.2
140.3 142.6 144.7 146.6 147.3 147.5 147.4 147.5 147.3 147.3 147.4 148.7 151.7 154.8 157.8 161.2 161.6 161.7 161.9 162 161.9 161.8 161.4 161.7 162.6 163.5 164.5 165.4 166.2 166.6 167.1 167.7 167.5 167.5 167.8 167.9 167 164.8 162.7 161.5 162 162.7 162.7 162.4 161.2 160 156.8 153.1 150.6 149.3 148.8 149.6 151.5 153.2 154.7 155.4 154.9 154.7 154.7 154.5 154.5 155.5 157.8 159.8 160.1 160.6 161.4 162.4 161 160 158.9 158 156.5 155.4 154.4 153.4 152.4 150.3 149.8 148.7 147.6 144.8 138.8 137.5 136.2 134.8 133.4 132.6 132.3 131.7 130.7 130.9 132 133.4 134.9 136.1 137.3 139.2 140.6 141.1 144.6 149 149.7 144.6 139.6 136.2 134.8 133.5 132.9 132 130.7 130.2 130.5 130.5 129.9 129.6 129.7 130.4 131.2 131.2 130.9 130.1 129.2 129.1 129.4 129.2 129 128 127.3 127.2 124.6 122.9 120.2 120 116.8 114.2 112 109.9 108.9 108.4 108.8 107.8 108.2 111.6 111.2 111.1 111.3 111.3 111.4 111.1 111.3 111.5 109.3 102.9 99.6 97.4 97.9 97 93 91.1 85.7 84.3 82 83.9 84.9 88.6 91.8 93.6 95.6 99.5 102.2 102.7 103.7 103.8 105 105.1 105.3 105.2 105.1 105.1 105.1 106.9 108.2 109.9 108.4 108.2 108.7 108.4 109 109.6 109.6 109.2 109.1 108.8 111.2 112.2 114.2 116.8 119.3 118.3
139.8 141.8 143.6 145.4 146.5 146.5 146.4 146.4 145.7 145.7 145.8 147.9 150.3 153.3 156.7 159 160.3 160.5 160.7 160.8 160.7 160.6 160.5 160.5 161.4 162.3 163.2 164 164.8 165.4 165.7 165.9 165.7 165.4 165.3 165.3 164.1 161.3 158.3 157.6 158.1 158.7 159 159.4 159.3 159.3 155.9 150.5 148.1 148.2 148.8 148.7 150.2 152 153.7 154.5 153.9 153.4 152.9 153.2 154.2 155.3 158.2 159.9 160.6 160.3 161.4 159.9 157.6 156.5 155.6 153.7 152.4 151.8 149.1 149.2 149.1 150 148.7 145.4 141.6 139.1 136.8 135.6 134.3 133.2 132.6 132.4 132.1 131.4 130.5 129.6 130.9 132.3 133.6 134.7 135.9 137.3 139.2 142.9 144.8 147.6 144.5 138.5 135 132 130.2 129.8 129.1 128 126.5 128.1 128.3 128.2 128.2 128.6 129.3 129.2 129.9 130.2 129.5 128.8 129 129.3 129.5 129.2 129 128.5 128 127.9 124.9 119.8 118.9 116.5 115.2 113.6 111 109.2 108.5 108.8 108.9 107.7 109 111.3 110.7 110.6 110.7 110.7 110.7 110.5 111.3 111.5 108.2 101 98.1 96.6 95.7 95.6 93 91.8 85.2 83.9 82.2 83 84.6 88.2 90.1 91.2 94.3 98.1 98.9 99.3 98.7 100.3 101.8 103.1 104.2 104.1 104.9 105.8 106.6 108 109.2 107.5 105.8 105.6 105.4 105.1 105.7 105.7 105.8 106 106.4 110 112.7 114.2 115.4 117.3 119.2 118.1
139.6 141 142.5 143.9 144.8 145 145 145.1 144.6 144.7 144.8 146.6 149.1 151.9 154.6 156 158 159.3 159.4 159.6 159.6 159.5 159.4 159.2 160.1 161 161.8 162.7 163.4 163.7 163.9 164 164.1 163.7 163.4 163.1 161.7 158.2 155.1 155.2 156.1 158.6 158.9 158.8 159.4 160 156.8 147.7 146.6 147.3 147.8 147.8 149.6 151.4 153.2 153.3 153.5 152.6 152 152.3 153 153.7 156.5 158.4 157.1 158.2 158.2 155.2 154.6 153.5 152.6 151 149.3 146.8 145.2 145.4 147.7 149.3 147.7 142.1 139.5 137.3 135.6 134.3 133.1 132.9 132.3 131.5 131.8 131.2 130.2 128.9 130.2 132 132.5 133.5 134.6 135.8 138 138.7 138 137.5 135.9 133.7 130.6 128.2 127 126.5 125.9 125.6 125.4 126.7 128.3 129.6 129.3 128.8 128.8 128.7 128.6 128.8 128.9 128.8 129 129.2 129.5 129.3 129 128.7 128.7 128.7 125.1 121.1 117.7 116.5 115.1 113.7 112.1 109.2 108 108.8 108.1 106.4 109.1 110.3 110.5 110.5 110.1 110.1 110 110.8 111.3 111.3 103.6 98.5 96.5 95.5 95.2 94.9 93.3 91.3 85.3 82.4 82.7 83.1 83.9 86.2 89.7 90.3 94 95.7 95.1 95.7 97.8 101.2 103.2 105.1 106.1 105.9 106.3 107 107.5 106.2 104.9 104.6 103.3 102.9 102.5 102.4 102.8 103.2 103.6 103.8 108.2 111.6 112.8 113.5 114.4 116.3 117.5 116
137.6 139.3 141 142 142.9 143.3 143.4 143.1 143.4 143.7 143.9 145.4 147.6 149.9 152 153.3 154.9 156.4 157.2 158 158.4 158.3 158.3 158.2 158.8 159.7 160.6 161.3 161.6 161.9 162.1 162.2 162.3 162.4 161.9 161.4 160.9 156.9 154.4 153.7 155.2 157.9 160.5 161.3 162.2 162.9 155.2 148.3 146.4 147.1 147.4 147.8 149.8 151.8 152.9 153.5 153.1 151.9 151.2 151.3 151.4 151.6 152.9 154 152.6 153.7 152.6 152.5 151.7 150.7 149.6 148.2 145.7 143.8 142.4 142.6 144.6 146.8 144.5 140.4 137.9 136 134.5 133.1 132.8 132.6 132.1 131.2 131 130.4 130 129.1 130 133 133.1 132.4 133.1 133.7 134.4 135.2 133.5 132.6 131.9 129.9 127.7 125.5 124.7 124.4 124.1 124.6 125.3 126.4 128.9 129.2 128.5 127.9 127.2 127.3 128.2 129.3 129.4 129.1 128.9 129.1 129.3 129.4 129.1 129.8 130.2 129.7 127 122.5 117.8 116.5 115.3 113.8 111.9 109.4 108.1 107.5 106.6 106.8 109.2 110 110.3 110.4 109.9 109.5 110.1 111 111 109.6 100 97.2 95.3 94.4 94.4 94.4 93.4 89.6 83.7 81.7 82 82.7 84.5 88.3 90.1 90 91.6 92.4 94.2 96.2 99.4 102.2 104.3 105.6 106.4 107.1 107.2 107.3 105.2 103.5 102.2 101.5 101 100.8 100.7 100.5 101 101.4 101.5 105.6 108.2 111.7 112.6 112.7 113.6 115.6 115.5 115.1
135.9 137.6 138.9 139.9 140.9 141.7 141.7 141.8 142.1 142.5 142.8 144.2 146.6 148.9 150.6 151.7 152.9 154 155.4 156.6 157.4 157.8 157.2 157.3 157.9 158.5 159.2 159.5 159.8 160.1 160.2 160.4 160.5 160.5 160.6 160 159.4 157.3 154.8 152.8 154.8 157.7 161.1 164 164.2 162.4 154.4 146.7 146.2 146.6 147.3 148.2 150 152 153.6 153.8 152.3 151.1 149.6 149.4 149.8 150.2 150.3 149.2 150.1 149.2 148.6 149.8 148.9 147.8 147.4 145.9 142.3 141.2 140.1 139 139.8 140.7 139.4 138.9 136.8 134.9 133.5 132.9 132.6 132.4 131.9 130.8 129.7 129.3 128.8 128.5 128.4 130.7 130.7 131 131 131.2 131.8 131.8 131.9 131.3 129.1 127 125.3 124.6 124 123.3 124.4 125 126.1 127.1 128.6 128.3 127.6 126.9 126.2 126.8 127.8 128.9 129.8 129.6 129.5 129.4 129.4 129.5 130.2 131.1 131.8 130.7 128.1 123.9 118.8 116.7 115.5 113.7 111.7 109.6 108.4 107.5 106.5 106.4 108.9 109.7 110.2 110.2 109.7 108.8 109.4 110.7 110.3 103.9 98.2 96.1 93.9 93.2 93.2 93.5 92.1 86.2 83 81 81 83.5 85.9 89.2 90.4 92.2 94 94.5 96.1 97.8 100.5 102.5 104 104.6 105.6 106.6 107.2 105.7 103.4 102 101.3 100.6 99.8 98.9 98.8 99.4 98.5 99.8 102.8 107 109 111.4 112.3 112.4 113.5 117 116.7 115.9
134.2 135.8 136.8 137.8 138.8 139.9 140.2 140.6 141.1 141.6 141.8 143.3 145.7 147.8 149.3 150.4 151.3 152.2 153.4 155.2 156.2 156.6 157 156.5 157.1 157.5 157.5 157.6 157.9 158.2 158.4 158.5 158.6 158.7 158.8 158.7 158.1 158.2 154.9 151.5 153.8 158.6 161 162.9 164 160.7 151.4 146 145.7 146.4 148.2 149.7 152 153.7 154.6 153.1 151.7 150.6 149.4 147.8 148.2 148.8 148.6 147.3 146.4 143.9 144.2 145.9 146.4 146.1 145.4 144 141.5 139.6 137.8 136.7 136.6 136.6 136.7 136.3 135.3 133.9 133.4 132.8 132.4 132.3 132.1 130.8 129.7 128.7 128.4 127.7 127.6 129 129.4 129.7 129.9 129.8 130.2 130.5 130.4 130 127.8 125.7 124.6 124 123.3 123.5 124.3 125.2 126 126.8 127.9 127.6 126.6 125.9 125.7 127.3 128.4 129.5 130.5 131.3 131.2 131.1 131.1 131.4 131.8 132.6 133.3 131.6 129.2 124.4 119.8 116.6 115.5 113.5 111.6 109.5 108.4 107.4 106.3 105.4 108 108.8 109.6 110 108.8 107.8 107.5 109.4 105.2 99.9 96.8 95.1 93.4 92.6 92.9 91.1 88.4 84.4 82.8 80.8 81.7 84.2 87.7 90.3 92.2 93.8 95.2 96.3 97.9 99.5 101.1 102.8 103.4 103.6 104.4 105.2 104.4 102.8 101.3 100.8 100.3 99.7 99 98.1 96.8 96.8 98.9 101.6 104.1 106.4 107.7 108.6 111.3 111.9 112.8 118.8 119 116.7
132.5 133.7 134.7 135.7 136.9 138.3 139.5 140 140.5 140.4 141.2 142.4 144.8 146.6 147.8 148.7 149.6 150.5 151.6 154.5 155.1 155.7 156.2 155.6 156 156.3 156.3 156.2 156.1 156.4 156.6 156.7 156.8 156.9 157 157.1 157 155.7 154.2 150.5 153.4 157.2 159.8 161.6 161 156.6 147.3 144.6 145.5 146.7 149.2 153.9 154 155.2 153.8 152.5 151.1 150.4 149.8 148.5 146.2 146.2 145.9 144.3 140.4 140.9 141.2 141.7 145 144.4 143.3 142.2 140.8 139.2 137.6 136.9 135.1 135 134.6 134 133.5 133.6 133.1 132.5 132.3 132.3 132.2 130.9 129.7 128.7 127.9 127.2 126.9 127.6 128 128.4 128.7 129.3 130.2 131.2 129.1 128.7 126.5 124.5 123.7 123.1 123 123.9 124.7 125.3 125.8 126.4 127.2 126.9 125.9 125.4 126.5 127.8 129 130.1 131.1 132.1 132.8 132.8 133.1 133.5 133.9 134.4 134.4 132.8 130.3 125.1 120.5 116.9 115.5 113.7 111.7 109.6 108.4 107.4 106.5 105.3 107.5 108.1 108.7 110 109.2 108.7 106.8 104.8 98.9 97.6 96.8 95.1 93.1 92.1 91.9 89.6 84.6 82 80.4 79.7 79.8 84.8 89.4 92.3 94.1 94.9 95.8 96.9 98.1 99.4 100.9 102.3 103.1 103.5 103.5 103.3 102 100.5 99.4 99.2 98.7 98.2 97.6 96.3 95.1 95.9 98.2 100.5 102.3 104.6 106 106.7 108.3 110.8 111 114.3 119.1 117.5
131.2 131.6 132.8 134.2 135.7 137.1 138.5 139.3 139.1 139.3 140.6 141.8 143.7 145.8 147.2 148.1 148.7 149.6 151.2 152.2 153.7 154.2 154.9 154.5 154.8 155 155 154.9 154.8 154.7 154.8 154.9 155 155.1 155.1 154.5 154.6 153.8 152.7 148.3 152.1 154.8 156.8 157 156.2 149.3 145.1 144.8 146.4 148.8 153.9 155.1 155.5 154.4 152.9 151.5 150.7 150.2 149.7 148.3 145.8 143.3 141.2 140.1 139.9 140.4 140.9 141.9 143.8 144.3 143.2 142.2 140.9 139.7 139.5 138.8 137.7 135.5 133.6 133.1 132.2 132.3 132.2 132.4 132.6 132.3 132.2 131.2 129.8 128.7 127.7 126.7 126 126.5 126.9 127.3 128.3 129.4 130.2 133.3 129.8 127.1 124.8 123.5 123 122.5 123.5 124.5 125.3 126 126.5 127 127.3 125.9 124.8 125.6 126.7 127.9 129.2 130.4 131.7 132.8 133.5 133.8 134.2 134.7 135.1 135.7 135.7 133.4 130.9 126.5 120.6 117.4 115.5 113.4 111.9 110 108.4 107.3 106.2 105 106 106.4 108.4 109.7 109.7 109.4 108.5 101.9 98.9 97.9 96.9 95.6 93.3 92.6 91.4 88.4 81.5 79.9 79.7 79.4 79.6 87.1 91.5 93.8 95 95.7 96.5 97.5 98.3 99.2 100.4 101.3 102.4 103 102.5 100.9 99.6 98.6 97.7 97.5 97 96.3 95.6 94.8 94 95.2 97.2 99.3 101.1 102.9 103.9 103.6 104.9 106.6 107.4 109.7 111.8 113.4
130.7 130.6 131.5 133 134.5 136 137.3 137.6 137.8 138.7 140 141.5 143.2 144.9 146.6 147.5 148.4 149.3 150.3 151.3 152.5 152.9 152.6 153.1 153.6 153.7 153.7 153.6 153.5 153.4 153.4 153.2 153.1 152.7 151.5 152.2 151.3 150.4 149.6 144.4 147.6 150.3 150.8 150.8 148.7 144.5 144.1 145.4 148.3 154.8 156.2 156.5 155 153.5 151.9 150.5 150.2 149.9 149.3 147.6 143.9 141.5 140.2 139.5 139.7 140.6 141.2 143.6 145 144.3 143.3 142.3 141.1 140.9 141.3 140.6 139.4 136.7 134.1 132.2 132 132.1 132.3 132.5 132.7 132.6 132.2 131.4 129.8 128.3 127.3 126.3 125.1 125.4 125.9 127 127.9 129.5 132.3 130 126.9 125.4 123.6 122.9 122.5 123.1 124.1 125.1 125.9 126.7 127 127.1 127.3 126.1 124.4 125.2 126.2 127.3 128.8 130.1 131.2 132.2 133 133.7 134.4 134.9 135.3 135.7 135.1 134.1 131.4 127.5 122.1 118.2 116.2 114.1 111.8 109.9 107.8 106.7 105.4 104.3 104 104.6 106.9 109.5 108.9 107.2 103.3 100.9 98.9 98.9 100.1 99 95.1 92.4 90.4 84.4 79.6 78.7 78.4 78 86 89.6 92.6 95.1 96.4 96.7 97.2 97.7 98.5 99.1 99.7 100.8 101.5 102.2 101.4 99.4 97.4 96.6 96.1 96 95.1 94.2 93.6 93.1 93.2 94.7 96.2 98 98.8 99.6 100.7 101.4 102 103.4 104.3 105.1 106.5 105.7
130.2 130.2 131.1 132 133.4 134.8 135.4 136.1 136.6 138 139.3 141 142.9 144.6 146.1 147.2 148 148.4 149.5 150.5 151.4 151.6 151 151.6 152.1 152.1 152 152.1 152.2 152.1 152.1 151.6 150.2 148.9 148.9 145.9 145.3 144.3 143.1 141.7 142.3 143.7 144.4 144.3 144.5 143.5 144.9 147.2 154.5 157.8 157.8 156.4 154.1 152.4 150.9 149.9 149.6 149.4 148.7 145.4 141.8 140.4 139.3 139.3 139.4 140.4 142.2 143.5 144.5 144.4 143.4 142.4 141.7 141.5 142.3 141.7 140.4 137.2 134.7 132.6 131.7 132.1 132.5 132.7 132.9 132.9 132.6 131 129.2 127.6 126.6 125.7 124.7 124.5 125.5 126.2 126.9 127.8 127 125.4 124.1 123.1 122.3 121.6 122.3 123.5 124.6 125.7 126.5 126.9 127.2 127.4 127.3 125 123.9 125.2 126 126.8 128.2 129.2 130.2 131.2 132 133.4 134.2 134.8 135 134.7 134.2 133.8 132 127.8 123.3 118.6 116.3 114 111.5 109.7 107.2 106 104.7 103.4 102.4 102.4 103.7 108.4 107.5 103.8 102 101.2 99.2 98.8 98.3 96.7 93.5 90.4 87.9 82.2 78.7 77.8 77.3 84.2 88.1 91.2 94.4 96.6 97 97.1 97.4 97.9 98.3 98.7 99.1 99.9 100.4 100.8 99.1 97.1 96.2 95.8 95.5 95 93.7 93.1 92.8 92.4 92.8 93.7 94.7 95.1 95.6 96.4 97 98.8 99.1 99.4 99.6 100.1 99.7 100.3
129.9 130.4 130.8 131.3 132.7 134.4 134.6 135.2 135.7 137.3 138.6 140.5 142.4 144.1 145.6 146.7 147.2 147.6 148.6 149.4 149.8 150.3 149.5 149.9 149.8 149.5 149.4 150 149.9 150.2 148.5 147.8 147 143.7 142.8 141.5 140.7 140.3 140.5 140.9 141.4 141.7 142.2 142.7 143.7 145 148 153.3 158.2 158.7 157.8 155.5 153.2 151.1 149.8 149.4 149.1 148.9 147.4 143.2 140.3 139.4 139.4 139.2 139 139 140.4 141.9 143.1 144.4 143.4 141.8 141.1 141.6 143.2 142.3 140.6 137 134.1 132.1 131.4 131.8 132.2 132.6 133 133.2 132.3 130.4 128.5 126.9 125.9 125 124.6 124.2 124.4 124.8 125.7 125.9 124.8 123.6 122.8 122 121.2 120.5 121.5 122.9 124 124.5 126.1 127 127.6 127.8 126.8 123.2 123.8 125.6 126.7 127.2 127.4 128.1 129.1 130.1 131.1 131.5 131.9 132.7 133.3 133.3 132.6 132.2 130.9 126.2 123.4 120.1 116.8 113.8 111.2 109.4 106.7 104.7 103.9 103 102.3 102.2 101 102.2 103.6 103 103.7 102.2 98.9 99.9 94.9 92.6 91.7 87.6 83.2 80 78.4 78.2 79.6 84.7 90.2 95 96.8 97.1 96.9 96.7 96.9 97.1 97.8 98.2 98.4 98.6 99.2 98.8 97.2 96.1 95.7 95 94.5 93.6 92.6 92.1 91.6 91.5 91.8 92 92.7 93.3 93.7 94.6 94.7 95 95.4 95.5 96.3 97.3 97.2 96.5
129.6 130.1 130.5 130.9 131.9 133.2 133.7 134.2 134.8 136.5 137.9 140 142 143.7 145.1 145.8 146.3 146.7 147.1 147.5 147.8 148 147.4 147.5 147.4 147.3 146.9 147.2 147.1 147.5 146.3 143.3 141.6 140.1 139.9 140 139.7 139.8 139.9 140.4 140.9 141.4 143.8 144.4 146.9 153.3 156 159.6 160.3 159.2 157.4 155.3 153.1 151.2 149.8 149 148.5 146.8 145.1 142.5 139.4 139.1 138.9 138.7 138.6 138.4 138.5 140.3 141.8 143.1 142 140.1 139.8 140.7 143.3 142.3 140.3 136.3 133 130.9 131.4 131.9 132.3 132.6 133 133.2 131.7 129.8 127.9 126.2 125.2 124.8 124.2 123.5 123 123.6 123.8 123.9 122.8 122.3 121.5 120.7 119.8 120.2 121.2 122.2 122.4 123.5 125.3 126.5 127.4 125.9 123.3 122.1 123 125.2 127.4 127.6 127.7 127.2 127.4 128.2 128.8 129.1 129.5 130.1 130.8 130.1 129.1 129 128 124.2 121.6 119 115.4 112.5 111.9 109.7 107.4 104.7 103.5 103.1 103.5 103.4 101.7 99.2 99 99.7 101.5 100.3 101.4 96 93.3 90.1 89.1 85.8 82.8 79.6 78 78 79.4 84.9 92 96.9 97.5 97.4 96.9 96.3 96.3 96 96.9 97.7 97.6 97.4 96.7 95.9 95.5 94.8 94.4 94 93.6 92.8 91.7 91 90.6 90.7 91 91.1 91.4 91.8 92.7 92.7 93 93.5 93.9 95.1 97 96.8 96.6 96.1
128.9 129.5 130 130.5 131.2 131.9 132.6 133.3 133.9 135.6 137.2 139.5 141.6 143.2 144.4 144.9 145.3 145.5 146.1 146.5 146.4 146.1 145.5 144.5 144.6 144.7 144.6 143.8 142.2 141.8 140.6 139.3 139.1 139.1 139.1 139.2 139.4 139.5 139.4 139.8 140.4 143.3 146.6 149.7 153.3 156 157.8 160.4 161 159.4 156.8 155 153.1 151.3 150 148.9 146.9 144.7 142.7 140.4 139.3 138.7 138.4 138.3 138.1 137.9 137.7 138.1 139.5 140.4 140 138.5 138.8 139.5 140.6 141.6 139.4 135.8 131.7 129.5 130.7 132.2 132.6 132.9 132.9 132.9 131.2 129.2 127.3 125.5 124.8 124.1 123.5 122.9 122.2 121.9 121.9 121.9 121.4 120.9 120.2 119.2 118.5 120 120.9 121.5 120.8 122.4 124.4 125.4 125.6 123 122 122 123.2 127 127.1 127.4 126.6 125 125.6 125.7 126.3 126.7 127.1 127.5 127.7 126.2 125.8 125.8 123.6 122.6 120.3 117.7 114.7 114 112.5 110.2 108 105.7 103.8 102.2 102.2 103.4 104.1 103.3 97.1 97.2 97.4 99.2 97.7 94.2 92.2 88.4 87.8 85.9 83.1 79.5 77.8 77 79.3 85.4 93 95.8 97.2 97 96.5 96 95 94.8 95.9 96.8 96.7 96.5 95.8 95 94.3 93.9 93.5 93.2 92.8 91.7 90.6 90.2 89.3 89.6 89.9 90.2 90.5 90.9 91.4 91.7 92.3 92.7 93 94.3 98.5 99.8 96.9 94.8
128.3 128.8 129.4 130 130.6 131 131.6 132.3 133 134.7 136.4 138.9 140.9 142.6 143.5 143.8 144 144.3 145 144.8 144.5 144.2 143.5 142.3 141.6 141.5 140.4 139.6 138.6 138.5 138 138 138.3 138.2 138.3 138.4 138.5 138.8 139.2 140.1 141.6 144.9 149.1 153 155.8 158.1 158.9 160 160.5 158.7 156.3 154.4 152.9 151.3 149.6 148.2 145.8 143.4 141.9 140.5 139.3 138.7 138.1 137.8 137.6 137.4 137.2 136.9 136.3 137.2 137.7 139.1 138.5 138.8 139.2 139.5 137.9 134 130.2 127.6 129.6 131.5 132.5 132.7 132.7 132.6 130.6 128.7 126.7 124.7 124.1 123.5 122.9 122.4 122.2 121.7 121 121.5 120.2 119.7 118.8 117.5 117.8 118.9 120.8 119.6 119.1 119.9 120.2 121.2 122.8 121.1 121.7 123.4 125.5 128.2 128.9 127.9 126 124.4 124.4 123.7 123.9 124.3 124.7 125 123.9 122.4 123.8 124.2 122.7 121.2 118.8 116.5 114.1 114.8 112.4 110 107.6 105.2 104 102.6 102 102.1 102.5 101 97.9 94.8 94.9 95.3 95.4 92.6 91.1 87.9 87.6 85.6 82.7 79.2 77.8 77 78.5 86.2 92.7 95.6 96.8 96.4 96 95.3 94 93.8 95 95.7 95.8 95.5 94.9 94.1 93.8 93.6 92.9 92.5 91.7 90.5 89.5 88.9 89 89.2 89.5 89.7 90 90.3 90.7 91.2 91.6 92 92.3 93.2 94.9 97.3 97 95.3
127.7 128.4 129.1 129.7 130.1 130.5 131 131.6 132.3 134 135.7 137.8 139.8 141.4 142 142.4 142.7 143.1 143.1 142.4 141.2 140.2 140.3 139.3 139.1 138.7 136.7 136.7 137 136.9 136.9 137.2 137.5 137.8 138.1 138.2 138.3 138.4 139.4 140.5 143.3 148.1 152.6 153.8 157.7 156.6 155.7 157.3 158.6 157.3 155.4 153.9 152.6 151.3 149.5 147 144.7 142.9 141.3 140.4 139.3 138.7 138.1 137.5 137.1 136.9 136.6 136.2 135.7 136 136.7 141.4 141.1 138.8 138.4 137.6 135.7 131 127.8 125.8 128.2 130.1 131 131.7 132.1 131.9 130 128 125.5 123.9 123.1 122.5 122.6 122.5 122.4 122.2 120.5 120.5 119.6 118.5 117.5 116.3 117 117.8 118.9 118.3 117.5 117.7 118.5 119.6 121 122.8 124.5 126.1 127.6 129.8 129.5 127.6 125.7 123.8 123.1 122.4 121.7 121.9 122.1 121.9 121 122.1 123.9 124.2 121.8 119.5 117.4 115.4 114.5 113.7 111.9 109.5 107.1 104.7 103.6 102.6 101.4 100.6 100.7 100.3 98.1 94.8 93.2 92.8 92.1 90.3 88.9 87.8 87.2 85.3 82.3 79 77.4 76.1 76.9 85.7 92.7 95.1 96.4 95.9 95.4 94.4 93.7 93.5 93.8 94.5 94.9 94.6 94 93.4 93.3 93.1 92.6 91.9 90.8 89.8 88.7 88.2 88.6 88.9 89.1 89.4 89.6 89.9 90.4 90.8 91.2 91.5 91.8 92.2 93.3 94.8 93.6 95.8
127.5 128.2 128.8 129.3 129.7 130.1 130.4 130.9 131.7 132.9 134.9 136.4 138.4 140.1 140.6 141 141 139.9 138.6 138 137.6 136.2 136.7 136.5 136.6 135.7 135.5 136 136.3 136.2 136.3 136.3 137.2 137.5 137.7 138 138.2 138.6 139.6 141.4 145.7 149.6 152.2 152.1 154.4 151.6 151.1 154.3 156 155.3 154.1 152.8 152.2 150.9 148.3 145.7 143.5 141.8 140.1 139.4 139 138.4 137.8 137.2 136.7 136.3 135.9 135.5 135.4 136.4 137.1 139.9 138.7 137.4 136.6 135.7 133.3 128.8 126.4 124.2 126.5 128.4 129.3 130.2 130.9 130.4 129.1 126.9 124.2 123.1 122.1 121.4 121.2 121.2 121.4 121.2 120.6 119.9 119 117.6 116.1 114.7 115.4 116 116.7 116.7 116 117.3 119.6 121.4 123.8 125.4 126.8 127.9 129.2 129.7 129 127.1 125.3 123.5 122.2 121.3 120.6 120 119.4 119.9 121.1 122.7 123.5 123.6 120.9 118.3 115.1 114.3 113.6 112.6 111.2 109 106.6 104.2 103.2 102.3 101 99.6 98.5 98.2 97.9 95.6 93 90.6 89.7 89.3 88.1 88.2 88.4 86 82 78.3 77.4 76.2 75.7 87.9 94.5 96.3 96.4 95.9 94.6 93.7 93.5 93.6 92.8 93.3 93.8 93.6 93.1 92.9 92.7 92.6 92.3 91.4 90.4 89.4 88.7 87.9 88.2 88.5 88.7 89 89.3 89.6 89.4 90.2 90.7 91.1 90.6 91.1 91.7 92.4 93 93.2
127.4 127.9 128.4 128.9 129.3 129.7 130 130.4 131 131.7 132.4 134.2 136.6 138.1 138.7 138.2 136.8 135.2 134.3 135.4 136.4 134.3 134.6 135.2 134.8 135.5 135.1 135.8 135.6 135.6 135.9 136.6 137.1 137.1 137.4 137.7 138 138.6 139.9 142.1 146 148.2 150 152.6 151.9 150 149.9 153.4 153.2 152.3 151.3 150.4 148.7 146.3 146.5 144.2 142.3 140.8 138.9 138.4 137.8 137.6 137 136.7 137.4 136.8 135.9 135 136.1 136.6 136.6 137 135.4 134.5 134 132.8 130.9 127.6 125.2 122.7 124.3 126.4 127.3 128.2 128.9 128.3 127.3 125.2 121.7 121.9 121.9 122.4 122 121.6 121.3 120.9 120.4 120.1 119 117.4 115.3 114 114.3 114.6 115.1 115.4 116.1 118.3 120.7 123.9 126.2 127.8 128.4 129.4 129.6 129.8 128.6 126.8 125 123.3 122 120.6 119.8 119.4 119.3 120.6 122 122.4 122.7 122.1 119.9 115.1 114.1 113.4 112.6 111.4 110 108.5 106.1 103.8 102.9 102 100.7 99.1 97.2 96.9 96.2 95.6 93 90.4 88.6 88.1 88 88.4 88.7 85.5 81 77.8 77 76.3 79.2 90.4 96.1 96.4 96.4 95 93.8 93.2 92.8 92.7 92.1 92.3 92.8 93.7 93.1 92.3 92.2 92 91.7 90.8 90 89.7 89.5 87.9 87.9 88.1 88.4 88.6 88.9 88.8 87.8 88.1 89.4 89 88.4 88.9 87.6 87.3 87.7 88.1
127.1 127.1 127.7 128.4 128.9 129.1 129.2 129.5 129.9 130.5 131.2 131.7 133.1 135 135.1 134.3 132.7 132.7 133.1 134 135 133.9 134.1 135.2 134.8 136 135.4 135.5 135.8 136.4 137.1 136.9 137.3 137.2 137 137.2 137.5 138 139.4 141.8 145.7 148.2 149.7 149.9 149.5 148.2 149.2 151.4 151.1 149.9 148.8 147.6 145.8 144.2 144.5 143.2 141.8 140.4 137.4 137.1 136.8 136.5 136.7 137.1 137.8 137 135.9 134 134.9 135.1 134.9 133.7 132.3 131.6 131 130.5 128.4 126 123.8 121.7 122.9 124.4 125.3 126.2 124.5 123.6 122.7 120.5 120.8 122.2 122.9 123.4 123.1 122.7 122.1 120.8 120.2 119.9 118 116.2 114.1 112.5 113.2 113.9 114.6 115.7 116.7 119.2 120.1 123.2 125.8 127.7 128.5 129.1 129.1 129.2 128 126.5 124.6 123.1 121.8 120.2 118.8 118.3 119 120 120 119.9 119.8 119.6 118.6 114.2 113.3 112.4 111.6 110.3 108.9 107.5 105.6 103.5 102.5 101.6 100.5 99 97.3 95.4 95.1 94.8 93.3 90.2 87.9 87.5 87.7 88.2 88 84.6 80.3 77.3 76.5 75.9 83.2 92.7 95.5 96 95.6 94.1 93.4 92.8 92.3 91.8 91 91.5 93.1 94 92.3 91.4 91.5 91.3 90.9 90.2 89.3 88.9 88.1 88.1 87.8 88 88.2 88.3 87.8 86.5 84.9 85.3 85.8 86.1 85.9 84.2 86.2 87.5 87.4 87.2
126.9 126.8 126.8 127.5 127.7 127.9 128.2 128.9 129.1 129.4 130 130.6 131.1 131.3 131.3 131.5 131.1 131.5 131.9 132.8 134 134.5 134.8 135.5 135.4 136.8 135.7 136.4 137.6 137.6 137.5 137.4 137.5 137.5 137.2 137 137.2 138.9 140.6 142.1 146.4 147.6 148.1 149.4 148.5 148.9 149.5 150.1 149.3 148.1 146.9 145.8 145.6 143.7 142.7 141.8 140.1 138.3 136.7 137.2 137.2 136.4 137 137.2 137 136.8 134.9 133.3 132.9 132.7 132.1 130.4 129.3 128.7 128.1 127.6 124.3 122.4 121.3 120.6 120.8 121.3 121.5 120.2 118.9 119.7 121.1 123.2 123.8 123.8 123.9 124.5 124.2 123.4 122.1 120.8 120 118.4 116.6 114.7 112.7 111.3 113.3 113.4 114.5 116.3 117.4 119 120.1 122.4 125.2 127.4 128.4 128.5 128.6 128.2 127.1 126 124.3 122.9 121.3 119.7 117.9 117.2 118.1 118 117.9 117.8 118 116.9 118 114.8 112.7 111.6 110.5 109.1 107.7 106.3 104.9 103.1 102.2 101.3 100.3 99.1 97.8 95.6 93.8 93.4 91.8 90.2 87.9 86.9 86.2 88.4 87 83 78.8 76.7 76.8 74.7 86.3 94.5 95.2 96 94.8 93.5 93 92.4 91.8 91 90.5 91.8 93 94.3 92.9 91.5 91.2 90.7 90.1 89.5 88.7 88.1 88.6 88.8 87.6 87.2 87 86.7 85.7 82.4 85.5 86.5 88.1 86.1 86.8 87.6 89 90.4 91.1 91.2
126.6 126.5 127.1 128.3 127.8 129.3 127.7 128.1 128.3 128.4 128.9 129.4 129.8 130.2 130.8 131.6 131.8 131.9 133.7 136.4 137.8 137.8 137.6 138.3 138.8 138.4 137.8 137.5 138.3 141.6 141.8 140.3 138.8 137.7 137.5 136.9 137.5 139 140.4 141.9 146 146 146.4 148.6 150.8 152 152 148.7 147.1 146.6 145.2 145.2 144.3 144 142 140.4 139.3 138 137.2 137 137.3 135.8 135 135.6 136.1 136.1 135.3 133.8 131 130.5 129.2 127.3 126.9 126.2 125.6 124.4 122.1 119 118.7 118.2 118.6 119.3 118.3 119.9 123.2 124.3 124.9 125.5 125.9 125.7 125.5 125.6 124.6 123.3 122.3 121.4 119.6 117.4 115.1 113.4 111.3 110.5 112.2 113 114.4 116.1 118 119.2 120.4 122.2 125.1 126.9 127.5 127.9 128 127.3 126.1 125 123.7 122 120.2 118.5 116.6 115.7 116.1 116 115.9 115.8 115.9 115.2 114 112.7 111.4 110.2 109.2 107.9 106.5 105.1 103.7 102.6 101.4 100.4 99.8 99.6 98 95.3 93.3 92.2 90.7 90.9 89.6 86.6 85 85.8 85.6 81 77.6 76.2 76.8 77.5 88.4 94.8 95.4 95.8 94 92.3 91.7 91.2 91.4 91.2 91 91.1 94.9 94.1 92.6 91.2 90.6 90.1 89.5 89.1 88.4 87.7 87.8 87.8 87.2 86.5 85.8 85.2 84.3 84.6 87.2 89.5 92.1 92.5 91.2 90.2 91.1 91.7 92.8 93.9
126.3 127.2 129.8 131.2 132.2 132.3 131.6 130.8 130.3 130.6 129.9 129.8 130.3 130.8 132.5 134.4 133.7 134.5 135.8 138.7 140.2 140.9 141 140.8 140.1 138.9 139.6 138.1 137 139.1 137.7 140.6 138.9 138.1 137.3 137 138.2 139.1 140.4 141.8 145.2 145 146 149.2 151.6 152.2 154.3 152.6 148.1 147 147.5 148.2 146.6 147.3 142.5 140.6 139.4 138.6 137.1 136.9 135.7 134.7 134.9 135.1 135.7 135.2 134.9 134.4 130.8 129.2 127.6 126.1 124.9 124.6 124.1 121.8 119.4 117.3 116.7 117.2 117.3 118.4 120.8 122.9 124.1 125.4 126.7 127.4 127.7 127.4 127.1 126.4 125.9 125 124 122.6 120.3 118.1 115.5 112.6 109.9 111.9 112.6 113.3 114 115.8 117.7 119 120.1 122.4 124.6 125.8 126.6 127 127.3 126.4 125.4 124 122.1 120.5 119 117.2 115.5 114.4 114.4 114.7 115.1 114.5 114.6 112.9 111.5 110.2 109.2 107.7 107.4 106.6 105.2 104 103 102.1 100.7 99.3 98.9 98.9 97.5 95.2 93 91.6 90.2 89.2 89.3 88.4 83.4 83.2 84.2 79 76.8 75.9 75.7 80.4 88.2 94.1 94.6 94.5 93.3 91.1 90.6 91.3 91.9 90.9 90.7 90.6 93.2 94.3 92.8 90.7 90.2 89.7 89.4 89.1 88.4 87.6 87.1 86.9 86.4 85.5 85.6 85.8 82.3 84.6 86.6 89.4 93.5 94.5 93.1 92.5 93.3 95.1 95.8 96.3
127.3 129.9 133 135.5 135.7 135.5 135.3 134.5 133.8 134 134 133.4 133.1 136 136.9 138 136.5 135.9 138.7 140.9 140.7 141.6 142.4 141 140 139.1 139.9 138.3 136.5 135.3 134.7 134.4 135.6 136.4 135.7 137.7 138.4 139.2 140.2 141.9 144.5 144.1 144.5 148.2 151.1 151.3 151.8 151.4 151.6 149.9 150.3 150.5 150 150.1 147.1 141.1 139.9 139.8 139.3 137.1 134.5 133.3 133.9 134.7 135.2 133.9 133.9 134.1 131.8 129.6 127.7 125.8 124.8 124.7 122.9 120.3 117.8 116.3 116.1 116.8 117.9 119 121.5 123 124.4 125.8 126.7 127.1 127.6 128.2 127.8 126.8 126.3 125.8 125.2 123 120.3 117.4 114.5 111.6 107.3 111.6 112.3 113 113.7 116.1 117.2 117.1 119.5 121.5 123.1 124.2 125.3 125.8 125.9 125.3 124.2 122.4 120.5 118.9 117.3 115.6 114.4 114.9 115.1 114.6 114.3 113.2 112.2 111.3 108.2 107.9 106.9 106.4 105.9 105.2 104.4 103.4 102.5 101.5 100.5 98.7 97.6 97.3 96.1 94.2 92.8 91.4 88.8 87.7 87.3 87.9 83.5 80.6 79.2 77 75.5 74.9 74.2 81.4 86.7 91.5 91.8 90 89.5 88.5 89 90 90.9 90.5 90.1 90.4 92.4 92.5 90.8 90.4 89.9 89.4 89.5 89.1 88.4 87.9 87.1 86.1 85.8 85.3 85.5 85.4 82.1 84.1 85.5 88.4 91.6 92.9 92.2 92.4 93.1 97.1 101 102.1
132.2 133.1 135.4 136.5 136.1 136.3 136.7 136.4 136.3 136.8 137.3 138.8 139.4 139.9 140.2 139.8 139.6 138.8 140.7 141.7 141.3 141.9 140.7 139.8 138.6 138.3 138.9 138 135.8 135 134.4 134 134 134.3 135.8 137.5 138.9 139.6 140.3 142.2 145 147.3 145.2 148.5 151.8 151.5 152 154.3 155 152.6 152.1 153.9 154 152.7 149.5 145.8 145 144.1 142.4 140.3 137.4 133.1 132.6 133.1 132.8 132.1 131.6 131.3 130.3 128.5 126.9 125.3 124.3 125.6 123.9 120.4 117.1 115.9 115.6 117.4 118.7 119.8 121.7 123.1 123.8 124.8 126 126.4 127 127.6 127.9 127.3 126.8 126.2 124.9 122.7 119.6 116.5 113.6 110.3 106.9 110 111.5 112 113 115.4 115.4 116 117.7 119.5 121.3 122.5 123.5 124.1 124.3 123.5 122.2 120.5 118.5 116.3 113.7 114.9 115.6 116 115.7 114.4 112.5 111.2 110.1 109.1 108 106.7 105.8 105.7 105.4 104.7 103.8 102.9 101.9 100.9 99.5 97.6 96.3 95.7 95 93.3 91.7 90.5 88.6 86.6 85.4 87.1 82.8 80.2 77.7 76.4 75.2 73.8 74.7 80.7 83.1 85.6 86 84.1 83.9 85.4 87.1 88.2 89.3 89.5 89.8 90.3 91 91 90.5 90 89.7 89.7 89.6 89.4 89 88.1 87.2 86.4 85.4 85.1 84.9 84.4 83.3 83.3 84.6 86.8 90.1 94.5 93.1 93.3 95.1 100.9 106.2 107.5
132.3 132.5 134.7 136.4 136.5 136.9 137.6 137.8 138 138.5 139.4 140.7 140.7 140.4 141.6 141.4 140.7 139.6 140.9 142 141.3 140.2 139.1 137.9 137.7 138.3 139.7 140.3 136.4 134.7 134 133.6 133.3 134.4 136.2 137.5 139.1 140.1 140.7 144.1 147.1 148.8 149.1 149 150.6 151.2 156.4 159.1 157.6 157.1 156.7 157.1 155.5 154.4 151.8 148 148 146.3 144.7 142.8 140 133.1 131 130.6 130.7 129.9 128.7 128.5 128.5 127.3 125.8 124.4 123.3 124.3 123.6 120.4 116.3 115.2 115.2 116.9 118.6 120.3 121.1 121.8 122.6 123.9 125.2 125.8 126.5 127.1 127.4 127.6 127.1 126.4 124.5 122.3 119 115.7 112.6 109.7 106.6 108.6 110.4 110.7 111.8 112.5 112.7 113.6 115.3 117 118.7 120.2 121.7 122.2 121.7 121.1 120.1 117.7 115.3 112.3 115.1 115.8 115.5 115.1 114.7 113.5 111.7 109.4 108.4 107.5 106.5 105.4 105.3 105.3 104.9 104.2 103.3 102.3 101.3 100.2 98.4 96.5 94.9 94.1 93.4 92.3 90.7 89 86.6 84.1 84.5 84.9 81.7 80.6 77.2 75.6 74.4 73.2 73.3 77.3 81.1 80.4 80.5 83.6 87.2 89.2 89.2 88 87.9 89.4 89.7 90 90.7 91 91.1 91.6 92.2 92.5 91.5 90.1 88.8 87.5 86.4 87 86.4 84.6 84.1 83.9 84.2 83.5 81.6 84.7 89.4 92.9 96.1 100.1 102.6 108.7 110.2 111.9
131 132.1 133.9 135.5 136.9 137.4 137.9 138.5 138.6 139.1 140.5 141.3 140.6 140.7 141.5 140.4 139.7 139.2 140 140.3 138.8 137.8 137.2 137.1 136.9 137.1 139.2 139.8 137.9 135.5 133.6 132.8 133.1 135 136.7 138.3 139.5 140.5 141.6 145.7 148.2 149.1 148.9 148.9 152 152.6 160.4 161 158.6 157.3 156.4 155.7 154.6 154.1 152.2 149.8 149.2 147.1 145.7 144 141.2 133.7 132.1 130.6 129 129 128.6 127.9 126.2 126.1 125.1 123.6 122.2 122.9 123 120.4 115.7 114.7 115 116.5 118.1 119.3 120.6 120.9 121.3 122.9 124.2 125.3 125.9 126.6 126.9 127.2 126.8 125.2 123.6 121.5 118.3 115.6 112.2 109 106 106.5 109.3 109.9 110.5 110.4 110.8 111.6 112.9 114.5 116.1 117.5 118.9 119.3 118.8 118 116.3 113.6 112.6 114.6 115.3 115 114.6 114.1 113.7 112.8 110.5 107.8 106.5 105.7 104.9 104.6 104.2 103.9 103.8 103.7 102.7 101.6 100.6 99.2 97.3 95.3 94 93.1 92.2 91.4 91.2 89.8 87.4 82.8 81.8 81.6 81.4 81.4 76.8 74.8 74 73.2 72.4 75.7 84.5 82.6 84.8 85.1 88.2 90.6 92.1 91.9 90.2 90.1 90.2 90.3 90.4 90.8 92.5 93.5 94.8 95.6 94.9 91.6 89.5 88.2 86.7 85.8 86.9 85.8 83.5 83.9 84.9 84.1 83.4 82.9 89.2 94.5 100.7 106.8 110 114.5 116.7 119.4
130.7 133 134.2 135.7 136.6 136.9 137.6 137 136.2 136.9 138.7 138.8 137.7 138.2 138.8 138.4 134.8 136.7 137.2 137.8 136.5 136.4 136.4 136.4 136.3 136.5 138.8 138.9 137.8 135.1 132.9 132.5 133.8 135.6 137.3 139.1 140.2 141.9 143.4 147.4 148.8 149.6 151.3 154.1 157.5 159.7 163.9 165.1 164.4 160.3 156.8 155.6 155 154 151.5 149.9 148.6 147.5 144 142.4 139.8 134.6 132.2 131 130.1 131.1 130.6 130 127.4 125.3 124.2 122.8 121.8 121.1 120.9 120.4 116.5 114.9 114.5 115.9 117.5 119.1 121.1 122.3 122.8 122.5 122.6 123.5 124.5 125.9 126.3 126.8 125.3 123.6 121.9 120 116.8 114 111.3 108.5 106.2 105.6 107.8 108.5 109.1 109 109.1 109.7 111 112.1 113.5 114.8 116.2 116.4 115.5 113.9 112.2 109.9 111.8 114 114.4 114.1 113.7 113.2 112.6 110.9 108.7 106.3 104.9 103.7 103.3 103.3 103.2 102.9 102.7 102.7 101.7 101 99.8 98.1 96.3 94 93 92.1 91.5 90.8 90.9 91.6 86.4 81.1 81.2 81.9 82.2 81.7 76.1 74.2 73.8 73.3 72.2 76.8 83.8 86.1 88 88.5 88.1 90.8 92.4 92.7 92.7 92 91.3 91.1 91.1 91.9 93.1 94.5 96.3 97.8 97.8 95.5 90.4 88.4 87 86 85.6 85.2 85.6 85.4 84.8 84 83 82.8 89.3 95.1 102.7 106.6 111.5 116.9 121.5 126.8
129.2 132.2 134 134.6 136.2 137 136.8 135.3 135.4 135.2 135.9 135.1 135.8 136.3 137.1 134.6 135 135.7 135.6 136 136.4 136.5 136.5 136.5 136.8 136.5 137.3 137 136.8 134.3 132.3 133.4 134.9 136.6 138.4 140.1 142 143.7 145.5 149 151.8 152.3 154.6 157.3 160.5 163.5 166.3 167.7 168.7 166.8 157.4 156.1 156.5 154.3 152.2 150.8 150.7 148.8 144.9 140.8 137.8 133.9 132 131.3 130.4 131.9 131.2 129.9 128.8 127.6 126 123.3 121.9 121.4 120.9 119.6 116.5 114.5 113.8 115.1 118.2 120.8 123.1 124.3 125 124.6 124 123.4 123.4 124.8 125 124.6 123.6 122 120.1 118.1 115.3 112.6 110.1 107.7 105.6 103.6 105.6 107 107.8 107.9 108 108.9 109.5 110.2 111.3 112.2 112.9 113.6 112.8 111.4 110 108.8 110.7 112.4 112.1 112 111.9 111.6 110.1 108.5 106.4 104.7 103.7 102.7 102.2 101.8 102.1 102.3 102 101.7 101.1 100.6 99.2 97.5 94.9 93 92 90.8 90.4 90.2 89.6 89.2 83.6 78.4 80 81.6 82 78.7 75 73.1 72.6 72.6 71.3 79 85.7 87.9 90.3 90.3 89.4 90.5 92.3 93.8 94.1 94.3 93.3 92.3 92.5 93.1 94.1 94.6 96.5 98.8 99.8 98 93.3 89 87.5 86.2 85.5 84.8 84.2 84.7 83.8 81.5 81.8 85.1 90.8 99.5 104.7 108.5 116.4 119.5 124.8 130.6
128.5 131 132.6 133.8 134.2 133.5 133.3 133.1 133.6 136.6 134.5 134.7 134.9 135.9 136.6 135 134.4 134.4 134.1 135.4 135.6 135.9 136.2 137 137.3 135.3 131.6 132.5 133.3 132.5 134.3 135.1 136.3 137.9 139.6 141.3 143.4 145.2 147.6 150.7 152.9 155.1 158.6 160.7 164.1 166.7 168.8 170.7 171.1 169.4 159.4 158.9 157.2 154.8 153.4 152.1 151.3 149.8 147.2 141.2 137.3 134.3 132 131.1 131.1 132.3 130.7 128.9 128.5 129.2 128 124.9 122.5 122.3 122 121.1 117.4 114 113.1 115.7 119.8 122.6 124.3 125.5 126.7 126.9 126.4 125.6 124.4 123.6 123.2 122.7 122.2 120.9 118.4 116.3 114.1 111.7 109.3 107 104.8 102.6 103 104.5 106 107.2 107.7 108.3 108.9 109.6 109.7 109.7 110.5 111 110.6 109.7 108.2 108.3 109.2 109.8 109.3 109.1 109.2 109.2 107.9 106.3 104.6 103.3 102.5 101.9 101.4 101 101.4 102 101.9 101.8 101.3 100.3 99.3 97.4 94.9 92.2 90.4 89.5 88.7 88.7 88.6 86 82 77.1 79.7 81.8 80.5 75.7 73 72.4 72.2 71.5 70.9 83.3 89.1 89.6 91.9 93.4 92.7 93.7 94.8 95.4 95.9 96.3 95.6 94.8 94.4 94.6 95.5 95.4 96.3 98.8 100.7 100.5 97.5 93.3 88.4 86.6 85.4 84.5 83.7 82.7 81.9 81.2 82.9 86 90.4 101.1 106.4 109.9 119 121.3 124 128.7
128.5 130.4 132.3 132.5 131.4 130.2 129.7 129.3 131.2 137.7 134.9 134 134.3 135.1 135.4 134.4 133.8 132.9 133.8 135 135 134.9 135.6 136.4 134.4 131 130 130.5 131.4 134.3 136.5 137.8 137.9 139.1 140.8 142.6 144.9 147.3 149.7 153.1 156.6 160.3 163.1 165.6 168 169.2 171.5 173.3 171.5 165.2 160.1 160.8 157.5 158.3 155.2 153 151.2 150 147.9 143.5 139.6 135.2 133.8 132.5 133.1 132.1 130.2 128.4 128.4 129.1 129.7 126.7 122.9 122.7 122.6 121.6 118.7 113.2 113.2 118.6 121.5 123.2 124.9 126.2 127.3 127.8 128.3 127.8 126.3 125 124.5 123.8 122.6 121.3 118.5 115.1 113 110.9 108.6 106.2 104.1 102.1 102.4 103.8 105.3 106.6 107.2 107.7 108.3 109 108.5 107.9 108.1 108.3 108 107.5 107.1 107 107.4 107.9 108.1 107.9 107.3 106.9 105.9 104.9 103.1 101.9 101.4 100.9 100.7 100.4 100.8 101.4 102.1 102.1 101.5 100.5 98.9 97.1 95.1 92.5 91 89.1 86.5 86.3 86.6 83.4 79.5 76.2 77.7 80.8 77.6 74 71.9 71.7 71.8 70.7 75.2 85.2 89.8 92.1 93.8 94.8 95.8 96.7 97.3 97.8 98.2 98.5 97.9 97.5 96.8 96.5 97.3 97.1 97.5 99.9 102.8 103.5 100.6 96 90 88.2 86.6 84.5 83.2 81.7 80.3 82.2 84 86.1 89.7 102.9 106.4 109.8 118.4 122.6 126.9 131.2
128.2 130.7 130.3 128.2 128.2 128.2 128.2 128.2 131.2 135.7 134.7 133.8 133.4 133.9 134.2 134.3 134.4 133.1 133.5 134.5 134.9 134.4 134.7 135.3 134.6 129.2 128.9 130.1 132.1 135.1 137.5 136.7 134 136.2 140.2 143.7 147.3 150.4 153.4 156.9 160.6 165.3 168 170.5 172.5 170.1 169.3 167.5 164.9 163 162.1 161 160.3 162.7 159.3 159.2 157.1 152.8 149.4 146.2 143.1 139.5 136.2 133.9 133.3 131.4 129.2 128.3 128.4 129.1 128.6 126.8 124.1 123.8 123.2 122.1 116.4 112.5 113.6 118.8 122.3 123.8 125.4 127 127.8 128.3 128.8 128.8 127.9 126.3 125.4 124.2 122.9 121.1 117.7 113.9 111.7 109.6 107.6 105.5 103.4 101.3 101.8 103.2 104.8 106.1 106.6 107.1 107.7 107.9 107.3 106.8 108 107.1 106.4 106.1 105.8 105.6 106.2 106.7 106.5 106 105.4 104.9 104 103.2 101.5 100.8 100.3 99.8 99.5 100.1 100.6 101.2 101.8 102.1 101.6 100 98.2 96.3 94.3 91.8 90.6 89.2 86.3 83.2 84.3 81.7 78.7 76.4 75 76.1 75 72.1 71.8 71 71 70.2 78.6 85.2 90 92.5 94.3 95.2 96.3 97.7 99 99.8 100.4 100.8 100.5 99.7 99.3 99 99.1 99.1 99.8 101.3 103.8 105 103.4 98.7 92.5 90.2 88.7 85.5 82.7 80.5 81 82.1 84 85.7 88.7 101.9 105.4 107.8 111.9 118.5 126.7 133.2
129.4 129.3 128.2 128.2 128.2 128.2 128.2 128.2 131.5 133.1 133.1 132.8 132.5 133 133 132.8 133.2 132.7 132.6 133.8 134.2 133.7 133.2 133.4 133.7 127.1 129.2 131.3 133.9 135.7 132.4 130.3 132.9 135.9 139.7 145.5 149.3 153.1 157 160.9 165.4 169.6 173 175.4 176.6 177 174.1 172.7 170.1 167.9 166.8 166.2 163.6 161.7 164.5 163.9 159.3 154.9 149.8 147.2 143.5 138.4 136.3 134.6 132.7 130.8 129.3 128.4 128.9 128.8 126.6 124.5 123.4 123.3 122.4 120.1 112.7 111.9 115.3 120.3 122.8 124.4 126 127.7 128.3 129 128.8 128.1 127.6 126.9 125.5 124.2 122.9 120.3 116.8 113.1 111.3 109.3 107.2 105 102.4 100.5 101.5 103.1 104.2 105.6 106.1 106.6 107.1 106.8 106.4 106.3 108.6 106.8 105.4 104.9 104.4 104.1 104.1 104.5 104.4 103.7 103.1 102.5 101.9 101.6 100.6 99.6 99.2 99 99.6 100.5 101 101.4 101.8 101.7 100.8 98.9 97 95 93 90.9 90 89.4 86.8 81.1 81 80.1 77.3 74.9 72.8 71.9 71.5 70.6 71.3 71.7 68.8 76.4 82.9 87.3 90.1 93.2 94.5 96 97.4 98.9 100.4 101 101.6 102.2 102.7 102 101.7 101.4 101.1 101.1 102.1 101.6 102.5 103.4 102.7 100.7 95.5 92.8 90.6 86.2 82.4 80.4 81.5 82.5 83.9 85.6 88.3 99.9 102.6 103.9 108.5 118.2 127.3 135
129.8 128.2 128.2 128.2 128.2 128.2 128.2 128.2 128.7 132.1 132 131.9 131.5 130.4 130.7 130.8 131.9 130.9 130.6 130.9 131.7 132.3 131.5 129.7 127 128.3 130.4 131.2 133.3 133 128.7 129.7 132.8 135.8 139.1 145.6 151.4 155.8 159.9 164.5 170.6 174.2 177.9 180.7 182.1 183.3 184 182.1 178.7 175.7 173.5 172.1 167.9 162.2 159.6 156.6 153.9 150 147 143.6 140.3 139 137.1 134.8 132.6 130.7 129.4 129.4 129.2 129.6 126.6 122.5 120.1 120.5 120.5 112.5 109.9 114.1 119.1 121.4 122.9 124.3 125.7 127.6 128.4 129 128.7 128.2 127.7 127.5 125.8 124.3 122.4 119.1 115.7 112.4 110.6 108.8 107 104.4 101.2 99 101.7 104.1 104.9 105.4 105.6 106.1 105.9 105.8 105.5 106.2 107 105.5 104.1 103.5 103.3 103.3 102.8 103.6 103.2 102.6 102 101.4 100.8 99.9 99.6 98.5 98.2 98.3 99.6 100.6 100.8 100.9 101.2 100.7 99.6 97.7 95.6 93.5 91.6 90.1 89.4 88.8 86.4 82 78.3 78.1 75.8 72.8 70.6 70 69.2 68.9 70.2 69.9 72.6 82.6 87.6 90 92.4 93.6 94.1 95.9 98 99.7 100.5 101.2 101.8 102.7 104.1 104.3 104 103.7 103.4 103 102.4 101.9 101.3 101.5 101.2 98.7 95 93.5 90.7 86.7 82.9 80.8 82.6 83.2 83.8 85.4 89 96.9 99.2 100.6 106.4 115.3 124.1 130.2
130 128.2 128.2 128.2 128.2 128.2 128.2 130.2 131.2 130.8 130.3 129.9 129.5 128.2 127.5 128.4 130.1 127.8 129.1 128.4 128.5 128.9 128.1 128.4 128.4 125.9 129 130.2 131 128 128 129.8 132.6 135.6 139.3 145.9 152.5 158.3 162.7 169.5 175.9 180.9 185.3 187.5 190.3 191 190.7 189.5 187.7 184.8 181.1 176.9 172.4 167.2 161 156.3 153.4 148.7 145.2 143 140.5 138.9 138 135.1 132.9 130.7 130.3 130.5 129.3 128.1 124.1 121.1 118 116.1 114.5 110.5 112.4 118.3 120.1 121.2 122.2 123.7 125.7 127.5 128.3 127.3 128.2 128.3 127.8 127.9 126.4 124.9 122.4 118.4 114.5 111.8 110 108.2 106.4 103.9 100.5 98.2 101.8 104.2 105.1 105.5 105.7 105.6 104.6 104.4 104.3 104.4 105.1 104.1 102.7 102.5 103 102.8 101.8 102.5 102.1 101.5 100.9 100.7 99.8 98.9 98.1 97.5 97.1 97.5 98.2 99 99.7 100.1 100 99.4 97.9 95.9 94 92.5 91.1 89.6 88.9 88.6 86.5 82.2 76.4 74.6 71.2 69 68.7 68.2 68 67.2 67.3 73.4 80.9 86.5 89.7 92.1 94.1 94.8 95.4 96.2 97.1 99 100.7 101.4 102.1 103.4 104.5 105.5 105.2 104.9 105.2 104.6 103.2 102.5 101.9 99.8 99.8 96.8 94.5 92.6 90.2 87.2 82 80.5 81.5 83 83.7 85.6 90.1 96 97.4 98 101.5 109 117.7 126.7
127.7 128.8 128.2 128.2 128.2 128.2 130.4 129.7 129.3 129 128.5 128 127.5 125.2 122.6 123.5 123.6 126.3 126.2 125.4 125.7 126.1 125.8 126.9 127.3 124.5 127.1 129.2 129.9 129 133.3 129.6 132.4 135.5 139.9 146.1 152.2 160.7 165.5 175.5 186.5 192.2 194.8 195.8 199.1 200.2 200 197.1 194.8 191.3 187.4 183.2 177.6 171.6 164.7 158.4 154.2 150.1 145.5 143.5 141 140.6 139.1 136 132.8 130.5 131.2 130.8 127.4 123.9 121.5 118.5 115.7 112.8 111.3 111 115.6 118.7 119.8 120.8 121.8 123.5 125.6 127.4 127 126 126.9 127.4 127.9 128 127.1 126.1 123.3 119.4 115.3 111.2 109.3 107.5 106 103.8 100.6 98.5 100.8 102.8 104.8 105.5 105.7 105.5 104.7 104 103.5 103.1 103.4 102.9 101.6 102.3 102.5 102 101.5 101.2 101 100.4 100.1 99.7 98.8 98 97.2 96.4 96.1 95.7 96.5 97.2 97.9 97.9 97.6 96.8 95.7 94.7 93.3 91.8 90.4 88.9 88.6 88.4 88 86.1 77 71.2 69.5 68.1 67.8 67.2 65.7 70.6 77.2 82.8 85.9 88.8 90.9 93.1 94.7 96.2 96.8 97.6 98.5 99.4 100.3 101.6 102.6 103.8 105 106.2 106.5 106.9 107.3 106.2 104.9 103.6 102.5 100 98.2 96 94.4 92.1 90.5 87.7 80.4 81.3 82.3 83.1 83.6 85.2 88.9 93.5 95.4 97.5 99.9 106.7 113.2 122.2
127.3 129.6 129 129.5 129.5 129.7 128.3 128 127.6 127.2 126.7 126.1 125.6 123.7 121.1 121.4 122.1 123.8 123.6 122.9 123.4 123.8 123.7 123.9 123.5 122.6 126.4 127.9 126.5 130.1 129.5 129.8 132.9 136.9 141.7 147.1 153.1 160.2 169 180.1 192.8 198.5 202.8 205.1 207.3 209.3 207.8 205.3 201.5 197.7 193.1 187.4 181.1 175.5 168.2 161.1 162.9 157.9 150.8 143.5 140.5 139.7 140.3 137.2 133.1 129.7 130 129.6 125.5 123.1 119.3 116.2 113.2 110.3 109.5 112.8 115.3 117.9 118.9 119.9 121.4 123.3 125.4 126.8 125.7 124.7 125.2 126.1 126.6 127.9 128.1 127 124.3 120.1 115.8 111.6 108.8 106.8 105.6 103.5 100.2 98.1 100 102.4 104.5 105.4 105.7 106.1 105.1 103.8 103 102.2 102.1 100.7 100.9 102 101.8 101.4 101 100.2 99.9 99.5 99.5 98.7 97.9 97.1 96.3 95.5 94.8 94.2 94.5 95.2 95.8 95.6 95 94.4 93.9 93 92 90.7 89.3 88.4 88.7 88.5 86.6 80.7 73.2 69.2 67.2 65.9 64.9 65.9 72.9 78.6 82.4 85.6 88.2 90.1 92.1 93.7 95.4 97 97.4 98.3 99.6 100.5 101.5 102.4 103.3 104.2 105.4 106.6 106.9 107.3 107.7 107.8 106.7 105.3 103.9 101.2 98.9 96.4 93.6 91.8 90.5 87.8 81 81.1 82.9 83 83.6 84.6 87.8 90.9 93.9 96.4 99.3 106.9 113.3 118.8
124.3 126.3 126.7 127.1 128.5 127.9 126.1 125.8 125.5 125 124.6 124 123.4 120.3 120.3 120.6 120.2 121.5 121.4 120.6 121 121.4 121.5 121.5 120.3 123.2 126.8 125.6 125.7 127.4 128.7 129.5 133.1 138.1 142.6 146.6 151.4 159.7 170.6 182 193.2 201.6 208.3 214.2 219.7 217.1 214.5 212.6 208.6 204.4 198.5 190 184.2 177.6 171.3 164.1 162.5 159.3 152.9 146.8 141.6 135.2 133.6 133.8 132.4 130.2 128.5 125.9 122.6 120.8 118.4 114.7 110.3 108.7 109.8 112.4 115 116.9 118.2 119.7 121.2 122.9 125 125.3 124.6 123.5 123.1 124.8 126.8 128.1 127.3 126.4 125 120.7 116.4 112.2 108.8 107.4 105 102.6 99.7 97.2 99.7 101.8 103.6 104.1 104.1 103.9 103.8 101.5 101.8 101.4 100.9 98.5 99.9 100.9 101.7 101.5 99.7 99.3 98.9 98.9 98.6 97.8 97 96.2 95.4 94.5 93.1 93.3 93.6 93.9 93.9 93.4 93 92.6 92.1 91.2 90.2 89.2 88.2 87.5 86.7 86.2 83.8 78.5 69.2 66.8 64.5 63.4 67.2 72.5 77.5 81.8 84.7 86.9 89 91.1 92.7 94.4 96.1 97.4 97.8 98.3 99.6 101 102.3 103.4 104.3 105.2 106 106.3 106.6 107 107.3 107.5 107.7 107.6 105.3 103.4 100.7 97 93.6 91.3 89.5 87.3 81.4 80 81.6 82.5 83 83.8 86.2 89.3 92.3 95 98.6 104.9 112.4 120.9
121.9 123.6 124.3 124.8 125.5 125.3 124 123 122.1 122 121.4 121.5 121.2 118.5 119.5 119.6 118.9 119.5 119.6 119.3 119.6 118.3 118.5 117.2 120.5 123.2 124 124.9 127 130 128.5 130.1 132.8 137.4 141.5 146.7 152.8 161.5 170 178.6 188.2 197.4 208.5 216.5 226.2 220.4 218.8 216.4 212.6 208.1 202.5 195.3 188.4 181.2 173.2 167.8 161.5 156.9 151.3 149.8 144.3 134.4 132.8 130.2 128.3 127.4 124.8 121.8 119.3 117.2 115 110.2 107.6 107.5 109.5 112 114.6 116.4 118 119.5 121 122.6 123.7 123.8 123.4 121.5 121.6 125.2 126.7 127 126.4 125.5 124.8 121.2 116.9 112.6 109.9 107 103.7 100.7 97.6 97.2 99.3 101.3 102.2 102.5 102.2 101.5 99.7 100.2 100 98.9 97.9 97 98.1 99.4 100 99.1 98.6 98.5 98.4 98.2 97.6 96.8 95.9 95.1 94.2 93.4 92.3 91.7 91.6 91.8 91.9 91.4 91.1 90.7 90.3 89.4 88.7 88.3 87.8 86.8 85.3 83.5 80.6 73.2 68.7 65.2 63.3 63.6 70 75.5 79.9 82.5 84.5 86.6 88.6 90.6 93 94.8 96.7 97.8 98.1 98.4 99.7 101 102.1 103.5 105.1 105.9 106.7 107.3 107.2 107.2 107.1 107.4 107.9 108.1 106 103.6 100.5 96.9 93.1 90.2 87.7 85.1 80.8 79.3 81.1 81.9 83 83.6 84.9 86.8 90.2 93.6 97 101.2 107.6 119.3
119.7 120.8 121.5 122.1 122.9 121.9 119.9 119.2 119.1 119 118.6 118.1 118.8 119.1 119.2 118.2 119.4 119.4 119.3 118.8 117.9 115.8 115 115.4 118.1 121.1 123.9 123 126.1 130.3 130.5 131.7 132.9 136 140.5 146.5 152 159.3 167.9 174.2 181.3 190.7 201.9 212.2 220.3 218.6 219.6 218.8 215.6 211 204 197.2 190.2 181.7 175.5 168.9 161 156.4 151.6 148.4 144.7 137.4 131.2 127.1 123.5 122 120.4 118.8 117 113.8 111 107.5 106.2 107.2 109.6 112.4 115.2 116.7 117.9 119.4 120.9 122 121.7 121.7 121.5 119.7 122.2 125.4 126 125.2 124.5 125.7 123.8 120.8 116.5 112.4 109.1 105.8 102.5 99.2 96.4 97.6 98.9 100.5 100.9 100.5 99.4 98.2 97.6 97.3 96.7 95.7 95.5 94.7 94.8 95.4 96.2 97.1 97.8 97.8 97.4 97 96.4 95.6 94.8 93.9 93 92.1 91.2 90.9 90.8 90.8 90.4 90 89.7 89.4 89.2 89.2 88.8 88.3 87.9 87 86.4 85.1 78.7 71.3 66.9 64.2 63.6 62.9 69.3 76.5 80 82 83.9 86 88 89.9 92.2 94.6 96.7 97.7 98.2 98.7 99.6 100.6 101.7 103.3 105.8 106.6 107.4 108.2 108.2 108.4 108.7 108.6 108.4 107.4 105.6 103.1 100.2 97.1 92.2 89.1 86.3 83.8 79.7 78.8 80.6 81.6 84.3 84 84.1 85.1 86.1 89.7 94.3 98.3 106.1 113.2
117.5 118.4 119.6 121.1 119.4 117.8 116.8 117 116.7 116.4 116.6 117.9 118.7 118.5 118.6 116.6 117.4 117.6 116.4 115.6 114.8 113.5 112.1 113.9 115.7 119.7 121.8 121.1 125.8 131 132.1 132.6 134.4 137.3 141.5 148.4 151.7 157.9 163.6 169.5 176.6 183 192.2 203.6 211 214.4 216.2 220.3 217.9 213.5 205.3 198.1 190.6 182.5 176.1 168.7 161.7 156.3 149.8 145.2 140.8 136 129.2 123.7 120.4 117.6 116.1 113.9 111.8 108.9 107.4 105.6 105.4 106.6 110.2 113 115.7 116.9 118.2 119.4 119.9 120.2 119.5 119 118.8 118.6 121.8 124.3 124.3 123.4 123 123 121.2 117.7 114.8 112.2 108.8 105.2 101.5 98 94.8 98.4 99.2 100 99.9 98.7 97.1 95.3 94.5 93.9 93.6 93.4 93 92.8 93.3 94 94.9 95.8 96.3 96.5 96.1 95.7 95.2 94.3 93.5 92.6 91.7 90.8 89.9 89.9 89.8 89 90.2 89.8 88.8 88.6 88.5 88.5 88.5 88.3 87.7 86.4 84.1 83.2 79.3 70.5 65.6 62.9 62 62.8 71.6 76.4 79.8 81.6 83.3 85.4 87.4 89.2 91.4 93.8 95.9 97 97.9 98.2 98.5 99.7 101 102.8 105.1 106.6 107.5 108.4 109.4 109.5 109.5 109.3 109 107.5 105.9 102.9 100.9 97.5 93.4 90.3 87 84.9 82.1 76.9 78.8 81 84.4 85.2 84.7 84.3 85.4 87.7 91.6 95.5 101.6 109.3
115.4 116.1 116.8 116.7 116.2 115.2 115.1 115.1 115.1 114.4 114.9 116.1 116.4 115.4 114.2 112.9 112.2 112.3 113 112.7 112.3 111.1 110.1 111.5 113.3 116.3 118.7 119.6 122.1 129.5 132.8 133 134.5 138.7 142.7 148 151.6 154.8 159 164 172.1 177.4 184 192.2 200.7 205.1 208.5 216.8 219.4 214.7 203.3 196.7 189.6 182.1 175 168.3 161.8 156.3 150.3 144.3 135.9 130.1 123.1 118.7 114.7 112.6 111.3 108.9 107.5 106.7 105.2 103.8 105.4 107.4 111.3 113.4 116.1 117.2 118.2 118.7 118.5 118.5 117.7 116.8 117.2 118.8 121.4 122.3 122.4 121.5 120.5 120.4 118.2 114.8 112.6 111.7 108.6 104.2 99.7 95.3 94.5 97.3 99.5 99.3 98.5 96.8 95 93.3 92.4 92.1 92.2 92.1 91.8 91.8 92.2 93 93.8 94.2 94.6 95.1 94.8 94.4 94 93 91.8 90.9 90.1 89.2 88.2 87.3 88 88.6 90 89.6 89.1 87.8 87.7 87.8 87.8 88.1 86.6 84.6 82.6 82.2 78.9 72.1 65.1 62.1 60.6 65.9 71.4 76.2 79.6 81.2 82.7 84.8 86.7 88.6 90.6 93 94.7 96.1 97.1 97.7 98 98.4 99.7 101.4 104.5 106.1 107 108.1 108.9 109.4 109.4 109.9 109.4 107.8 105.8 102.8 99.7 94.9 92.2 92.1 89.1 87.8 84 78.7 76.3 78.5 82.7 84.4 84.5 84.2 85.8 87.9 90.1 93.4 99.9 106.1
113.2 113.8 114.3 113.7 113.5 113.6 113.5 113.5 113.4 111.4 112.4 112.6 111.2 110.6 110 109.3 109.3 109.9 110.8 110.3 109.6 108.6 108.7 109.1 110.2 113.5 116.3 118.2 119.9 126 131.4 132.8 134.1 136.9 140.6 146.5 150.2 153 156.2 161 167.6 172.8 178.4 183.9 189.8 194.5 198.6 204.5 207.8 208.7 198.9 193.4 187.8 180.4 172.4 166 159.9 154.3 148.8 142.8 132.8 121.9 114.2 109.3 108.1 106.4 105.2 104.6 104.3 104.3 103.5 103.9 105.1 108.7 112.7 114.7 115.6 116 116.4 116.8 116.9 116.6 116.1 116.5 116.9 119 120.5 120.6 120.3 119 118.2 117.4 115.1 111.9 110.1 109.3 107.2 103.3 98.9 94.5 92.7 95.5 97 97.2 95.7 94.3 92.8 91.6 91.2 90.9 91.1 91.1 91 91.1 91.2 92 92.7 93.1 93.2 93.5 93.5 93.1 92.7 92.1 90.7 89.3 88.4 87.6 86.5 85.9 87.3 88.3 89.5 89.4 89.4 88.1 87.4 86.8 86.8 86.9 85.8 83.8 82.1 80.8 78.1 71.7 65.2 60.1 63.3 67.6 72.4 76 79.4 80.9 82.1 84.2 86 87.9 89.8 91.8 93.5 95.3 96.1 96.6 97.1 97.6 98.5 100.1 102.4 104.5 106.6 107 108 108.9 109.3 109.6 109.1 107.5 104.7 101.6 97.7 93.7 91.4 90.8 90.5 88 84.6 79.6 76.6 75.9 81.3 82.5 83.8 84.7 86.5 88.3 90.4 93.9 98 105
111.1 111.5 111.5 111.6 111.7 111.8 111.9 111.9 111.7 110 110 109.4 108.7 108.1 107.5 107 107.4 107.9 108.5 108.4 107.4 107.2 107.7 108 108.6 111.4 113.7 115.9 118.2 122.2 125.1 127.9 130 134.3 137.5 142.6 146.3 151.3 156 158.9 164.3 167.2 171.8 177.7 182.1 184.8 187.7 191.6 194.6 196.2 192.8 188.5 184.1 177.3 170 163.8 158 152 146.4 140.2 129.5 116.3 107.1 103.3 102.2 102.2 102.6 102.8 102.4 102.5 103 104.4 107.2 110.7 112.5 113.8 113.6 113.8 114.1 114.5 114.8 115.7 115.9 116.2 116.6 118.6 118.7 118.4 118.2 116.1 114.8 114.3 111.8 109 107.7 107 104.8 102.1 98.4 94.1 91.8 93.1 94.7 95.6 94.5 92.5 90.7 90.1 89.8 89.8 90 90.1 90.2 90.3 90.4 90.9 91.5 92 92.1 92.2 92.2 91.8 91.4 91.1 89.8 88.4 87 85.9 85.6 85.6 87.4 88.7 89.3 89.5 89.7 88.5 87.7 86.9 86.1 85.6 85 83.1 81.5 78.8 76.2 71.8 64.8 58.5 64.1 69.4 74.3 77.5 79.8 80.7 81.7 83.5 85.4 87.2 89 90.5 92.2 93.9 95.1 95.6 96 96.4 97 98.5 100.1 102.1 103.9 105.1 106.3 107.4 108.7 109 108.8 107.2 104.5 100.9 97 93.9 91 89.1 87.9 86.2 83.3 78.9 76.2 74.8 79.4 81.3 82.5 84.6 86.5 88.4 90.6 94.1 98.8 103.9
110.3 110.4 110.6 110.6 110.7 110.6 111 111.3 110.4 109.3 108.6 108 107.5 106.4 105.4 105.2 105.5 106 106.5 106.6 106 105.8 106.6 107 108 109.6 111.7 113.9 115.6 116.9 121.6 124.1 127.8 130.6 134.8 138.4 141.9 145.9 149.8 153.8 158.7 161.7 165.4 169.9 175 177 179.7 183 186.4 186.7 186.3 183.8 179.3 172.4 166.9 162 156.2 150 143.2 136.3 126.6 112.7 104.1 101.1 100.3 100.8 101.1 101.5 102.2 103 104.3 106.6 109.4 110.8 112 112 111.8 111.6 111.9 112.2 113.4 114.9 115.7 116 116.5 116.9 116 115.8 115.2 112.5 111.1 110.6 108 106.5 105.5 104.8 102.5 99.7 97 93.7 91.1 91.5 93.1 94.5 93.2 91 89.2 88.5 88.8 89 89.2 89.4 89.6 89.7 89.8 90 90.4 90.9 91 91.4 91.2 90.7 90.2 89.8 88.9 87.5 86.1 84.9 84.7 85.4 86.8 88.2 88.6 88.8 89.1 88.4 87.6 86.6 86 85 83.9 81.9 79.9 77.2 73 68.3 63.9 58.8 64.6 71.6 76.3 79.2 81.4 81.4 81.7 82.4 84.2 86 88 88.9 90.5 92.3 94.5 95.2 95.6 96 96.1 96.3 97.8 99.6 100.9 102 104.2 105.4 107.1 108.3 108.5 107.1 104.9 101.7 97.2 94 90.6 88.1 86.2 84.4 81.5 78.4 74.8 74.4 78.2 79.9 81.9 84.3 86.2 88.4 90.5 93.8 97.8 100.5
110 110.3 110.8 110.7 110.4 110.2 110.1 110.1 108.8 107.8 107 106.6 106.1 105.2 104.2 103.8 104.6 105.2 105.8 105.8 105 105.6 106.3 107 107.9 108.9 109.5 111.6 112.5 114.2 118.3 121.5 124 126.7 129.8 133.5 137.3 141.1 144.9 148.4 152.2 156.2 159.2 163.2 167.4 170.3 172.8 175.9 178.3 178.2 178.1 176.4 173 167.5 163.7 158.6 152.4 146 138.9 132.2 120.4 110 101.3 100.1 104.9 104 101.7 101.9 102.3 105.6 108.9 109.2 109.6 110.1 110.4 110.2 110 109.7 109.6 110 112.2 113.6 114.2 114.2 113.7 112.9 111.6 111.9 111.6 108.7 107.1 106.2 105.8 104.8 103.7 102.3 99.9 97.6 95.3 92.3 89.5 89.8 91.5 93.1 91.8 89.7 88.1 88.2 88.2 88.4 88.6 88.8 89 89.1 89.2 89.4 89.6 89.9 90.4 90.7 90.2 89.7 89.1 88.5 88 86.6 85.2 84 84.2 85.3 86.5 87.7 87.9 88.1 88.6 88.2 87.2 86 84.7 83.7 82.6 79.9 77 72.8 67.9 64.3 61.6 57.9 67 73.6 77.6 79.3 81 80.8 81.3 81.9 83.1 85 87.1 87.9 88.8 90.9 93.4 94.5 95.2 95.4 95.5 95.7 95.9 96.6 97.8 99 101.6 103.4 105.2 107.6 107.9 107.2 104.6 101.8 97.1 92.4 89.2 86 84.1 82.5 79.5 71.8 72.9 74.7 77.4 79.4 81.7 84 86.2 88.4 90.4 94.3 95.7 95.4
107.5 107.8 108.5 109.4 109.3 109.1 109.1 108.8 107.3 106.1 105.6 105.1 104.7 104.1 103.2 103.9 104.6 104.8 105.4 105.2 104.6 105.3 106 106.8 108 108.3 108.2 107.7 108.2 110.4 114.7 118.1 119.7 122.6 125.7 128.8 132.5 136 139.5 143 146.8 150.6 153.5 157.3 160.5 163.5 166 168.8 170 170 169.8 168.3 165.1 162.1 158.9 152.5 147.9 140.2 133.1 125 112.8 106.6 98.3 100.5 105.2 105 103.7 103 105 106.8 107.9 108.3 108.9 108 108.6 108.5 108.3 108 107.7 108.6 110.5 111.9 111.6 110.6 109.1 108.2 108.4 106.6 106.6 103.7 105.2 104.5 104 102.9 101.5 99.6 98.4 96.6 94.4 90.6 88.5 89.4 90.3 91.4 90 88.3 87.7 87.8 87.8 87.9 88.1 88.3 88.5 88.5 88.6 88.9 89.5 89.7 89.9 89.7 89.2 88.7 88.1 87.5 86.8 85.7 84.1 83.4 83.8 84.7 85.9 86.8 87 87.6 88 87.4 86.6 85.5 84.1 82.4 81.1 75.9 68.2 65.6 63.7 61.9 57.8 62.3 69.1 74.2 77.6 78.9 77.9 77.4 77.4 79.3 82.2 84 86.1 87 87.7 89.5 92 93.8 94.6 95 95.2 94.6 94.1 94.2 95.3 96.9 99 101.6 104.2 106.4 107.1 106.7 103.9 101 96.6 91.1 87.3 83.9 81.9 79.5 76.3 72.6 73.5 74.9 76.2 78.3 80.3 82.7 86.3 88.5 90.4 92.1 93.4 93.7
104.8 105.4 106.2 107 107.9 108.6 108.8 107.6 106.4 105.8 105 104.3 103.6 102.8 103.4 104.1 104.7 105.4 105.4 104.3 103.7 105 105.7 106.4 106.8 106.3 105.6 105.2 104.7 107.6 110.8 113.3 114.7 118.7 121.8 124.4 126.5 130.6 134.1 137.7 141.4 145 148.5 151.9 154.7 157.3 158.9 161.1 162.4 162.1 161.7 161.1 158.7 155.8 151.6 146.1 139.1 132.6 123.8 114 103.6 99.8 98.5 101.4 105.1 105 104.6 103.7 104 104.1 105.5 105.5 105.1 105.3 106 106.6 106.5 106.1 105.4 106 107.2 107 104.7 104.1 104.5 106 105.6 102.4 101.4 105.3 106.7 104.6 102 100.7 99.2 97.9 96.7 95.4 92.9 87.8 86.8 88.3 89.1 89.4 88.4 87.2 87.1 87.5 87.5 87.4 87.6 87.8 87.8 87.9 88.3 88.9 89.6 89.6 89.2 88.7 88.2 87.6 87.1 86.5 85.5 83.9 83 83 83.4 83.6 84.2 85.2 85.5 86 86.3 85.9 85.9 84.8 83.7 82.1 79 69.3 63.2 61.6 60.3 58.4 56.9 63.9 70.5 74.4 76.4 75.8 74.6 75.2 76.9 80.2 82.8 84.6 85.8 86.9 87.9 89 91.6 93 93.9 93.6 92.9 92.2 91.7 91.9 93.2 95.6 98.2 100.7 103.1 105.2 105.8 105.5 103.3 100.2 94.7 88.6 84.6 80.8 78.2 75.6 72.4 72.3 74.1 75.7 76.7 77.7 79.4 81.7 85.2 89.2 91.1 92.1 93.1 94.8
104.4 104.2 105.2 106.5 107.8 108.6 108 107.2 106.3 105.5 104.4 104 103.3 102.6 103.4 104.2 104.9 105.5 104.7 103.5 102.2 104.2 105 105.7 105 103.9 103.2 102.3 101.7 103.3 104.9 107 109.4 113.5 116.6 119.9 122.3 124.9 128.7 132.3 135.9 139.4 143 145.9 148.6 151.3 152.3 153.6 154.6 154.1 154.1 153.5 152 147.7 141.9 136.3 129 123.3 111.4 102.1 98 97.6 102.5 104 104.1 103.8 103.5 103.4 103.2 102.9 102.9 102.9 102.6 102.7 103.3 103.9 103.8 103.5 102.9 102.5 102.6 101.8 101.3 101.9 102.3 101.5 101.4 99.7 105.5 106.8 106.8 104.8 100.3 98.8 97.5 96.2 95 93.7 89.7 86 86.5 86.9 87.7 87.5 86.8 86.2 86.5 87 87.1 87.1 87.1 87.3 87.5 87.7 88.4 89.1 89.7 89.8 89.1 88.4 87.7 87 86.3 85.2 83.9 82.6 82 82 82.2 82.1 82.8 83.4 83.7 84.1 84.7 85.3 84.8 83.1 82.1 79.5 72.6 63.2 60.2 58.3 56.1 55.2 62.1 64.6 67.5 71 72.3 73.2 73.6 76.4 78.9 81.2 83.3 85.5 86.8 87.8 88.4 89.1 91.3 92.1 93 92.4 91.2 90.5 89.9 89.8 92.1 94.6 97.2 99.6 101.9 103.5 104.2 103.6 101.3 98.1 92.1 86 81.6 77.4 74 71.9 69.6 72.7 74.7 76.5 77.1 77.9 79.1 82.4 87.1 91 92.4 92.9 92.5 93
104.6 105.3 105.2 106.5 106.6 106.2 106.2 106.8 106.2 105.1 103.9 103.7 103 102.5 103.3 103.9 103.6 103 102.8 101.8 100.3 102 103.2 103.4 102.6 101.9 100.8 98.9 98.5 99.1 99.5 101.9 104.2 107.5 111.4 114.9 118.3 120.1 123.3 126.7 130.3 133.9 137.1 139.8 142.1 143.3 144.3 144.1 144.6 145.1 147.5 144.8 141.5 139 134 120.8 112.2 103.6 98.9 97.7 104.1 103.8 101.8 103 102.8 102.6 102.6 102.9 102.9 102.4 102.1 101.1 100.3 100 100 99.6 99.6 99.4 98.5 98.5 97.9 98.1 99 99.6 100 100.2 99 98 103.1 105.4 105.6 102.6 98.6 97.2 95.8 94.5 93.3 91.4 86.8 84.7 85 85.7 86.2 85.6 85.6 86.4 86.6 86.8 86.9 86.9 87 87.2 87.4 87.6 88.2 89.2 89.6 89.9 89.4 88.7 87.6 86.2 84.7 83.5 82.4 81.7 81.1 81 80.8 81 82 82.8 83.1 83 83.2 83.6 83.8 82.1 80.3 74.5 65.2 59 55.9 54.7 57.3 63.3 68.7 71.7 72.9 72.4 71 73.2 76 77.4 80.3 82.3 84.1 85.9 87.7 88.3 88.6 89.3 90.4 91.2 92.1 91.4 90 88.9 88.4 88.1 90.5 92.8 95.1 97.5 99.6 101.7 102.5 101.5 98.9 94.2 89.4 83.4 79.4 74.7 70.7 68.4 72.3 75.2 76.8 76.5 77.4 78.1 81.1 85.7 91.6 94.7 95.2 93.8 93 93.4
106.4 108.7 109.6 108.6 107.9 106.7 106.6 106.2 105.9 104.7 103.6 103 102.6 102.4 102.7 102.8 102.5 101.8 101.3 100.4 98.6 100.8 101.6 101.1 100.5 99.8 97.9 96 94.9 94 94.5 97.9 99.9 102.5 105.8 108.2 112 114.9 118.6 121.5 123.7 126.8 129.6 132.7 134.8 135.2 135 132.7 134.4 136.3 136.2 134.3 131.4 128.1 116.8 106.7 99.9 97 101.3 105.5 105.6 104.1 102.5 101.8 101.8 101.8 101.5 101.3 101.5 101.2 100.2 99.3 98.5 95.8 95.9 95 94.4 94.6 95 95 94.9 95.6 96.6 97.3 97.6 98.1 97.3 95.7 99.7 102.4 102.4 100.6 97.3 95.6 94.2 92.9 91.4 88.6 85.9 84.2 85 85.1 85.7 86 86.4 86.5 86.6 86.7 86.8 86.8 86.9 87.1 87.3 87.5 88.1 89.1 89.6 89.7 88.9 87.3 85.8 84.4 82.9 81.8 81.2 80.6 80 79.8 80.2 80.9 81.6 82.3 82.3 82.2 82.2 82.5 82.3 81.3 78.5 70.5 60.3 55.6 52.9 54.7 59.2 66.4 71.3 73.7 75.4 75 72.6 74.2 76.6 78.3 80.2 81.9 83.7 85.7 87.4 88.4 88.7 88.8 89.5 90.3 91.2 90.3 88.9 87.5 86.7 86.3 88.3 90.6 93 95.2 97.3 99.3 100.2 99.5 96 92 87.7 82.5 78.2 72.5 69.2 69.3 73.9 76.2 76.4 76.7 76.5 77.8 80.9 84.5 89.2 93.2 95.3 94.1 93.2 93.1
106.4 109.6 111.2 110 109.9 108.7 106.1 104.8 104.1 103.2 102.6 102.1 101.6 101.6 101.6 101.7 101.5 101.2 100.8 98.6 96.6 99.3 99.6 99.4 99.2 98.8 95.8 90.2 88.1 87.2 87.8 92.5 95.1 97.5 101 103.1 106.3 109.4 113 115.2 116.6 119.3 122 124.9 126.7 122.3 123 127.8 130.3 131.9 131.1 127.3 120.6 110.3 97.6 95.9 95.5 102.5 104.7 105.2 104.9 104.1 102.4 101 101 101 101 99.7 100 99.7 98.6 97.5 95 91.9 91.7 93.5 94.1 95 95 93.3 93 93.1 94.1 95 95.2 94.4 92.4 92.3 95.6 98 97.3 96.4 95.8 94.1 92.7 91.2 89.1 86.6 84.3 83.6 84.5 84.9 86 86.4 86.5 86.6 86.5 86.6 86.7 86.8 86.9 87.1 87.3 87.4 87.5 88.6 88.9 88.8 88.1 86.5 84.9 83.2 81.5 80.7 80 79.4 78.8 78.7 79.2 80.2 81.3 81.7 81.6 81.5 81.4 81.4 80.9 80.1 77.6 69.3 58.6 53.4 50.8 56.5 62.6 68.1 72.4 74.2 75.3 75.4 74.4 73.7 75.7 78.2 79.9 81.5 83.4 84.9 86.5 87.9 88.2 88.1 89.1 89.4 90.3 89.3 87.8 86.6 85.6 85.3 86.4 88.5 90.7 92.7 94.6 96.6 98.3 97.9 94.7 90.6 86.3 81.4 77 71.6 68.5 70.4 74.4 74.4 74.3 75 75.7 76.9 79 82.5 84.5 88.8 91.1 91.7 91.8 92.2
103.6 105.1 106 107.5 109.2 107.4 104.5 103.2 102.4 102.1 101.7 101.2 101 101 101.1 100.9 100.7 100.4 98.7 96.9 94.6 97 97.2 96.4 95.8 95.2 86.8 84.6 85.3 85.5 86.9 86.7 87.2 91 94.8 98.3 100.3 103.5 103.9 107.5 108.7 110.1 112.8 115.3 112.3 109.3 113.9 119.7 121 119.8 115.2 107.5 101.2 95.2 95.2 102.4 102.9 104.7 104.9 104.7 104.5 103.7 102 100.3 100.3 100.2 100.2 99 98.7 97.9 96.7 95.6 91.2 91.2 93.6 94.6 94.9 95.1 94.1 91.9 90.4 90.5 91.2 91.6 91.1 89.8 91.2 95.8 96 94.2 93.8 92.9 93.4 92.5 90.9 89.3 87.3 85.5 84.1 82.7 83.4 85.1 86.3 86.5 86.7 86.8 86.6 86.5 86.6 86.7 86.9 87.1 87.1 87.1 87.2 88 88.2 87.9 87.1 85.7 83.7 81.7 81 80.2 79.5 78.7 77.9 78 78.1 79.2 80.2 81.1 81 80.9 80.7 80.7 79.5 78.6 77 69.2 59.5 53.3 49.7 53.4 61.5 67.5 72.2 74.3 75.3 75.5 75.5 75.1 76 77 79.1 80.6 82.3 83.9 85.5 86.8 87 87.4 88.7 89.1 89.4 88.1 86.7 85.7 84.7 84.6 85.7 86.8 88.1 90 92.1 94.9 96.6 96.5 93.1 89.2 84.8 80.3 75.5 71.7 67 70.2 72.9 72.3 72.2 72.9 73.8 75.4 77.6 80 82.4 84.6 88 88.4 88.7 91.6
99.3 100.5 100.9 102.2 102.5 103.6 102.7 101.5 100.5 100.2 99.8 99.5 99.2 99.3 99.3 99.3 98.8 97.5 96.4 94.9 93.6 93.9 94 94 92.9 88.4 83.9 84.8 88.2 92.7 94.6 94.6 92.9 90.4 88.9 89.8 95.1 97.2 100.3 102.2 102.6 103.6 105.4 102.9 98.3 95.6 95.2 98.1 101 102.3 102.2 96.2 94.5 94.4 100.4 103.3 105.3 106.3 105.2 104.7 103.9 102.7 101.4 100 99.7 99.7 99.2 96.8 95.9 95.2 93.6 90.4 88.7 92 93.1 93.2 93.2 92 90.2 88 87.8 87.9 88.1 88.2 89.2 91.4 98.4 99.8 99.4 98.1 95.8 93.7 91.9 91.5 89.9 88 86.2 84.2 83.8 82.4 82.7 84.5 86.3 86.6 86.8 86.9 86.8 86.7 86.5 86.6 86.8 86.8 86.9 86.9 86.9 87.4 87.4 86.6 85.7 84.2 82.2 81.3 80.5 79.8 79 78.2 77.4 77 77.4 78.4 79.4 80.3 80.3 80.1 80 80.2 79.7 78.3 76.4 71.9 62.2 55.4 48.9 45.4 55.1 64.8 70.7 73.6 75 75 75.4 76.1 76.8 77.4 78 79.2 81 82.5 83.9 85.3 85.6 86.2 87.6 88.2 88.2 87.3 85.9 85.1 84.3 84.1 84.9 85.6 87.2 88.2 90.7 93.1 94.8 94.5 90.9 87.6 84.2 79.1 74.1 70 65.3 68.5 71 70.3 70.1 71 72.1 73.9 76 78.2 80.4 82.6 84.8 86.1 87.6 91.8
96.1 95.7 95.1 95 95.7 97.5 99.2 99.7 98.6 98.3 97.9 97.6 97.2 97.1 97 96.9 96.8 95.6 94.9 93.2 91.8 90.8 90.9 90.9 89.3 83.5 83.4 91.1 93.6 94.8 96.4 97.8 98.2 98.4 94.1 90 89.7 90 93.2 95.8 91.3 91.3 92.3 93.2 92.5 92 92.8 93 93.5 93.8 93.8 93.5 94.3 96.1 101.3 103.7 104.5 105.2 105.1 103.4 102.1 101.1 99.9 98.6 99 98.6 97.6 94.3 91 89.2 87.6 87.3 90.3 89.7 90.6 88.8 87.9 85.6 84.8 86.3 87.2 86.5 86.8 88.5 91.9 96.3 100.2 100.3 100.3 99.3 97.1 94.8 92.7 90.4 88.5 86.6 84.8 83.2 82.5 82.4 82 84.1 86.3 86.6 86.9 87.1 86.9 86.8 86.7 86.5 86.5 86.6 86.6 86.7 86.7 86.8 86.3 85.2 84.1 82.6 81.5 80.8 80 79.3 78.5 77.7 76.7 75.8 76.5 77.4 78.2 79.2 79.5 79.3 79.6 79.7 79.2 78.7 77 73.1 64.1 57.3 52.9 48.9 45.5 59 68.7 72.7 74.5 75 75.5 76.4 78.1 78.5 78.8 79.4 80.2 81 82.2 83.3 84.2 84.9 85.7 86.3 86.8 86.7 85.2 84.3 83.4 83.3 84.2 86.2 88.2 89.6 91.9 93.4 94.7 92.8 89.6 86.9 82.9 77.5 73.1 69.6 65.7 67.2 69.3 68.4 67.8 68.9 70.6 72.6 74.6 76.9 79.4 82 84.3 85.9 88.1 92.8
95.1 94.4 93.7 93.1 93.2 93.1 95.1 95.2 95.7 95.4 94.9 94.9 95 94.5 94.6 94.5 94.5 94.2 93.6 92.3 90.5 86.2 85 83.3 82.1 82.3 88.9 93.4 95.6 96.5 98.6 99.1 99.5 99.6 98.5 96.7 94.8 91 89.6 90 90.9 91.3 94.5 98.3 100.7 101 101.9 100.8 92.7 92.8 93.5 93.9 95.6 100.1 103.5 103.3 102.9 103.7 102.9 101.4 100 99.1 98.2 97 97.5 97 94.4 90.3 87.5 86.5 86.1 88.7 89.6 88.1 87.4 85.4 82.6 84.1 88.9 90.7 90.5 90.5 91.4 92.9 94.6 96.4 99.1 99.9 99.4 98.6 96.2 93 91.4 89.3 87.2 85.3 83.5 82.9 82.8 82.5 82.1 84 86.2 87.4 87.7 87.9 87.9 87.9 87.9 86.1 85.9 86 86.1 86.2 86.2 85.9 84.8 83.7 82.6 81.2 80.5 80 79.5 78.8 77.7 76.6 75.5 75.2 75.7 76.3 77 78.2 78.7 78.9 79.1 79.2 78.7 78.2 77.5 74.2 65.5 58 54 51.3 47.7 51 66.9 72.3 74.6 74.1 75 76 77.4 78.3 79.7 80.2 81 81.3 81.6 82.2 82.8 83.2 83.8 84.3 84.9 85.4 84.5 83.6 82.6 82.6 85 87.2 89.2 91.1 93.2 94.7 94.7 92 88.4 85.1 81.4 75.3 72.2 68.5 66.1 66.1 67.4 67.6 67.1 68 69.5 71.5 74.2 77.5 80 82.4 84.3 86 88.9 93.7
