ncols 200
nrows 105
xllcorner 240000
yllcorner 361100
cellsize 50
1.8 1.8 1.1 1.7 1.8 1.7 1.7 1.7 1.7 1.7 1.7 1.7 1.8 1.9 2 2.1 2.3 2.7 3.1 3.5 7.7 4 4.2 5.4 7.5 6.7 8.1 7.6 8.9 11 11.7 16.7 19.3 21.2 20.8 21.5 23.1 25.6 27 29.7 29.4 29.3 28.8 29.8 31.3 32.5 33.3 34 34.8 35.5 36.9 37.3 37.6 37.8 38.2 38.6 39.2 39.9 40.1 40.9 42.1 41.9 41.5 40.9 40.9 40.9 40.9 41 41.1 41.2 41.4 42.4 42.4 41.3 39.2 36 32.7 29.8 26.9 24 20.4 16.7 14 11.2 8.5 8 10.4 12.6 14.5 14.9 13.7 9.7 6 3.4 2 2.9 4.1 6.9 8.8 11.6 17.9 22.8 17.2 14.8 15.9 16.9 17.9 18.8 17.7 17.1 15.4 13.5 11.1 8.6 6.4 6 6.2 6.3 7.1 7.1 7.8 9 10.4 11.8 13.3 12.8 12.6 13.8 14.9 16.5 17.7 19 20.4 21.2 21.8 22.3 23.2 24.8 26.3 27.2 28 28.1 32.6 31.7 31.7 31.9 30.9 29.4 27.4 25 22.5 21.7 20.8 20 19.4 19.7 20.1 20.6 21.4 21.5 21.1 21.4 20.5 19.6 18.8 17.9 16.4 15.3 14.3 15.2 15.4 16.6 17.5 16.7 15.7 15.6 13.7 12.1 11.6 11.8 12 11.5 7.8 5.1 1.7 -1.5 -1.5 -1.5 -1.5 -1.5 -1.5 -1.5 -1.5 -1.5 -1.5 -1.5 -1.5 -1.5 -1.5 -1.5
1.8 1.8 1.7 1.8 2 1.8 1.8 1.7 1.7 1.7 1.7 1.8 1.9 2 2.1 2.1 2.2 2.6 2.9 3.6 3.7 3.8 4 4.7 6.8 8.3 10.8 13.1 16.3 14.5 12.6 17.6 19.2 20.4 20.7 21.6 23.7 25.9 28.9 30 28.8 28.7 29.6 30.6 32.4 33.4 33.8 34.5 35.3 36 37.2 37.4 37.7 38.2 38.7 39.1 39.9 40.7 41 41.3 42.4 42.4 42 41.6 41.5 41.5 41.6 41.6 42.1 42.1 41.9 42.2 41.9 40.5 38.1 35 31.5 28.1 25.2 22.3 18.9 14.9 11.4 8.9 7.1 8.4 10.8 13.4 14.3 13.5 10.6 6.6 4.6 4 2.3 4.2 7.2 11.8 12.8 15.5 24.7 23.6 17.8 16.7 18.2 19 19.7 18.7 17.6 15.3 13.6 12.1 9.9 7.6 5.9 6.5 6.6 7.3 8 8.4 9.1 9.5 10.4 11.7 12.9 12.9 13.1 14.2 15.3 16.4 17.6 19 20.3 21.4 21.9 22.5 23.8 25.1 27 27.9 28.6 32 31.4 31 30.5 29.9 29.3 27.9 25.5 23.1 21.7 20.8 20 19.2 19.6 20.1 20.5 21 21.3 20.7 20.4 19.9 18.9 18 17.2 15.8 13 13.7 14.2 15.3 15.1 15.9 15.7 14.7 14.3 13.4 12.2 10.9 9.7 9.9 10.2 8 4.6 1.9 -1.5 -1.5 -1.5 -1.5 -1.5 -1.5 -1.5 -1.5 -1.5 -1.5 -1.5 -1.5 -1.5 -1.5 -1.5 -1.5
1.8 1.8 1.8 2 2.1 1.9 1.8 1.7 1.7 1.7 1.8 2 2.1 2.1 2.2 2.3 2.3 2.4 2.8 2.9 3 3.1 3.9 5.8 13 12.6 16.6 16.8 18.3 18.7 16.7 15.1 19.6 20.5 20.7 21.8 23.8 26.4 29.1 28.8 28.3 29.4 30.4 32.5 34.4 35.3 35.5 35.6 35.8 36.5 37.3 37.7 38.2 38.7 39.2 39.9 40.7 41.5 41.9 42.1 42.8 42.9 42.5 42.3 42 42.1 42.2 42.3 42.2 42.3 42.4 42.3 41.2 39.5 37 33.8 30.5 27.3 24 20.7 16.3 13.3 9.9 7 6.7 8.8 11.5 14.1 13.6 11.2 7.5 5.4 5.9 3.6 2.8 7.3 12.5 15 15.4 19.8 23.6 21.7 18.6 18.9 20.4 20.8 19.8 18.3 16.6 14.1 11.5 10.3 8.8 6 6.3 7.3 7.6 8.2 8.9 9.7 9.8 9.9 10.3 11.4 12.9 13.1 13.7 14.5 15.4 16.3 17.5 18.9 20.3 21.5 22.2 23.1 24.4 25.9 27.7 28.3 30.1 31.8 30.2 29.8 28.7 28.4 27.6 25.9 23.5 21.7 20.9 20.3 19.7 19.4 19.9 20.3 20.8 21.3 21.1 20.4 19.5 18.3 17.3 16.4 15.2 10.9 13.1 14 14.1 14.2 14.4 14.1 13.9 13.3 12.4 11.3 10.3 9.3 8.4 8 6.9 3.6 1.4 -1.5 -1.5 -1.5 -1.5 -1.5 -1.5 -1.5 -1.5 -1.5 -1.5 -1.5 -1.5 -1.5 -1.5 -1.5 -1.5 -1.5
1.7 1.7 1.7 1.9 2 1.9 1.8 1.8 1.8 1.8 1.9 2 2.2 2.4 2.5 2.6 2.6 2.7 3.2 3.2 3.3 4 10.1 16.4 16.7 16.7 21.1 20.4 21.2 20 17.5 16.4 18 19.9 21.3 22.9 25.2 27.2 28.1 28.8 29.2 30.3 31.4 33.8 36 36.1 36.2 36.5 36.3 37 37.7 38.3 38.9 39.4 40 40.8 41.7 42.5 42.8 43 43.2 43.5 43.2 43.1 42.8 42.5 42.6 42.2 41.5 41.4 41.3 41 40.1 37.8 35 31.5 27.4 24.2 21 18.1 14.6 11.6 8.1 6.2 6.9 8.7 10.7 13.1 10.5 7.7 5.9 5.5 5.4 2.3 4.6 9.9 14.5 16.4 18.1 20.7 22.6 20.9 19.5 20.2 20.6 20.5 19.2 17.4 14.9 12.6 10.4 9.5 7.8 5.5 6.4 8.1 8.6 9.2 10.7 12.7 12.3 11.2 11.4 12.2 13.2 14.1 15 14.7 15.5 16.2 17.3 18.9 20.6 21.2 22.3 23.7 25.4 27.1 28.7 29.8 31.6 30.9 29.5 28.5 26.7 26.6 26 24.3 22 20.7 19.8 19.5 19.2 19.7 20.2 20.6 21.1 21.5 20.9 19.9 19 17.9 16.3 14.3 12.3 12.2 12.7 12.8 12.3 12.6 12.8 12.8 12.3 11.3 10.3 9.3 8.3 7.4 6.5 5.8 4 1.4 -1.5 -1.5 -1.5 -1.5 -1.5 -1.5 -1.5 -1.5 -1.5 -1.5 -1.5 -1.5 -1.5 -1.5 -1.5 -1.5 -1.5 -1.5
1.9 1.9 2 2.1 2.1 2 1.9 1.9 1.8 1.8 1.9 2 2.1 2.4 2.6 2.8 2.9 3.8 4.3 4.1 4.1 12.2 18 19.1 19.1 20.4 22.1 22.8 21.7 20.4 18.8 17.9 17.1 19 20.6 22.6 25 26.4 28.3 30.3 30.7 31.4 32.5 34.5 36.5 37 37.3 37.6 37.2 37.5 38.1 38.9 39.7 40.2 40.7 41.7 42.6 43.5 43.7 43.9 44 44.1 44 43.8 43.5 43.1 41.9 41 40 39.8 39.5 39.1 37.7 34.3 31.7 28.8 24.3 21.2 18.2 15.2 12.8 10.4 6.6 5.4 6.1 7.7 9.6 8.4 6.3 6.4 5.7 4.9 2 2.8 7.1 11.9 15.2 18.1 19.6 21.6 21.1 20 19.9 20.4 19.9 19.6 18.4 16.8 14.3 11.2 9.1 7.6 6.2 4.9 7.1 8.5 8.6 9.7 12.3 15.2 15.9 13.8 12.6 13.5 14.4 15.7 15.6 15.1 15.7 16.5 17.8 19.6 20.4 20.9 21.9 24 25.9 27.2 28.8 30.5 30.1 29.7 28.5 26.5 25.1 25.2 23.6 22.2 20.5 19.4 18.7 19 19.4 19.8 20.4 20.9 21.3 21.3 20.3 19.2 19.2 16.6 14.4 12.4 10.6 11.3 12.5 11.1 10.7 10.8 11.5 11.4 10.2 9.1 8.1 7.6 7 6.4 5.8 3.3 1.4 -1.5 -1.5 -1.5 -1.5 -1.5 -1.5 -1.5 -1.5 -1.5 -1.5 -1.5 -1.5 -1.5 -1.5 -1.5 -1.5 -1.5 -1.5 -1.5
2 2 2.2 2.4 2.2 2.1 2 1.9 1.9 1.9 1.9 2 2.1 2.3 2.6 2.8 3 4.8 5 4.7 10.9 20.4 21 21.4 22.6 23.5 22.9 23.4 23.4 21.2 19.8 18.7 17.7 21.7 22.3 22.5 25.2 27.5 28.1 30.4 32.1 32.8 34.1 35.4 36.7 38.5 38.3 38.6 38.3 38 38.6 39.3 40.2 41 41.4 42.6 43.5 44.5 44.7 44.8 45 44.7 44.4 44 42.8 42.1 40.9 39.6 38.3 37.6 37.1 36.1 33.5 31.2 28.6 26 21.5 18.5 15.6 13.2 10.5 8.1 5.1 5 5.8 7.1 7.3 5.4 4.8 4.5 5.4 2.1 2.8 4.7 10.3 12.9 15.6 18.5 19.3 20.3 19.6 19.8 19.9 19.8 19.2 18.7 17.5 15.9 14.3 10.5 7.9 6 5.2 5.6 8 8.7 9 11.2 14 16.8 16.7 14.5 14.5 15.2 15.8 16.1 16.4 15.8 16 16.8 18.4 19.9 20.2 20.6 21.9 23.9 25.9 28.9 29.9 29.9 29.2 28.5 27.7 26.6 25 24.4 22.4 20.6 19 18.3 18.8 19.3 19.6 20 20.4 21 21.5 20.7 19.6 18.9 17.6 15.1 12.8 10.7 9.3 10.4 10.1 9.4 9 9 9.6 9.5 8.2 7 6.5 7.5 6.8 6.2 5 3 -1.5 -1.5 -1.5 -1.5 -1.5 -1.5 -1.5 -1.5 -1.5 -1.5 -1.5 -1.5 -1.5 -1.5 -1.5 -1.5 -1.5 -1.5 -1.5 -1.5
2.2 2.2 2.5 2.6 2.3 2.2 2.1 2 1.9 2 2 2.1 2.2 2.3 2.5 2.8 4.6 5.7 6.7 10.1 18.8 22.7 23.2 23.7 25.3 24.5 24.6 24.9 24.4 22.1 20.5 19.4 18.8 24.3 22.5 23.7 27.2 28.3 29.3 30.5 33.1 34.3 35.2 36.1 37.4 38.8 40.3 40 39.3 38.1 38.8 39.7 40.4 40.9 41.4 43.4 44 44.5 45.4 45.8 45.7 45.2 44.4 43.4 42.3 40.9 39.5 38.1 36.7 35.5 34.6 32.7 30.5 28.2 25.8 23 19.1 16 13.9 11.6 8.7 6.1 4.6 4.2 4.5 5.4 5.7 4.5 4.4 3.4 2.8 3 2.8 7.2 12.1 13.2 15.7 17 17.9 18.9 19.2 19.4 19.5 19.4 19.1 18.4 16.5 15.2 14 9.4 6.3 5.1 4.9 6.7 8 8.8 9.5 11.8 14.6 17.2 16.7 15.7 16.1 16.5 16.8 17.2 17.3 16.3 17 18.1 19.7 20.1 20.4 20.9 22.4 23.9 25.7 28.6 28.5 28.4 27.9 27.2 26.5 25.1 23.9 22.4 21 19.3 18 18.5 19.1 19.5 19.8 20.2 20.5 21.1 21.1 20 18.9 17.1 15.4 13.5 11.2 9.2 9.4 9.7 8.9 8.1 7.7 7.6 8.6 7.6 6.3 6 6.2 6.6 6.6 4.9 1.6 -1.5 -1.5 -1.5 -1.5 -1.5 -1.5 -1.5 -1.5 -1.5 -1.5 -1.5 -1.5 -1.5 -1.5 -1.5 -1.5 -1.5 -1.5 -1.5 -1.5 -1.5
2.4 2.5 2.7 2.8 2.4 2.3 2.2 2.1 2 2 2 2.1 2.2 2.3 2.5 3.7 5.7 6.7 7.7 15.8 20.8 23.4 23.5 23.9 24.5 24.5 25.1 25.4 24.5 22.3 21.6 20.6 19.6 21.4 23.7 26.1 28.3 29.3 30.1 34.7 35.2 35 35.8 36.7 38.2 39.6 41.1 42.5 40.2 38.6 37.8 37.7 38.6 40 41.3 42.4 42.9 44.2 45.4 46.2 45.9 45.2 44.1 41.9 40.1 39.4 37.5 36.1 34.7 33.3 31.1 29.3 27.5 25.2 22.9 20.1 16.7 14.2 12.4 9.9 7.1 5.6 4.6 4.2 4 4.4 4.1 3.4 3 2.8 2.6 3.4 5.3 8.4 11.2 12.9 15 16.4 17 17.6 18.3 19 19.1 18.9 18.2 17.3 15.3 13.7 11.6 7.5 5.2 4.3 5 7.1 8.3 9.3 10 13.1 16.5 17.4 16.8 16.9 17.2 17.5 17.9 18.3 18.5 18.2 18.2 19.8 20.6 20.5 20.6 21.3 23 24.9 26.6 26.8 26.8 26.7 26.5 25.9 25.2 23.9 22.3 20.8 19.3 17.8 18.5 19.1 19.2 19.6 20 20.4 20.8 21.1 20.3 18.7 17.2 15.8 13.3 10.4 9.1 8.5 8.4 8.5 7.8 7.1 6.8 6 6.6 5.7 5.5 5.6 6 6.4 4.1 1 -1.5 -1.5 -1.5 -1.5 -1.5 -1.5 -1.5 -1.5 -1.5 -1.5 -1.5 -1.5 -1.5 -1.5 -1.5 -1.5 -1.5 -1.5 -1.5 -1.5 -1.5 -1.5
2.6 2.7 2.9 2.9 2.5 2.4 2.3 2.2 2.1 2.1 2.1 2.1 2.2 2.3 3 4.4 6.4 8.4 9.4 12.8 19.7 21.9 22.7 22.2 21.8 23.1 24.6 24.5 24 23 22.9 22.9 21.7 22.1 24.6 27.1 28.8 30.1 31.3 35.3 36.7 37 37 37.4 39 40.3 41.1 41.5 38.9 37.6 36.9 37.3 38.1 39.7 40.7 41.5 41.9 43.1 45 45.9 44.5 42.9 41.3 39.6 38.2 37.4 36.7 34.5 32.1 29.5 27.7 25.9 24.4 22.2 19.9 17.2 14.2 12 10.4 8.4 5.6 5 4.4 4.5 4.4 3.2 2.9 2.9 2.4 2.7 3 4.4 7.7 9.7 11.1 12.5 14.3 15.9 16.6 16.5 17 17.7 18.4 18 17 16.1 14.2 12.1 8.7 5.8 4.7 3.9 5.6 7.5 8.9 10.3 10.6 13.9 16.6 17.3 17.6 17.9 18.3 18.9 19.5 20.1 20.6 20.4 19.8 21.2 21.3 21.2 20.2 20.9 22.4 24.3 24.8 25 25.1 25 24.9 24.5 23.7 22.3 20.7 19.2 17.6 18.6 19.5 20.6 20.8 19.8 19.7 20.1 20.5 20.1 18.4 16.9 15.6 14.4 10.8 9.1 8 7.7 7.4 7.2 6.7 6.1 5.3 4.4 4.6 4 5.4 5.2 5.3 3.5 1 -1.5 -1.5 -1.5 -1.5 -1.5 -1.5 -1.5 -1.5 -1.5 -1.5 -1.5 -1.5 -1.5 -1.5 -1.5 -1.5 -1.5 -1.5 -1.5 -1.5 -1.5 -1.5 -0.1
2.8 3 3.2 3 2.7 2.6 2.4 2.3 2.2 2.1 2.1 2.1 2.2 2.4 3.4 5.1 11.2 12.9 12.9 15.7 19.4 20.9 21.7 21.8 21.8 21.8 23.7 24.4 25 23.9 24.2 24.2 24.2 22.5 25 27.2 28.8 30.4 33.2 34.8 36.7 38.5 38 38.3 40 40 41 39.7 37.5 36.6 36 36.6 37.5 38.5 39.3 40 40.8 41.9 44.6 43.7 42.5 41.2 39.4 37.1 35.9 34.8 33 31.4 28.6 26 24.3 22.5 21.4 19.1 16.9 14.3 11.6 9 8 6.2 4.9 4.6 4.7 4.8 4.6 3.8 3.1 2.3 2.1 3.1 4.2 7.2 8.7 9.5 10.6 12 13.6 15.1 16.1 15.3 15.8 16.8 17.7 16.7 15.8 14.9 12.8 9.7 6.3 5.2 4.6 4.9 6.9 8.8 10.5 10 11.5 14.7 17.6 18.4 19 19.4 19.8 20.4 21.2 21.9 21.5 21.2 21.9 22.4 22.4 21.3 19.9 20.7 21.9 22.9 23.1 23.2 23.3 23.3 23.2 23.2 22 20.8 19.6 18.1 18.3 20 21.5 22.1 22.4 21.7 20.6 19.8 19.9 18.2 16.5 15.4 14.3 12.1 9.2 8.2 7.7 7.2 6.7 6.7 7 6 4.1 2.9 2.5 3.2 5 4.6 2.7 0.9 -1.5 -1.5 -1.5 -1.5 -1.5 -1.5 -1.5 -1.5 -1.5 -1.5 -1.5 -1.5 -1.5 -1.5 -1.5 -1.5 -1.5 -1.5 -1.5 -1.5 -1.5 -1.5 -1.5 1.1
3.2 3.2 3.4 3.2 2.8 2.7 2.6 2.7 3 2.1 2.1 2.3 2.4 2.8 5.5 10.8 12.5 15 18.8 21.5 21.1 23.6 22 21.9 21.8 22 23.6 24.5 25.4 25 25.6 24.5 25 25.4 25.4 27.4 29.8 31.3 32.6 34.6 36.5 38.3 38.9 39.2 40.3 39 39.6 38 36.5 35.5 34.4 34 34.8 36.5 36.8 37.4 38.4 40.2 42.3 40.4 40.1 39.7 36.3 34.8 33.7 32.6 30.9 28.8 26.2 23.6 21 19.1 18.3 15.9 13.7 10.9 8.5 6 5.2 5 4.6 4.4 4.5 4.6 4.5 3.8 3 2.6 2.7 3.3 6.8 8.1 9 9.9 10.7 11.5 13 14.4 15.1 14.6 15.3 16.2 16.5 15.7 14.8 13.7 10.4 7.3 5.3 4.4 3.3 5.1 8.1 10 10.9 11.4 12.9 16.7 18.4 19.6 20.2 20.5 21.5 22 22.7 22.9 22.4 22.4 23.1 23.1 22.1 20.3 19.6 20.2 21.1 21.3 21.3 21.5 21.6 21.6 21.7 21.9 20.7 19.2 18 17.9 20.2 22.2 23.5 24 23.6 22.9 21.9 20.2 18 16.4 14.8 13.7 12.7 10.5 8 7.9 7.6 7.1 6.5 5.5 5.6 5 3.4 2.3 2.3 2 3.4 3.3 1 -0.4 -1.5 -1.5 -1.5 -1.5 -1.5 -1.5 -1.5 -1.5 -1.5 -1.5 -1.5 -1.5 -1.5 -1.5 -1.5 -1.5 -1.5 -1.5 -1.5 -1.5 -1.5 -1.5 -1.5 1.2
4 3.7 3.7 3.3 2.9 3 2.8 2.4 2.2 2.1 2.2 2.4 2.7 4.3 11.6 13.3 14.3 17.8 22.1 24.1 23.6 25.1 27 24.8 22.2 22.3 24.1 25.1 25.8 26.4 27 26.5 27 27.1 27.3 27.4 30.6 30.9 32.7 34.5 36.3 38.1 39.1 39.7 39.7 38.5 37.2 37 35.8 34.6 33.3 32 33.4 33.6 34.2 34.8 36.3 37.7 37.4 37.1 36.2 35.2 33.3 32.4 31.3 30.2 28.8 26.4 23.8 21.2 18.6 16 14.6 12.6 10.6 7.6 5.6 4.7 4.8 4.8 4.7 4.5 4.3 4.4 4.3 3.7 3.1 3 2.9 4.1 6.8 7.5 9.4 10.3 11.1 11.9 12.5 14.7 14.1 13.9 14.7 15.2 15.7 14.9 14 11 7.9 5.6 4.5 3.3 4.7 7.3 9.6 11.4 12.3 12.7 14.6 17.6 19.2 20.5 20.6 20.6 22 23.5 23.7 23.8 23.4 23.2 23.2 23.1 21 19.1 18.7 19.2 19.9 20 20.1 20.1 20.2 20.4 20.6 20.7 20 18.1 17 19.3 21.7 23.8 25 25.4 24.5 22.9 21 18.4 16.1 14.5 13.1 12.1 10.7 8.3 7.7 7.4 7.3 6.9 6 5 4.3 3.6 3.1 2.5 2.5 1.5 2 1.1 -1.5 -1.5 -1.5 -1.5 -1.5 -1.5 -1.5 -1.5 -1.5 -1.5 -1.5 -1.5 -1.5 -1.5 -1.5 -1.5 -1.5 -1.5 -1.5 -1.5 -1.5 -1.5 -1.5 0.2 -1.5 1.7
3.7 4.2 3.8 4.6 3.3 4.9 3.7 2.8 2.6 2.4 2.5 2.6 3.6 13.8 13.8 14.8 15.9 20 23.5 25 23.9 23.8 23.6 27.8 23.6 23.6 24.9 25.8 26.5 26.9 27.6 28.3 28.5 28.4 28.6 28.8 30.5 31.5 33.7 35.8 38 39.3 40 41.2 39.1 37.9 36 35.4 34 32.4 31.4 30.3 30.7 30.5 30.9 32.4 33.8 34 33.6 33.3 32.6 31.7 30.6 29.6 28.8 27.6 26.1 23.7 21.1 18.4 15.8 13.1 11.5 9.8 7.6 5.2 4.6 4.4 4.5 4.5 4.5 4.5 4.3 4.2 4.1 3.6 3.3 3.1 3 5.1 6.4 7.2 9.3 10.7 11.2 11.5 12.5 16.4 12.2 12.8 13.5 13.9 14.5 14.2 12.2 7.5 5.8 4.3 3.2 3.8 7.2 8.1 11 12.4 13.6 13.6 16.2 18.9 19.9 20.9 21.1 21.2 22.5 24.1 24.6 24.3 24.1 24 23.3 22 19.8 18.2 18.1 18.8 19.1 19.1 19 18.9 19.3 19.7 20.1 20 19 17.6 17.6 20.3 22.9 25.1 25.3 24.8 23.1 21.2 19.2 16.5 14.2 12.7 11.6 10.5 8.6 8 7.8 7.5 7.2 6.4 5.5 4.5 3.5 3.6 3.6 2.5 3.2 2.5 2.9 0.4 -1.5 -1.5 -1.5 -1.5 -1.5 -1.5 -1.5 -1.5 -1.5 -1.5 -1.5 -1.5 -1.5 -1.5 -1.5 -1.5 -1.5 -1.5 -1.5 -1.5 -1.5 -1.5 0.3 1.5 5.4 4.4
5.1 5.8 6.8 5.8 6.4 5.2 3.4 3.3 3.1 2.9 3 3.4 10.5 15.9 16.1 16.7 18.2 22 26.4 26.5 24.7 24.5 24.5 28.2 24.5 24.5 25.8 26.5 28 30.3 29.4 30.2 29.4 29.6 29.7 30.5 31.6 34.5 36.4 38.6 40.8 41.3 41.7 42.7 40.2 37.1 35.7 34 32.9 31.8 30.8 29.3 28.1 28 28 29.1 30.5 30 29.7 29.2 28.6 27.9 27.2 26.2 26.1 25.1 23.2 20.8 18.4 15.8 13.1 11.1 9.8 7.8 5.8 5.2 4.4 4.4 4.3 4.3 4.2 4.2 4.1 4.1 3.8 2.3 2.2 -1.5 -1.5 5 5.6 6.1 8.4 10.6 10.6 10.7 12.6 12.2 10.3 11.3 12 12.6 13.5 14 8.8 6 4.4 3 3.8 6.1 8.1 9.6 11.9 13.4 14.2 14.5 18.3 19.2 20 20.9 21.4 21.7 23.4 24.8 24.6 24.3 24 23.5 22.3 20.4 18.4 18 18.4 18.4 18.4 18.5 18.6 18.5 19.1 19.6 20 19.5 18 16.9 18.2 20.7 23.4 24.4 23.9 22.8 21.1 19.5 17.3 14.6 12.3 11.4 10.5 9.6 8.1 8.1 7.9 7.2 6.5 5.5 4.8 3.9 3.7 3.5 3.4 2.9 2.8 1.3 0 -1.5 -1.5 -1.5 -1.5 -1.5 -1.5 -1.5 -1.5 -1.5 -1.5 -1.5 -1.5 -1.5 -1.5 -1.5 -1.5 -1.5 -1.5 -1.5 -1.5 -1.5 -1.5 0.8 4.9 6.8 10 10.8
7.9 10.1 7.7 7.9 6.5 5.6 4.7 3.8 3.6 3.5 3.3 5.5 13.6 16.9 17.7 19 21.3 24.5 28.1 27.8 25.6 25.7 25.4 28.7 25.4 26.3 25.8 27.4 29.9 31.6 29.8 30.5 29.9 30.6 32.3 33.1 34.7 38.6 40.4 42 43.6 44.5 44.7 44.4 42.1 37.9 35.2 33.7 31.4 29.8 28.9 27.7 26.3 25.7 25.7 25.8 26.7 26.2 25.7 25.2 24.5 23.9 23.4 23.4 23.4 22.5 20.3 17.9 15.5 13.2 11 9.3 7.4 5.5 4.9 4.8 4.8 4.4 4 4 3.9 3.9 3.9 3.8 3.6 1.7 -1.5 -1.5 3.5 3.6 4.4 4.3 6.2 8.2 10.8 10.9 11.1 9.2 9.2 9.8 11.2 11.4 11.2 8.2 6 4.6 3.2 3.7 6 7.8 8.9 11.1 12.8 14.1 15.4 16.5 18.4 19.3 20.2 21 21.1 22.4 24.1 24.6 24.4 24.2 24 22.6 21.1 18.9 17.2 17.4 17.5 17.7 17.7 17.8 18 18.2 18.7 19.3 19.7 19 17.2 17.2 19.1 21.2 22.6 22.8 22.2 20.2 18.4 16.7 14.9 12.4 11.1 10.6 9.5 8.6 7.9 8.1 7.7 6.9 5.7 4.6 2.5 1.3 1 1 0.8 0.9 0.4 -1.5 -1.5 -1.5 -1.5 -1.5 -1.5 -1.5 -1.5 -1.5 -1.5 -1.5 -1.5 -1.5 -1.5 -1.5 -1.5 -1.5 -1.5 -1.5 -1.5 -1.5 -1.5 -1.5 -1.5 5.4 6.4 10.7 13.5 14.6
4.6 4.3 8.6 9.3 7.3 6 6.1 4.8 3.9 3.8 4.3 13.1 18.4 18.1 19.2 21.6 24.1 27.2 28.5 28.1 26.8 27.3 27 27.8 27.6 26.4 26.8 29.1 30.6 29.8 30.7 31.1 31.2 31.7 33.5 37.6 39.6 41.6 43.3 44.9 46.5 47.2 46.9 45.7 42 38.5 35.8 33.7 30.6 28.6 28.1 26.6 25.1 23.4 23.5 23.4 23.1 22.4 21.8 21.4 21.4 21.4 21.4 21.2 20.9 19.8 17.5 15.1 12.7 10.6 9 7.2 5.4 5 4.9 4.8 4.6 4.3 3.9 3.7 3.7 3.6 3.6 3.6 3.4 2.7 -1.5 2.7 3.4 3.6 3.4 3.3 4.6 5.6 8.5 10.1 9.9 7.9 8 8.3 8.9 8.1 7.4 6.2 4.4 3.2 3.2 5.2 7.5 8.8 9.5 11.3 12.9 14.3 15.7 17 18 18.8 19.5 20.2 21 23.2 24.3 24.5 24.3 23.8 23.1 21.8 19.3 17.6 16.6 16.6 16.7 16.9 17 17.2 17.6 18.6 19.6 20.2 20 18.3 17 17.6 19 20.1 20.8 20.2 19.5 17.3 15.5 13.7 11.9 10.8 10.1 9.9 8.9 7.7 7.5 7.8 7.3 5.3 4.3 1.5 0.9 0.4 -0.1 -0.4 -1.5 -1.5 -1.5 -1.5 -1.5 -1.5 -1.5 -1.5 -1.5 -1.5 -1.5 -1.5 -1.5 -1.5 -1.5 -1.5 -1.5 -1.5 -1.5 -1.5 -1.5 -1.5 -1.5 -1.5 -1.5 0.3 8.1 5.6 6.2 12.8 15.1 15.1
4 4.1 7.3 4.6 5.4 5.5 8.3 6.5 5.3 3.8 11.4 19.3 19.7 19.8 21.7 24 27.1 27.6 28.2 28.7 28.5 27 29.4 29 27.9 26.7 28.8 30.3 30.4 30.5 31.7 32.3 32.4 32.7 36.4 41.4 42.9 45 46.7 47.5 48.3 48.6 47.5 45.9 42.3 39.5 35.9 32.8 29.8 28.7 27.3 25.6 23.5 21.7 20.9 20.2 19.9 19.5 19 19.3 19.3 19.3 19.2 18.8 18.3 17 14.7 12.6 10.4 8.6 6.6 5.2 5.1 4.9 4.8 4.6 4.5 4.2 3.8 3.7 3.4 3.4 3.4 3.3 3.2 2.9 -1.5 3.8 4 3.8 3.5 3.2 3 3.7 5.3 7.9 8.2 6.8 6.9 7 6.8 6.4 5.7 4.4 2.9 3 5.8 7.5 8.6 10.2 11 11.4 13 14.4 15.6 16.9 17.6 18.3 19 19.8 21.7 23.9 24.6 23.9 23.5 23 21.9 20 17.6 16.7 16.4 16.6 16.5 16.5 16.4 17.1 17.9 19.1 20.3 21 19.7 17.8 16.1 16.8 17.9 18.6 17.6 17.1 16.5 14.6 12.6 10.6 9.7 9.4 10 8.2 7.3 6.8 6.4 6.8 5.5 2.9 1.3 0.7 0 -0.5 -1.5 -1.5 -1.5 -1.5 -1.5 -1.5 -1.5 -1.5 -1.5 -1.5 -1.5 -1.5 -1.5 -1.5 -1.5 -1.5 -1.5 -1.5 -1.5 -1.5 -1.5 -1.5 -1.5 -1.5 -1.5 -1.5 0.3 1.7 13.2 9.6 11.3 16.4 16.2 15.4
4 4.3 4.7 4.6 8.5 11.7 9.2 7 5.7 8.9 20.9 20.3 21.1 22.3 26.4 26.9 28.4 28.6 28 28.7 28.8 27.9 30.3 30.8 28.3 29.1 30.3 30.7 31.1 31.7 32.6 32.9 33.2 34.2 37.9 42.4 45 47.7 48.6 48.9 49.4 48.2 46.8 45.2 41.8 38.5 34.9 31.9 29.1 27.6 25.4 23.6 21.5 20.8 20 18.9 18.2 18.1 17.5 17.3 17.3 17.3 16.8 16.3 15.7 14.5 12.3 10.2 8 6 5.3 5.2 5.1 4.8 4.6 4.5 4.4 4.1 3.8 3.7 3.6 3.1 3.1 3.1 3 -1.5 -1.5 3.5 3.7 3.9 3.6 3.2 2.6 2.3 3.9 5.5 5.6 5.4 5 5.1 5.1 4.5 3.9 2.9 3.2 6 8.5 8.4 9.7 11.2 12 12.6 13.2 14.4 15.6 16.8 17.1 17.9 18.8 20.2 22.2 23.8 24.3 23.6 22.8 21.7 20.4 18.1 16.8 16 16.1 16.5 16.4 16.2 16.8 17.4 18.1 19.7 21.1 21.1 19.2 17.3 15 15.6 16.2 15.5 14.5 13.4 13.3 11.6 9.3 7.5 6.8 5.9 3.9 4.1 4 5.7 5.7 4.9 3.3 1.3 0.5 -0.1 -0.8 -1.5 -1.5 -1.5 -1.5 -1.5 -1.5 -1.5 -1.5 -1.5 -1.5 -1.5 -1.5 -1.5 -1.5 -1.5 -1.5 -1.5 -1.5 -1.5 -1.5 -1.5 -1.5 -1.5 -1.5 -1.5 -1.5 0.4 2 16.1 17.7 17.1 16.3 15.6 15.6 15.9
4.6 5.7 5.4 5.1 5.4 8.9 12.5 8 9.7 16.9 20.5 21 23.9 26.6 28.3 27.9 29.2 29.4 29.1 29.2 29.5 30.5 32.3 29.5 30.2 31.2 31 30.8 31.7 32.5 32.6 32.7 33.2 38.1 41.1 45.6 47.4 49.5 48.4 48.9 48.3 47.3 45.3 44 40.2 37 33.8 30.9 28.2 25.9 23.7 21.6 20.6 19.8 19 18 17 17 16.1 15.7 15.6 14.8 14.3 13.7 12.8 11.4 10.2 7.9 5.7 5.4 5.3 5.2 5 4.8 4.6 4.3 4.2 4 3.8 3.7 3.6 3.1 2 2.7 2.3 -1.5 -1.5 3.1 3.5 3.8 3.6 3.2 2.8 3.1 3 4.1 3.6 3.5 3.4 3.7 3.3 2.9 2.8 3.5 5.8 10.1 9.7 9.2 10.1 11.1 12.2 12.4 13.3 14.6 15.7 16.4 16.7 17.7 19.1 20.6 22.7 23.2 23.5 22.8 22 20.5 19 17.1 16.6 15.9 16.3 16.1 15.9 16.4 17.1 17.7 18.4 19.9 20.5 19.2 16.8 15.1 13.5 13.8 13.5 12.4 11.3 10.2 8.9 7.5 6.3 4.5 3.2 2.4 3.1 2.6 2.1 4.2 5.1 4.5 1.7 0.6 -0.3 -1.5 -1.5 -1.5 -1.5 -1.5 -1.5 -1.5 -1.5 -1.5 -1.5 -1.5 -1.5 -1.5 -1.5 -1.5 -1.5 -1.5 -1.5 -1.5 -1.5 -1.5 -1.5 -1.5 -1.5 -1.5 -1.5 -1.5 0.4 3.7 15.3 17.2 15.6 15.6 15.6 15.6 15.6 15.8
7.1 6.2 6.2 5.1 6.2 15 12.3 9.7 13.7 18.6 20 21.7 24.9 26.9 28.3 28.4 28.5 28.8 28.8 29.3 30.8 34.5 32.7 30.8 31.4 32.1 31.9 31.4 32.3 32.7 32.9 33 35.5 38.3 44.8 47.5 51.8 49.5 48.2 48 47.4 46.6 44.3 42.8 38.8 34.8 32 29.5 27.3 24.6 22.1 20.5 19.8 19.1 18.2 17.3 16.6 15.5 14.7 14.3 13.6 12.4 11.7 11 9.7 8.4 7.8 7 5.8 5.4 5.3 5.1 4.9 4.7 4.5 4.3 4.1 3.9 3.7 3.6 3.5 3.5 3.2 2.6 2.2 -1.5 2.1 2.5 3.3 3.6 3.7 3.6 3.1 3 2.4 3.1 2.8 2.6 2.5 3.1 2.5 2.9 3.8 6.6 9.2 11.1 10.4 9.8 10.2 10.9 12.4 12.8 13.9 14.9 15.4 16.2 16.5 18 19.5 21 22 22.5 22.6 21.6 20.2 18.8 17.3 16.3 16.6 16 16.1 15.5 15.8 16.5 17.2 17.9 18.6 18.9 18.7 16.5 14 11.5 10 10.7 9.8 8.7 7.6 7.1 6 4.2 3.1 2.7 5 7.1 6.8 5.1 4.9 2.2 3.4 2.8 0.9 -0.2 -1.5 -1.5 -1.5 -1.5 -1.5 -1.5 -1.5 -1.5 -1.5 -1.5 -1.5 -1.5 -1.5 -1.5 -1.5 -1.5 -1.5 -1.5 -1.5 -1.5 -1.5 -1.5 -1.5 -1.5 -1.5 -1.5 -1.5 0.4 4.4 12.6 16.4 16.2 15.5 15.6 15.6 15.6 15.9 18.4
8.8 6.3 5.1 5.7 9.8 17 15.4 11.3 16.1 19.5 20.9 22.6 26.9 28.1 29 29.2 29.1 29.3 29.4 29.8 29.5 34.2 31.7 32.1 32.4 32.7 32.8 32.3 33 33.5 33.7 34 38 43.7 46.6 48.9 48.7 48.3 48.3 46.5 45.6 44.8 43.6 39.7 36.9 33.2 31 28.8 26.5 23.9 21.5 19.8 18.9 18.3 17.7 17 15.2 13.4 12.5 12.2 11.7 10.3 9.2 8 6.8 6 6.2 6.3 6 5.7 5.2 5.1 4.9 4.7 4.4 4.2 4 3.8 3.7 3.6 3.5 3.2 2.8 2.5 2.1 -1.5 -1.5 -1.5 3.3 3.6 3.2 2.7 2.5 2.4 2.1 2.3 2.1 1.9 2.1 2.1 2.8 4.7 7.3 9.2 11 11.8 10.7 10.3 10.7 11.3 13 13.8 14.7 14.9 15.4 15.9 16.6 18.1 19.8 21.2 21.4 21.8 21.3 19.9 18.5 17.1 15.9 15.7 16.4 16.2 15.5 14.9 15.5 16.2 16.8 17.5 18 17.4 15.4 12.9 10.3 8 7.6 7.5 6.3 5 4.5 4 3.3 2.8 4.2 5.8 7.6 7.9 7.8 6.6 6 4.3 2.7 1.3 0.4 -1.5 -1.5 -1.5 -1.5 -1.5 -1.5 -1.5 -1.5 -1.5 -1.5 -1.5 -1.5 -1.5 -1.5 -1.5 -1.5 -1.5 -1.5 -1.5 -1.5 -1.5 -1.5 -1.5 -1.5 -1.5 -1.5 -1.5 0.5 5.4 9.1 13.5 15.3 15.4 15.5 15.6 15.6 15.9 17.8 21.4
9.1 6.9 5.2 6.1 10.7 18.6 17.8 12.8 17.1 20.4 21.7 23.2 26.6 28.1 29.4 30 29.6 29.8 29.9 31 31.6 33.1 31.7 32.1 32.5 33.1 33.7 33.2 33.6 34.1 34.6 36.1 40.6 43.6 46 49 46.9 46.3 47.1 45.4 44 42.9 40.2 36.3 33.6 31.4 29.4 27.5 25.6 23.6 21.4 19.4 18.3 17.3 16.2 15.3 13.7 12.3 11.4 10.3 9.8 8.7 7.5 6.8 6.8 6.8 6.3 6.3 6 5.7 5.4 5.1 4.8 4.6 4.3 4.1 3.9 3.7 3.5 3.4 3.3 2.8 2.6 2.4 2.2 -1.5 -1.5 -1.5 2.9 2.8 2.4 2.1 2 2.3 1.9 2 2.4 2.4 2.4 3.6 4.8 7 9.2 11.1 12.3 11.8 11 10.9 11.3 12.5 13.7 14.6 14.7 14.9 15.4 15.9 17.1 18.7 20.3 21.3 22 20.7 19.1 17.8 16.5 15 14.6 15 15.7 15.5 14.6 14.3 14.7 15.3 15.9 16.5 15.1 13.7 11.6 8.6 6.9 6.3 5.7 5.2 4.9 4.2 3.7 3.4 4 5.2 5.6 6.2 7.4 7.5 7.9 6.6 5 3.3 1.5 0.7 -0.3 -1.5 -1.5 -1.5 -1.5 -1.5 -1.5 -1.5 -1.5 -1.5 -1.5 -1.5 -1.5 -1.5 -1.5 -1.5 -1.5 -1.5 -1.5 -1.5 -1.5 -1.5 -1.5 -1.5 -1.5 -1.5 -1.5 0.8 8 12.2 13 14.9 14.6 16.5 17.4 15.5 15.7 17.5 21.8 24.7
7.2 5.4 5.9 7 13.1 22.6 20.9 17.4 18.8 20.7 21.5 24.4 27.1 28.5 28.8 29.1 29.5 29.8 30.4 31.6 36 33.6 33.6 34.1 33.9 33.6 34.9 34.8 35.5 35.9 36.9 38.5 42.1 44.2 44.4 45.4 44.8 44.6 45.7 44.8 43.2 41.2 37.2 33.4 30.2 28.9 27 25.1 23.6 22.3 20.9 19.1 18 16.6 15.3 13.9 13 11.7 10.6 9.3 8.2 7.6 7.3 6.8 6.5 6.5 5.9 6.3 6 5.7 5.5 5.2 4.8 4.4 4.2 4 3.7 3.5 3.4 3.2 2.9 2.7 2.5 2.3 2.1 1.9 -1.5 2.2 2.3 2.1 2 1.7 2.1 3.1 3.1 3 4.4 5.1 6.4 7.4 7.8 8.7 10.7 12.6 12.9 11.8 11.3 12 12.9 13.7 14.7 14.8 14.8 14.9 15.4 16.5 17.8 19.2 20.5 21.3 21.2 18.8 16.6 15.3 14 13.3 13.6 14.3 15 14.2 13.7 13.8 13.7 13.9 14.5 14.5 11.7 10.1 7.8 5.8 4.7 4.6 4.4 4.4 4.4 4.6 5.6 5.7 6.6 6.2 5.8 6.3 6.5 6 5.5 5.1 3.4 1.6 0.8 0.1 -0.8 -1.5 -1.5 -1.5 -1.5 -1.5 -1.5 -1.5 -1.5 -1.5 -1.5 -1.5 -1.5 -1.5 -1.5 -1.5 -1.5 -1.5 -1.5 -1.5 -1.5 -1.5 -1.5 -1.5 -1.5 -1.5 1.2 11.5 14 14 14.4 15.1 15.2 16 16.6 18.6 21 25.3 26.2 27.8
6 6 7 7.2 18.7 28.5 27.3 23.3 20.8 22.9 24.5 26.5 28 29.1 29.4 29.4 29.8 30.2 32.5 34.3 34.1 34.4 34.9 35.7 35.9 35.5 35.1 36.2 37.3 37.7 38.8 40.9 43.2 42.2 41.9 42.7 42.5 44.6 45.8 44.7 40.9 39.4 35.8 34.8 28.2 26.4 24.6 22.6 21.8 20.4 18.5 17.5 16.6 15.3 13.9 12.6 11.7 10.8 9.7 8.5 7.9 7.6 7.3 6.8 6.4 6.3 6.2 6.2 6 5.8 5.7 5.4 5 4.6 4.2 3.8 3.6 3.4 3.2 3 2.7 2.5 2.4 2.2 2 1.8 -1.5 1.9 2 1.9 1.7 2.6 3.9 4.8 5 6.5 6.7 8 9.1 9.2 9.7 10.8 12.1 13.6 13.1 11.9 12.5 13.6 14.3 15.4 15.5 15.3 15.2 15 15.9 17.3 18.5 19.6 20.4 21.1 19.6 16.7 14.5 13 12 12.4 13.2 13.9 14.2 13 13.3 13.3 13.1 13.2 13.2 11.5 8.7 6.5 4.7 3.4 3.6 3.5 3.9 4.6 5.4 6.5 7.4 7.3 6.9 6.5 6.2 6 5.8 5.8 5.7 3.9 2.5 1.2 0.3 -0.5 -1.5 -1.5 -1.5 -1.5 -1.5 -1.5 -1.5 -1.5 -1.5 -1.5 -1.5 -1.5 -1.5 -1.5 -1.5 -1.5 -1.5 -1.5 -1.5 -1.5 -1.5 -1.5 -1.5 -1.5 -1.5 1.7 11.8 13.6 14.5 14.5 14.3 15.3 15.7 16.2 16.8 24.3 27.3 30.2 29.8 32.8
6.3 7 8.5 18.2 24.2 32.2 32.1 27.3 21.9 25 25.5 27.5 28.5 29.4 30.1 29.9 30.4 31 34.4 35.8 35.3 34.3 35.5 35.8 36.3 36.4 35.9 37 37.8 37.4 38.3 39.6 40.1 39.5 43 40.7 41.1 44.6 44.3 45.9 38.5 36 35.3 32.7 26.5 24.4 22.2 20.6 19.1 17.4 16 15.2 14.5 13.9 12.5 11.3 10.4 9.7 9.2 8.2 7.7 7.5 7.2 6.9 6.5 6.5 6.3 6.3 6.2 6.1 5.9 5.5 5.1 4.8 4.4 4 3.6 3.2 3 2.8 2.6 2.4 2.3 2.2 2 1.9 -1.5 1.7 1.7 1.7 2.1 3.5 5 6.5 7.4 8 8.8 10 11.2 11.8 12.6 12.8 13.7 13.6 13.3 12.3 13.7 15.2 15.7 15.7 15.3 15 14.8 15.3 16.4 17.5 18.5 19.7 20.9 20.3 17.9 15.2 12.4 11.3 11.2 11.7 12.9 13.6 12.8 11.7 12.9 12.8 12.6 11.7 10.2 7.6 5.7 4.4 3.5 2.9 3.3 4.6 6.5 7.5 7.6 7.5 8.7 8.5 8.6 8.6 9.1 7.9 6.6 6.2 5.7 4 2.1 1 0 -0.8 -1.5 -1.5 -1.5 -1.5 -1.5 -1.5 -1.5 -1.5 -1.5 -1.5 -1.5 -1.5 -1.5 -1.5 -1.5 -1.5 -1.5 -1.5 -1.5 -1.5 -1.5 -1.5 -1.5 -1.5 2 5 6.8 13.7 14.4 14.5 14.8 15.4 15.9 16.9 22.8 28.7 32.8 34 35.3 38.5
6.3 9.2 21.9 25.1 30.3 36.8 30.2 25.7 24.7 27 27.8 28.1 30 29.7 30.2 31 31.5 31.8 34.9 35.5 34.7 33.9 36.1 35.7 37.6 36.7 35.9 37.7 39.3 37.4 37.7 38.3 36.8 37.2 39.5 38.9 39.2 40.7 41.1 37.9 34.9 34.5 32.1 27.9 24.5 22.2 20 17.9 16.1 14.5 13.7 12.9 12.2 11.6 10.9 10.2 9.7 9.2 8.8 7.9 7.6 7.3 7 6.8 6.5 6.4 6 6.3 6.3 6.3 6.1 5.7 5.3 4.8 4.4 4 3.6 3.2 2.9 2.7 2.6 2.4 2.3 2.2 2 1.9 -1.5 -1.5 -1.5 1.9 3 4.5 6.2 7.9 8.8 9.4 11.1 12 13.1 14.1 14.1 13.7 13.7 13.4 13.2 13.3 15.1 16.1 15.8 15.5 15.1 14.7 15.2 15.7 16.6 17.5 18.4 19.7 20.7 18.2 15.8 13.2 10.9 9.9 10.5 11.4 12.7 12.8 11.6 10.4 11.5 12 11.2 8.9 6.4 4.7 4.1 3.3 2.8 3.7 8.1 10.5 11.3 10.9 10.3 9.9 9.4 9.1 9.6 10.4 10.8 9.5 8.5 7.4 4.9 2.6 1.8 0.7 -0.3 -1.5 -1.5 -1.5 -1.5 -1.5 -1.5 -1.5 -1.5 -1.5 -1.5 -1.5 -1.5 -1.5 -1.5 -1.5 -1.5 -1.5 -1.5 -1.5 -1.5 -1.5 -1.5 -1.5 -1.5 2 4.9 6.7 7.7 9.1 11.3 16.2 15.3 15.6 16.9 21.1 27.2 31.3 36 37.6 39.2 42.2
10.1 18.5 24.7 29.5 35.1 35.3 26.8 26.1 27.8 27.5 28.3 28.7 31.2 30.7 31.6 32.4 32.3 32.6 35.1 34.3 33.5 34 35.9 36.3 35.5 34.8 35.7 36.4 36.5 36.8 34.8 33.8 33.4 33.9 34.3 34.8 36.9 35.7 36.2 34.6 33.1 31.3 27.8 25 22.7 20.6 18.5 16.5 14.4 12.4 11.5 10.6 9.9 9.6 9.3 9.3 9.1 8.8 8.3 7.7 7.4 7.1 6.9 6.8 6.6 6.2 6.3 6.1 5.8 6.3 5.8 5.4 5 4.5 4.1 3.7 3.4 3.2 2.8 2.7 2.7 2.4 2.3 2.1 2 1.8 -1.5 -1.5 -1.5 3.4 4.9 6.6 8 9.4 10.1 11.6 13.4 15 14.9 14.8 14.5 14 14.2 14.2 13.8 13.6 15.6 15.5 15.3 15 14.2 14.1 14.5 15.4 16.5 17.6 18.5 19.6 18.8 16.3 13.7 11.2 9.6 9.1 9.7 11.2 12.4 11.5 10.3 9.2 10.1 10.1 8.3 5.6 3.5 2.9 2.7 2.9 6.2 11 14.9 15.6 13.4 11.8 10.2 9.3 10.2 10.2 9.9 10.4 10.4 8.9 7.1 5.4 3.8 3.2 1.2 0.2 -0.7 -1.5 -1.5 -1.5 -1.5 -1.5 -1.5 -1.5 -1.5 -1.5 -1.5 -1.5 -1.5 -1.5 -1.5 -1.5 -1.5 -1.5 -1.5 -1.5 -1.5 -1.5 -1.5 -1.5 1.5 5.1 6.8 8.5 8.1 9.6 10.7 12.7 15.2 16.6 20.1 26.4 31.7 36.4 38.2 40.2 42.7 46.2
13.2 24 31.6 36.9 36.3 31.1 27.1 28 27.6 28.8 28.6 29.5 32.3 32.9 33.1 33.1 32.8 32.9 34.2 32.7 32.2 34 34.6 33.6 33.8 33.2 35.9 35.8 34.5 32.3 31.4 30.6 31.4 31.9 32.1 32.8 33.4 31.4 31.8 31.7 29.2 26.9 24.6 22.6 21.2 19.6 17.1 14.9 12.8 10.6 9.5 8.5 8.2 8.1 8.1 8.3 8.1 7.9 7.6 7.5 7.3 7.1 6.9 6.7 6.5 6.4 6.1 5.7 5.5 5.2 5.5 5.1 4.7 4.3 3.9 3.7 3.5 3.2 2.8 2.4 2.7 2.6 2.3 2.1 1.9 1.8 -1.5 1.7 3.7 5.3 7.4 9.2 10.7 12.2 12.8 13.8 15.6 17.5 16.6 15.4 14.5 14.3 14.5 14.8 14.2 13.8 14.9 14.9 14.8 14.5 13.3 13.4 13.5 15.1 16.2 17.3 18.4 18.8 17.2 14.5 11.8 9.4 8 8.1 8.9 10.8 11.4 10.2 9.1 7.9 8.5 7.1 5.3 2.7 2.4 2.5 3.5 7.3 13 17.4 18.8 16.6 13 10.7 9.9 8.7 9.7 10.1 10.1 8.8 7.3 6 4.8 3.4 2.3 1.3 0.5 -0.4 -1.5 -1.5 -1.5 -1.5 -1.5 -1.5 -1.5 -1.5 -1.5 -1.5 -1.5 -1.5 -1.5 -1.5 -1.5 -1.5 -1.5 -1.5 -1.5 -1.5 -1.5 -1.5 -1.5 0.9 4.9 6.8 8.5 9.2 8.6 9.9 13.1 15.4 17.1 19.9 23.8 29.7 34.3 37.9 40 42.1 47.7 50.2
20.3 31.4 37.8 37.6 35.5 30.3 28.3 29.7 30 30.3 30.6 30.9 34.2 33.7 33.8 33.4 32.1 32.5 32.5 30.7 30.3 33 32.4 31.1 29.4 32.8 33.9 31.4 31.3 32.2 29.8 30.3 29.3 30 33.3 30.5 30.2 30.2 28.2 27.1 25.7 23.8 22.2 20.4 19.2 18 15.5 12.9 10.9 9 7.3 6.8 6.8 6.8 6.8 6.8 7.1 7.3 7.5 7.2 7 6.8 6.6 6.5 6.4 6.3 6 5.7 5.4 5.3 5 4.8 4.4 4.2 4 3.8 3.5 3.1 2.7 2.3 2.4 2.6 2.6 2.3 1.9 -1.5 -1.5 3.9 5.6 7.5 9.7 11.6 12.9 14.2 15.9 16.7 17.9 18.6 17.3 15.5 14.6 14.8 15.4 15.1 13.7 13.1 13.1 13.6 14 13.4 12.5 12.3 13.3 14.6 15.8 17 18.1 17.1 14.8 12.4 9.8 7.7 6.5 7.3 8.1 10 10 8.9 7.7 6.5 5.2 3.9 2.6 2.3 2.1 3.4 9.2 14.7 17.8 20.6 18.2 13.5 10.4 8.2 7.7 7.9 9.5 9.3 9.7 6.9 2.4 2.4 3.1 3 1.5 0.7 -0.2 -1.5 -1.5 -1.5 -1.5 -1.5 -1.5 -1.5 -1.5 -1.5 -1.5 -1.5 -1.5 -1.5 -1.5 -1.5 -1.5 -1.5 -1.5 -1.5 -1.5 -1.5 -1.5 -1.5 -1.5 4.5 7.4 8.2 8.3 8.7 9.3 12.4 15.8 18.9 22.9 25.8 29.9 33 36.2 40.1 44.3 47.5 49.9 51.5
32.7 36.2 37.9 38 35.6 29.9 29.8 31.1 31.5 31.6 32.2 33.4 33.8 33.8 33.7 33 31.5 31.7 30.9 29.8 29.6 29.1 28.9 27.6 30 30.4 30.4 27.7 28.3 27.4 26.5 26.3 25.6 27.3 29 29.5 29.6 31.7 27 25.2 22.2 21.6 20.2 18 16.8 15.1 13.4 11.3 8.7 6.9 6.8 6.8 6.8 6.8 6.8 6.8 7 7.5 7.2 6.9 6.7 6.5 6.4 6.3 6 6.3 5.9 5.6 5.4 5.3 5 4.7 4.5 4.3 4.1 3.9 3.5 3.1 2.6 2.2 2.1 2.3 2.6 2.5 -1.5 -1.5 4.9 6.5 8.2 10.1 12 13.5 14.7 16.1 17.7 18.9 19.3 18.6 17 15.5 14.9 16.2 16.5 14.8 13.3 12.9 12.5 12.1 11.7 11.8 11 11.6 12.8 14.1 15.3 15.8 16.6 14.7 12.5 10.1 7.6 5.7 5.4 6.5 7.4 9 8.5 7.1 5.8 4.4 3.3 2.5 2.1 2.1 4.6 10.7 16.4 19.6 21.2 19 14.7 9.2 6.8 4.9 4.7 5.3 6 4.6 2.7 1 1.7 1.3 2.5 2.7 1 0.1 -0.7 -1.5 -1.5 -1.5 -1.5 -1.5 -1.5 -1.5 -1.5 -1.5 -1.5 -1.5 -1.5 -1.5 -1.5 -1.5 -1.5 -1.5 -1.5 -1.5 -1.5 -1.5 -1.5 -1.5 0.7 6.7 7.8 8.3 8.4 8.5 12.7 16.9 20.3 24.1 28 30.7 32.1 34.8 37.8 42.3 46.5 49 51.6 53.3
35.6 36.9 38.2 37.1 33.2 31 31.6 32.8 32.9 33 33.2 35.4 34.4 33.7 32.8 32.2 30.7 29 28.7 28.2 28.3 27.5 26.9 25.6 27.7 27.9 27.2 24.5 27.6 26.1 22.5 22.1 21.8 24.4 28.2 28.7 28.8 27.8 28.9 23.8 20.5 18.2 17.5 15.4 13.9 12 10.5 8.8 6.8 6.8 6.8 6.9 7.2 7.1 7 7 7 7.3 7 6.7 6.5 6.4 6.3 6.1 5.8 6.2 5.8 5.5 5.4 5.2 5.1 5 5 4.4 4.1 3.8 3.4 3 2.6 2.2 1.8 2 2.3 -1.5 -1.5 7.1 8.1 9.1 10.8 12.2 13.5 14.8 16.2 17.5 18.4 19.3 19.3 18.2 16.4 15.2 15.7 17.1 16.7 14.6 12.8 12.4 12 11.6 11.2 10.8 10.5 11.2 12.4 13.7 14.4 14.9 14.1 12.2 10.2 7.8 5.9 5 5.1 4.3 6.1 6.6 5.5 4.3 3.1 2.4 2 1.8 1.9 3.9 10.7 17.3 21 21.7 19 15.5 9.4 4.5 2 2.2 2.3 2.3 2 1.6 1.4 2.7 3.4 2.1 1.8 1.7 0.6 -0.3 -1.5 -1.5 -1.5 -1.5 -1.5 -1.5 -1.5 -1.5 -1.5 -1.5 -1.5 -1.5 -1.5 -1.5 -1.5 -1.5 -1.5 -1.5 -1.5 -1.5 -1.5 -1.5 -1.5 -1.5 1.7 8 8.1 8.2 9.2 13 18.1 22.7 25.1 28.9 31.7 33.5 35 36.6 41.5 46.4 49.8 51.9 53.3 54.7
37.1 38.4 39.2 36.7 32.4 33.3 34 34.1 34.2 34.4 35.3 34.8 35.8 33.8 31 29.1 27 27.1 27.1 27.3 26.8 25.8 24.4 23.8 24.6 26.1 24.3 23.1 24.6 19.3 18.9 18.7 19.6 21.2 25.6 26.9 29.5 25.6 25.3 21.5 18.7 16 13.7 11.4 11.4 9 7.5 6.8 6.8 7.4 8.6 7.4 7.6 7.5 7.4 7.3 7.2 7.2 7 6.9 6.7 6.2 6.1 5.8 5.4 6.1 5.8 5.5 5.3 5.2 5.1 5.3 5.9 4.8 4.2 3.8 3.3 2.9 2.5 2.1 -1.5 -1.5 -1.5 -1.5 6.2 9.5 10.5 10.6 12 13.4 14.8 16.1 17.3 18.3 18.9 19.5 18.9 17.7 15.9 15.5 17.1 18.2 16.2 14.2 12.4 11.8 11.4 11 10.7 10.4 10 10.8 12 13 13.3 12.5 11.8 9.8 7.8 5.7 5.3 5.4 5.6 5.3 4.3 4.4 3.5 2 2.1 2 1.9 1.4 3.9 9.3 16.8 20.8 22 19.6 15.6 10.1 3.6 0.9 0.9 0.8 0.9 0.8 1.7 1.3 3.1 4.1 3.9 2.1 2.6 1.2 0.1 -1.5 -1.5 -1.5 -1.5 -1.5 -1.5 -1.5 -1.5 -1.5 -1.5 -1.5 -1.5 -1.5 -1.5 -1.5 -1.5 -1.5 -1.5 -1.5 -1.5 -1.5 -1.5 -1.5 -1.5 0.1 6.4 7.1 7.9 8.6 13.3 19.1 24 27.4 28.4 31.8 34.7 35.6 37 40 45 49.2 52.2 53.6 55.1 55.6
38 39.9 39.8 35.4 33.4 33.6 34 35.3 35.3 34.7 34.8 34.5 34.5 30.9 29.9 28 26.6 25.3 26.3 25.4 24 22.4 22.3 21.7 20.9 21 18.9 19.6 17.2 17.1 17.2 17.4 17.6 18.8 21.7 23 24.2 23.4 21.4 18.4 16.4 15.1 11 9.5 9.3 7.8 6.8 7.3 7.7 7.7 8.8 8 8 7.9 7.8 7.7 7.3 7.4 7.3 7.2 6.7 6.7 5.8 5.4 5.3 6 5.7 5.4 5.3 5.1 4.8 5.2 5.2 5.9 5.2 3.8 3.4 3 2.6 2.2 -1.5 -1.5 3.1 5.2 7.9 10.6 11.7 11.8 13.1 14.5 15.5 16.2 17.1 17.3 18.6 19.4 18.4 16.9 16.2 16.4 18.7 17.6 15.9 13.8 11.9 11.4 10.9 10.5 10.2 9.9 10 10.7 11.6 11.3 10.6 9.9 9.1 7.7 5.7 5.8 6.5 5.8 4.7 3.4 2.2 1.8 1.5 1.6 1.7 1.6 2 4.4 9.6 15.7 20.4 21.3 20 16 11.2 3.3 0.8 1.8 2 1.8 3.1 5.4 5.9 11.6 14.7 7.5 4.3 2.5 1.4 0 -0.7 -1.5 -1.5 -1.5 -1.5 -1.5 -1.5 -1.5 -1.5 -1.5 -1.5 -1.5 -1.5 -1.5 -1.5 -1.5 -1.5 -1.5 -1.5 -1.5 -1.5 -1.5 -1.5 -1.5 -1.5 0.9 5.9 6.5 8.3 11.8 19 23.7 27.3 30.1 31.7 34.5 36.3 37.1 39.3 42.8 47.5 51.3 53.4 55 56.2 56.3
35.6 39.8 38.3 33.4 34.2 34 35.1 36.2 35.8 34.7 34.2 33.8 33.1 30.8 28.6 27.1 25 22.9 23.8 23.5 22.6 21.2 19.8 19.4 20 20.3 17.4 17 15.9 16.4 16.5 16.6 16.8 16.4 18.3 19.3 20 18.9 17.1 15.4 14.3 13.5 9.4 8.7 8.2 8.5 8.1 8.6 8.8 8.1 8.6 8.5 8.4 8.2 7.9 7.5 7.1 8.1 7.6 6.7 6.6 6.6 5.9 5.9 6 5.1 5.1 5.1 4.6 4.7 5.5 4.3 4.5 5.3 5.5 4.4 3.5 3.1 2.8 2.5 -1.5 -1.5 3.3 5.6 8.5 10.4 11.7 12.9 13.9 14.7 15.6 16.3 17 17 17.8 18.9 17.5 16.1 15.7 17.3 17.5 16.9 15.6 13.3 11.8 10.6 10.2 10.1 9.8 9.6 10.4 10.9 10.7 9.7 8.8 7.8 6.9 5.8 4.6 4 3.8 3.5 3.2 2.4 1.5 1.3 1.1 1.6 1.5 2.8 6.4 10.5 15.3 19.1 20.9 19.5 15.1 10 3.6 0.9 1.4 2.4 3.4 5 8.1 15.6 18.2 20.4 21.1 9.8 4.1 1.6 0 -1.5 -1.5 -1.5 -1.5 -1.5 -1.5 -1.5 -1.5 -1.5 -1.5 -1.5 -1.5 -1.5 -1.5 -1.5 -1.5 -1.5 -1.5 -1.5 -1.5 -1.5 -1.5 -1.5 -1.5 -1.5 -1.5 1.7 7.5 7.9 10 16 23.1 26.5 29.2 31.9 34.6 35.2 37.1 38.4 41.6 45.7 50.1 52.4 54.6 55.7 56.9 55.9
32.5 35.8 34.7 34.3 34.3 34.5 35.6 36.1 36.2 35.3 34.1 34.2 35.3 33.5 26.1 25.5 22.9 21.1 21.7 20.7 20.2 19.2 17.6 18.2 19.1 18.5 16.9 16.2 14.9 15.6 16 15.9 16 15.4 14.9 15.6 15 14.2 13.2 13.4 11.8 9.7 8.8 8.9 8.8 8.8 10.4 10 9.4 9.1 9.2 9 8.6 8 7.6 7.2 7.3 9.3 7.1 6.6 6.5 6.5 6.4 6.4 6.4 5.9 5.4 4.7 4.2 4.5 4.2 4.2 4.5 4.3 4.9 5 4.1 3.2 2.8 2.3 -1.5 -1.5 3.7 6 9 10.6 12 13.3 14.1 14.9 15.7 16.5 17.1 17 17.8 18.3 17 16 16.6 17.4 17.6 17.4 15.3 13.3 11.8 9.7 9 8.9 9.5 10 10.6 10.5 9.9 8.8 7.9 6.9 5.8 4.5 3.9 2.7 2.2 1.8 1.2 1.3 0.9 0.7 0.9 1.5 3.6 7.4 11.7 15.8 18.6 19.7 18.9 14.5 9 3.5 1.2 1.3 3.2 4.7 6 10 16.4 18.3 20.3 22.1 20.6 7 2.4 0.2 -1.5 -1.5 -1.5 -1.5 -1.5 -1.5 -1.5 -1.5 -1.5 -1.5 -1.5 -1.5 -1.5 -1.5 -1.5 -1.5 -1.5 -1.5 -1.5 -1.5 -1.5 -1.5 -1.5 -1.5 -1.5 -1.5 0.8 3.8 6.7 9.3 13.1 19.2 24.7 27.9 30.6 32.9 34.8 36.2 37.5 40.8 44.2 47.9 51.1 53.6 54.7 55.8 56.5 56.4
32.7 34.2 34.6 34.5 34.8 34.9 36 35.8 35.7 36.8 37.4 33.9 34.1 33.4 24.5 24.8 23.3 20.2 19 19 18.3 17.6 17.3 18.7 18.2 16.9 16 15.3 14 14.8 15.4 15.3 15.1 13.9 13.6 13.6 13.1 11.7 11.4 11.6 11.3 9 8.8 9 9.4 9.8 9.8 10.2 9.4 9.9 9.3 9.9 8.9 8.7 8.2 7.9 8 8.5 7.9 7.3 6.8 7.3 6.6 6.6 6.5 6.5 6 5.3 4.6 4.6 3.7 3.8 4.4 4.8 4.9 4.9 4.2 3.4 2.9 -1.5 -1.5 3 4.4 6.3 9.3 10.9 12.4 13.6 14.4 15.1 15.8 16.6 17.1 17 17.3 17.6 16.7 16.1 16.9 17.8 17.7 17.4 16.1 13.5 11.4 10.1 9 8.9 9.7 9.9 9.8 9.4 8.7 7.9 6.9 5.7 4.3 3.5 3.1 1.8 1.1 1.3 1.2 0.8 0.5 1.3 2.5 5.5 7.8 12.1 15.9 19.2 19.5 18.3 15.8 10.4 4.9 2.1 1.7 4.5 5.2 6.7 10.2 15.9 17.8 19.7 21.8 21.9 14.9 2.5 1 -0.6 -1.5 -1.5 -1.5 -1.5 -1.5 -1.5 -1.5 -1.5 -1.5 -1.5 -1.5 -1.5 -1.5 -1.5 -1.5 -1.5 -1.5 -1.5 -1.5 -1.5 -1.5 -1.5 -1.5 -1.5 -1.5 -1.5 2.5 4.6 6.3 9.9 14.5 21 25 28.2 31.1 33.5 34.9 36.4 39 43.6 46.8 49.5 51.8 53.6 54.6 55.7 56 56.3
33.2 34.3 34.5 34.9 35.1 37.1 38.9 36.2 35.1 36.1 37 30.8 26.6 26.4 24.2 24.8 23 18.9 17.7 16.6 16.6 15.9 16.8 16.9 15.8 15.1 14.8 14.3 13.5 13.6 15 15.5 15 13.9 13.5 14.3 12.6 11.8 11.1 10.4 9.9 9.2 8.9 9.6 10.3 10.1 9.8 9.6 9.6 9.9 9.5 10 9.2 9 9.4 9.5 9.2 8.7 8.1 7.6 7.2 7.4 7.3 6.7 6.7 6.7 6.5 5.3 4.7 4.2 3.7 3.2 3.7 4.4 4.6 4.6 3.8 3 2.4 -1.5 -1.5 3.9 5.3 7.2 9.6 11.1 12.6 13.8 14.5 15.3 16 16.7 17.2 17.1 17.4 17.7 16.8 16.2 16.9 17.6 16.8 15.3 13.9 12 10.5 9.2 7 7.8 8.4 8.6 8.6 8 7.3 6.7 5.5 4.2 2.9 2.3 1.6 1.3 0.9 0.8 1.5 0.6 1.9 2.8 5.3 8.2 11.4 14.9 18.4 19.2 18 15 11.5 6.7 2.1 2 3.4 5.9 7.2 9.5 14.8 17 19 20.5 21.3 20.9 8.2 1.7 0.9 -0.3 -1.5 -1.5 -1.5 -1.5 -1.5 -1.5 -1.5 -1.5 -1.5 -1.5 -1.5 -1.5 -1.5 -1.5 -1.5 -1.5 -1.5 -1.5 -1.5 -1.5 -1.5 -1.5 -1.5 -1.5 -1.5 0.5 4 3.7 7.1 11.1 17.9 22 25.7 28.7 30.4 32.8 34.7 36.8 41.6 44.9 47.3 50.3 52.3 53.6 54.5 55.1 55.4 55.9
34.1 33.8 34.2 35.6 35.6 41.9 39.2 35.3 33.9 32.1 33.9 27 23.3 22.4 24.4 23.3 22.1 18.7 16.8 15.8 18 15.2 16.3 14.9 14.4 14 14.1 13.8 13.8 13.5 14.4 14.9 14.4 13.8 13.5 14.8 12.5 11.9 11.3 10.7 10.1 9.9 10.1 10.6 10 10 10.1 9.9 9.9 10 10.3 11 10.4 10.1 10 10.8 10.8 8.8 8.4 8 7.6 7.4 7.3 7.1 6.9 6.9 6 5.6 5.2 4.8 4.5 3.5 3 3.7 4.4 4 3.6 2.4 -1.5 -1.5 3.1 4.6 6.2 8 9.9 11.1 12.4 13.1 13.2 13.9 14.6 15.9 17.7 18.4 19.1 18.1 17.6 17 17.3 15.9 14.2 12.5 11 9.6 8.1 6.9 5.8 6.5 7.1 7.2 7.4 7.1 6.6 4.9 3.7 2.5 2.3 2 1.7 1.1 0.8 0.6 0.9 2.3 3.3 4.8 7.7 10.7 13.4 14.8 17.2 17.5 15.5 11.2 7.4 3.9 1.7 2.5 5.7 6.9 7.7 12.6 14.8 16.9 19.2 20.3 20.2 10.3 1.3 0.8 0.1 -1.5 -1.5 -1.5 -1.5 -1.5 -1.5 -1.5 -1.5 -1.5 -1.5 -1.5 -1.5 -1.5 -1.5 -1.5 -1.5 -1.5 -1.5 -1.5 -1.5 -1.5 -1.5 -1.5 -1.5 -1.5 -1.5 1.4 5.7 5.1 7.6 14.1 18.6 22.2 26.3 28 29.8 32.8 36.1 39.4 42.9 45.5 47.7 49.3 51.9 52.2 54.9 55.8 56.5 57.2
34.5 33.7 34.8 35.3 34.5 33 33.7 31.2 30.1 29.2 31.8 24.1 21.5 21.3 19.7 21.2 21.2 20.1 16.7 15.7 15.3 14.4 15.3 14.3 13.9 13.9 14 14.1 13.8 13.5 14 14.3 13.8 13.2 12.6 13.3 12.6 12.3 11.8 11.3 10.7 11.1 11 10.4 10.2 10.1 10.1 10 11.9 9.6 9.5 10.8 10.7 10.6 9.4 10.1 10.5 9.2 8.7 8.3 8 7.9 7.7 7.4 7.1 7 6.3 5.5 5.2 4.9 4.7 4.7 3.4 2.7 3.3 3.9 4 -1.5 -1.5 3.2 5.1 6.3 7.9 8.9 9.4 10.6 11.8 12.5 12.3 12.2 12.9 14.5 16 17.8 17.8 17.4 17.1 16.9 15.9 13.8 12.1 10.5 8.8 7.2 5.9 4.8 4.9 5.8 6.8 7.4 7.5 6.4 4.7 3.1 2.1 1.9 1.9 2 1.7 0.8 0.5 1.3 2.9 4.5 5.6 7.5 10.3 13.2 14.6 15.4 14.8 14.5 12 8.1 4.2 2.5 2.2 3.8 5.9 7.5 8.5 12.6 14.7 16.8 17.7 18.5 5.5 1.2 0.6 -0.1 -1.5 -1.5 -1.5 -1.5 -1.5 -1.5 -1.5 -1.5 -1.5 -1.5 -1.5 -1.5 -1.5 -1.5 -1.5 -1.5 -1.5 -1.5 -1.5 -1.5 -1.5 -1.5 -1.5 -1.5 -1.5 -1.5 0.3 5 6.6 7.4 8.3 13 16.5 20.4 24.3 25.4 28.1 32.1 34.6 38.5 42 44.1 46.2 49.6 51.6 53.3 55.2 56.5 57.4 58.2
34.8 35.1 37 32.1 31.8 30.8 29.1 28.7 27.1 27.6 26.4 23.2 21 20 18.4 19.5 19.5 18.3 15.2 14.1 13.8 14.2 14.5 14.5 14.2 15.1 14.1 13.4 13.4 13.5 13.5 13.5 13.1 13.1 12.6 12.6 12.7 12.2 12.1 12 12.3 11.5 11 10.5 10.4 10.6 10.6 10.9 10 10 10.9 11.1 10.3 9.8 9.4 9.6 10.6 11.2 9.1 8.9 8.7 8.6 8.4 8.1 7.4 7.2 6.4 5.5 5 4.8 4.8 4.7 4 2.3 2.8 2.7 -1.5 -1.5 2.4 4.2 7.4 8.4 8.3 8.5 8.9 10.1 11.3 11.8 11.8 11.5 11.9 13.2 14.7 15.7 16.6 16.3 16 15.2 14.2 11.8 10.1 8.5 7.1 5.7 4.5 3.9 3.6 4.6 5.6 6.3 6 4.1 2.6 1.8 1.7 1.5 1.3 2.1 1.7 0.6 2.1 3.5 5.1 6.7 8.1 10.2 13 14.5 15.9 14.7 13.5 11.6 8.1 4.1 2.4 2.3 3.5 4.5 6 7.6 9.2 11.6 13.3 15.2 16.5 2.3 1.2 0.5 -0.1 -0.7 -1.5 -1.5 -1.5 -1.5 -1.5 -1.5 -1.5 -1.5 -1.5 -1.5 -1.5 -1.5 -1.5 -1.5 -1.5 -1.5 -1.5 -1.5 -1.5 -1.5 -1.5 -1.5 -1.5 -1.5 -1.5 -1.5 1.5 5.3 6.4 8.7 11.8 14.3 16.8 22 24 27.9 33.9 38.5 41.7 43.3 45 48 50.5 51.6 52.4 53.8 55.5 57.1 58 58.8
32.6 37.4 31.6 32.9 29.8 28.5 27.3 26.5 26.4 30.5 27.2 24.7 20.3 18.8 16.6 15.5 18.3 16.4 14.6 13.9 13.7 13.6 13.8 14.9 16.2 14.9 14 13.8 13.8 13 13 12.6 12.5 13.1 12.6 12.3 12.5 11.2 12 11.5 11.5 12.1 11 10.7 10.6 10.8 11 12.4 10.1 10.4 10.7 9.8 9.7 10.2 9.8 10.3 8.5 10.3 9.1 9 9 8.8 8.3 7.8 7.5 7.2 6.4 5.6 4.9 4.7 4.5 4.4 3.5 1.6 -1.5 -1.5 -1.5 2.7 3.8 5.5 8.1 8.4 8 8.2 8.5 9.4 10.7 11.1 11.2 10.5 11.8 13.7 13.3 13.4 13.8 13.7 13.4 12.6 11 9.8 8.4 7.1 5.8 4.5 3.9 3.5 3.1 3.2 4.1 4.7 3.5 1.7 1.5 1.4 1.2 1.1 0.9 1.3 1 2.6 3.8 5.1 6.4 8.3 10.4 12.5 13.6 14.8 14.9 13.3 10.9 8.2 4.5 3.6 2.3 3.1 4.5 5.3 6.7 8.3 9.2 10.2 11.7 6.6 0.9 1 0.5 -0.1 -0.7 -1.5 -1.5 -1.5 -1.5 -1.5 -1.5 -1.5 -1.5 -1.5 -1.5 -1.5 -1.5 -1.5 -1.5 -1.5 -1.5 -1.5 -1.5 -1.5 -1.5 -1.5 -1.5 -1.5 -1.5 -1.5 -1.5 1.8 6.7 6.1 6.6 10.8 14.6 16.6 22.7 27.8 30.3 32.9 37.9 41.6 44.7 45.8 47.8 50.3 51.7 53 54.2 55.9 57.3 57.7 58.5 59.2
28.4 28.6 29.7 29.7 29 26 25.6 25.5 26.2 25.9 24.6 23.5 18.9 17.5 15.7 13.8 17.1 17.2 14.3 13.9 13.7 13.7 14 14.5 13.9 15.5 14.5 14.3 13.6 12 12.7 12.1 12.1 12.6 12.9 12.9 12.3 11.5 11.2 11.3 12.2 11.5 10.9 11.2 12 12.8 13 13.1 10.8 10.1 10.3 9.9 9.8 9.4 9.7 8.8 13 9.2 8.5 8.6 8.8 8.8 7.9 7.5 6.9 7.1 6.3 5.5 4.8 4.4 4.2 4 3.2 1.4 -1.5 1.8 3.1 4.8 5.7 6.5 8.2 7.8 7.8 8.1 8.2 8.5 9.6 10.1 10 10.3 13.8 14.5 13.4 11.7 11.4 11.2 10.9 10 8.8 7.7 6.6 5.6 4.8 3.9 3.4 3 2.7 2.3 2.7 2.9 1.4 1.1 1 1 0.8 0.6 0.5 2.3 3.8 4.8 5.6 6.6 7.8 10 11.8 12.8 13.6 13.6 12.2 9.7 7.2 4.5 3.7 3.4 2.5 3.8 5 6.1 7 7.8 8.5 8.7 1.6 0 -0.6 -0.1 -0.1 -0.7 -1.5 -1.5 -1.5 -1.5 -1.5 -1.5 -1.5 -1.5 -1.5 -1.5 -1.5 -1.5 -1.5 -1.5 -1.5 -1.5 -1.5 -1.5 -1.5 -1.5 -1.5 -1.5 -1.5 -1.5 -1.5 -1.5 1.6 6.4 6 6.4 8.9 12.9 15.9 21.6 27.5 30.2 33 36.7 40.9 43.5 46.2 47.5 49.7 52 53.4 54.7 55.9 57.5 58.7 58.1 58.8 59.4
25.4 25.9 30.8 26.8 25.5 25.1 25.4 24.8 24.1 23.8 22.5 23.9 18.2 15.8 14.3 14.1 17.2 17.1 14 13.4 13.8 14.2 13.1 13.2 13.3 15.3 14.3 14.2 12.1 11.2 12.4 11.9 11.7 12.2 12.7 12.6 12.5 11.9 11.4 12.2 11.7 10.9 11.4 12.9 13.2 12.7 10.7 10.2 11.9 13.8 10.4 10.1 10.5 9.7 10.8 13.1 13.1 9.9 9.7 8.5 8.6 9.1 7.7 7.3 7 7 6.3 5.5 4.8 4.2 3.9 3.7 3.4 2.4 -1.5 2 3.7 5.7 6.7 7.2 7.4 7.5 7.2 7.3 7.5 7.6 8.3 8.7 9 9.4 12.6 12.2 11 9.8 9.6 8.9 8.2 7.4 6.4 5.6 5 4.3 3.6 2.9 2.8 2.6 2.2 1.9 1.5 1.2 0.9 0.6 0.4 0.5 0.5 1.8 3.8 5.7 6.6 6.5 6.4 7.1 8.7 10.7 12.5 13 12.7 11.1 8.6 6.2 4.3 4.6 4.2 3.6 3 4 5.2 5.5 5.9 6.8 5.9 0.8 -1.5 -1.5 -1.5 -1.4 -1 -1.5 -1.5 -1.5 -1.5 -1.5 -1.5 -1.5 -1.5 -1.5 -1.5 -1.5 -1.5 -1.5 -1.5 -1.5 -1.5 -1.5 -1.5 -1.5 -1.5 -1.5 -1.5 -1.5 -1.5 -1.5 -1.5 0.3 4.3 6 5.6 8.1 11.3 15.3 21.8 27.3 31.5 33.7 37.1 40.5 43.2 45 46.8 48.8 51.3 53.8 55.1 56.3 57.6 59.3 60.4 59.8 59.1 59.7
23.6 24 27.9 25.5 25.5 24.1 23.8 24.9 24.4 23.8 25.4 25 21.6 13.8 13.3 14.9 15.8 15 15 12.3 12.8 13.6 12.5 13.4 14.6 13.8 12.8 13.7 12.7 11.4 12.2 12.7 11.9 11.9 12.3 12 12.2 11.9 11.7 12.2 11.6 11.6 12.7 13.5 13.3 11.4 10.4 10.3 11.1 12.8 11.2 10.6 11 10.6 11.2 12.5 14.8 10.4 10.3 9.7 8.7 8 7.8 7.6 7.3 7 6.3 5.5 4.8 4.2 3.6 3.4 3.1 2.3 -1.5 3.1 4.4 5.7 6.4 6.9 7.3 7.4 7.1 6.8 6.7 6.9 7.3 7.5 7.9 8.3 9.3 9 8.4 7.7 6.9 6.2 5.6 4.8 4.2 3.8 3.3 2.6 2.5 2.5 2.6 2.2 1.9 1.5 1 0.7 0.3 0.5 0.9 1.4 3.4 5 5.7 6.2 6.4 6.2 6.5 7.3 8.7 11 12 12.1 10.6 8.2 5.5 4.1 3.3 3.9 4.2 4.3 3.9 4.8 4.6 4.3 4.7 2.2 -1.5 -1.5 -1.5 -1.5 -1.5 -1.5 -1.5 -1.5 -1.5 -1.5 -1.5 -1.5 -1.5 -1.5 -1.5 -1.5 -1.5 -1.5 -1.5 -1.5 -1.5 -1.5 -1.5 -1.5 -1.5 -1.5 -1.5 -1.5 -1.5 -1.5 -1.5 -1.5 -1.5 1.8 4.1 4.6 6.3 11.5 15.7 20.5 28.2 32.3 35.7 39 41.9 44.3 45.8 47.2 48.6 50.5 53.3 55.3 56.7 58 59.4 60.9 61.7 60.4 60 60.8
21.6 22.9 23.8 23.9 23.6 22.8 23.8 24.6 24.2 24.4 22.3 24.7 19.8 13.4 12.4 12.4 12.8 12.4 12.9 13 14 12 13.1 13.7 12.7 11.8 11.7 13.2 11.8 11.4 11.5 11.7 11.9 12.1 12.7 11.9 11.3 11.4 11.5 11.9 11.9 11.3 11.2 13.7 11.4 11 10.2 10.4 10.8 11.6 11.7 10.5 10.1 10.6 10.5 11.4 13.7 13.1 12.2 10.6 9.2 9.3 8.5 7.6 8 6.9 6.2 5.5 4.9 4.2 3.5 3.1 2.8 -1.5 -1.5 3.3 4.7 6 6.2 6.7 7 7.3 7 6.6 6.3 6.3 6.9 7.3 7.2 7.2 7.6 7.4 6.7 5.8 5.1 4.3 3.5 3.1 2.4 2.2 2.3 2.3 2.4 2.4 2.4 2.2 1.5 0.9 0.6 0.4 0.9 1.1 1.7 3.6 5.4 5.5 5.8 6.3 6.2 6 6.4 7.4 8.5 10.1 10.9 9.6 7.4 5.5 4.1 3.8 3.8 4.2 4.8 4.7 4.8 4.6 4.2 3.1 0.8 -1.5 -1.5 -1.5 -1.5 -1.5 -1.5 -1.5 -1.5 -1.5 -1.5 -1.5 -1.5 -1.5 -1.5 -1.5 -1.5 -1.5 -1.5 -1.5 -1.5 -1.5 -1.5 -1.5 -1.5 -1.5 -1.5 -1.5 -1.5 -1.5 -1.5 -1.5 -1.5 -1.5 1.5 3.9 4.4 5.2 9.8 16.2 18.7 32.8 34.6 37.7 40.6 44.2 46.1 47.5 48.4 49.2 50.4 52.5 53.7 56.3 57.9 59.3 60.1 60.5 60.1 59.5 59.4 59.7
20.9 21.3 21.1 22 22.9 23.8 25.4 26.1 25.4 24.4 20.9 23.1 19.2 12.4 11.4 11.2 12 12.9 14.2 11.1 14.5 12.4 12.7 12.4 13.1 13.7 13.1 15 12.4 10.8 11.1 11.5 11.9 12 12.3 11.8 11.4 11.3 11.3 11.6 11.6 12.9 10.9 14.7 12 11.6 10.4 10.5 10.8 11.7 11.5 11 10.2 9.5 9.3 10.3 12.5 11.1 13.7 11.6 9.3 9.1 9.3 9.1 8.7 6.8 6.2 5.5 4.9 4.2 3.5 2.9 2.4 -1.5 2.5 3.8 5.3 6.2 6.4 6.5 7.2 8.1 7.9 7.6 6.4 6 6.6 7.1 7 6.6 6.3 5.8 4.8 3.9 3.2 2.6 2.7 2.8 2.3 2.1 1.5 1.7 2 2.3 2.4 2.1 0.9 0.2 0.1 0.6 1.5 1.7 3.6 5.3 5.9 6.1 6.1 6.2 6.2 6.2 6.3 7.2 7.3 7.8 8 7.6 5.7 4.2 3.9 3.9 3.8 3.8 4.3 4.9 4.3 4.1 3 0.2 -1.5 -1.5 -1.5 -1.5 -1.5 -1.5 -1.5 -1.5 -1.5 -1.5 -1.5 -1.5 -1.5 -1.5 -1.5 -1.5 -1.5 -1.5 -1.5 -1.5 -1.5 -1.5 -1.5 -1.5 -1.5 -1.5 -1.5 -1.5 -1.5 -1.5 -1.5 -1.5 -1.5 1.2 3.5 5.1 5.9 9 14.4 19.7 28.4 38.5 40.6 42.3 45.8 48.4 50.2 51 52 52.4 52.5 52.8 54.2 56.1 56.7 57.8 58.3 58.5 58.9 58.9 58.9 59.2
21.1 21.2 20.3 21.1 21.7 22.9 24.9 24 22.2 21.5 23.7 20.3 14.1 11.7 10.3 10.1 11.3 16.2 11.8 10.7 11.4 11.6 11.6 11.1 12.6 11.6 15 14.2 11.9 10.6 11 11.4 11.9 11.8 11.7 11.5 12 11.6 11.4 12.1 12.8 11.5 13.7 14.1 11.4 11.5 10.8 12 15.2 16.1 11.8 10.5 9.9 9.8 10.1 10.9 11.3 13.2 10.8 11.9 11.3 9.3 8.9 7.9 8.7 7.1 7.2 5.6 4.8 4.2 3.5 2.8 -1.5 -1.5 2.4 5.2 6 6.6 7.1 7.6 8 9 8.5 7 5.6 5.9 6.2 7 6.6 5.8 5.5 4.7 3.5 2.5 2.4 2.4 2.4 2.5 2.3 1.8 1.1 0.9 1.1 1.4 0.9 0.1 0.4 0.5 1.4 1.7 1.8 2.8 4.3 5.9 6.3 6.7 6.8 7 7.1 6.9 6.7 6.9 6.7 6.3 5.7 5.3 4.4 4 3.9 3.9 3.8 3.5 3.2 3.8 3.4 2 -1.5 -1.5 -1.5 -1.5 -1.5 -1.5 -1.5 -1.5 -1.5 -1.5 -1.5 -1.5 -1.5 -1.5 -1.5 -1.5 -1.5 -1.5 -1.5 -1.5 -1.5 -1.5 -1.5 -1.5 -1.5 -1.5 -1.5 -1.5 -1.5 -1.5 -1.5 -1.5 -1.5 -1.5 1.6 3 4.6 6.1 8.9 13 18.6 26.3 36.9 41.5 44.1 49.4 51.4 52.9 53.8 54.3 53.3 53.3 53.5 53.9 54.4 54.7 55.1 56.1 57 57.2 57.4 57.8 58.4 58.7
18.5 19.3 19.9 20.8 20.2 21.9 16.9 17.9 18.4 22.4 23 15.9 11.2 10.5 10.6 9.5 10.2 15.2 10 11.1 10.7 10.8 10.6 11.4 10.8 12.3 11.3 13.4 11 10.9 10.9 11.3 11.9 11.6 11.1 11.3 11.9 11.8 11.8 13.2 19.4 10.8 12.8 17.3 13.3 11.5 12.7 10.9 11 18.3 13.1 10.9 9.8 9.9 9.8 9.6 9.2 10.9 9.7 10 11.1 9.1 9.8 9.2 7.5 7.7 7.3 6.7 4.9 4.1 3.5 2.4 -1.5 1.9 3.7 6.2 5.5 6.6 8.1 8.7 9.1 9.2 7.7 6.3 5.7 6.5 6.8 7.7 7.4 5.4 4.7 3.6 2.3 2.2 2.2 2.1 2.2 2.3 2.3 1.5 0.8 0.2 0.2 0.1 1.3 1 1 1.2 2.1 2 3.3 4.3 5.3 6.4 6.8 7.2 7.6 7.8 7.8 7.5 7.3 6.8 5.9 5.5 5.1 4.8 4.6 4 3.9 3.8 3.8 3.3 2.5 2.4 1.2 -1.5 -1.5 -1.5 -1.5 -1.5 -1.5 -1.5 -1.5 -1.5 -1.5 -1.5 -1.5 -1.5 -1.5 -1.5 -1.5 -1.5 -1.5 -1.5 -1.5 -1.5 -1.5 -1.5 -1.5 -1.5 -1.5 -1.5 -1.5 -1.5 -1.5 -1.5 -1.5 -1.5 -1.5 1.2 3.6 4.8 4.5 9.5 13.6 17.2 23.5 34.3 40.6 45.1 50.1 53.2 55.5 56.2 55.8 55.3 54.7 54.2 54.7 55.2 55.8 56.2 56.5 57 56.9 56.9 57 57.4 58.4 58.8
15.6 17.3 19.7 17.4 16.7 17.1 16.1 15.8 16.5 19.5 23.2 12.7 10.9 11 9.1 9.7 9.5 10.2 9.4 10 10.1 10.3 10.5 10.2 10.6 11 10.1 13.5 12.2 11.3 11.1 11.2 11.8 11.4 10.9 11 11.7 12.1 12.4 10.8 14.7 11.2 10.5 14.6 11.1 10.5 10.9 11.7 10 11.4 13.7 11.8 10.4 9.5 9.3 9.2 9.1 9.6 14.6 14.5 7.7 10.8 9.1 8 8.3 7.9 7.1 5.9 5.8 5.1 5.2 -1.5 -1.5 0.5 2.3 4.5 5.1 5.4 7.3 8.4 8.6 9.1 7.5 6 5.7 7 7.7 8.1 7.9 5.5 3.7 2.5 2.2 2.1 1.9 1.9 2 2.2 2.5 2 -1.5 0.8 1.1 0.8 1.8 2 1.8 1.9 2.8 3.5 4.3 3.9 5.3 6.1 7 7.6 8 8 8.2 7.9 7.7 6.9 6.1 5.2 4.4 4.9 4.9 4.1 4.1 3.8 3.8 3.1 1.7 -1.5 -1.5 -1.5 -1.5 -1.5 -1.5 -1.5 -1.5 -1.5 -1.5 -1.5 -1.5 -1.5 -1.5 -1.5 -1.5 -1.5 -1.5 -1.5 -1.5 -1.5 -1.5 -1.5 -1.5 -1.5 -1.5 -1.5 -1.5 -1.5 -1.5 -1.5 -1.5 -1.5 -1.5 -1.5 0.4 3.6 3.5 5.1 11 14.9 19.2 23.6 29.9 38.4 44.1 50.1 52.7 54.1 55.5 55.5 54.8 54.2 54 55.3 56.2 56.7 57.2 57.6 57.6 57.2 57.2 57.2 57 56.2 56.7 57
13.5 16.1 19 14.3 14.8 14.6 13.3 13.5 14.2 15.2 22.2 11.9 9.3 9.9 8.5 9.8 11.5 9.6 10.1 10 10.3 9.7 10.2 9.7 10.3 10.2 10.5 13.7 13.5 12.2 12.1 11.4 11.4 10.9 11 12.8 11.3 13.8 11.7 11 11.6 10.5 10.6 11.6 10.5 13.4 10.1 10 9.8 17.8 18.3 13.8 11 10 9.2 9.1 9.2 9.1 11 11.6 7.6 12.6 11.1 8.6 7.2 6.7 7.4 5.7 6.7 5.6 3.9 -1.5 1.5 1.4 2.5 2.4 3.9 5.5 6.7 7.4 7.5 8.1 7.7 5.8 5.8 7.1 7.7 7.1 6.3 4.1 2.6 2.2 2.4 2.4 2.1 1.9 2.1 2.3 2.6 1.9 -1.5 1.8 2.1 1.6 2.3 2.9 2.7 3 3.3 4.7 4.1 4.7 5.3 5.8 6.6 7.5 7.9 8.2 8.3 8.4 8 7.1 6.1 4.9 5.2 5.4 5.1 4.4 4.1 4 1.3 -1.5 -1.5 -1.5 -1.5 -1.5 -1.5 -1.5 -1.5 -1.5 -1.5 -1.5 -1.5 -1.5 -1.5 -1.5 -1.5 -1.5 -1.5 -1.5 -1.5 -1.5 -1.5 -1.5 -1.5 -1.5 -1.5 -1.5 -1.5 -1.5 -1.5 -1.5 -1.5 -1.5 -1.5 -1.5 -1.5 -1.5 0.9 4.2 6.5 12.7 15.9 20.1 24.4 31.6 37.7 42.3 47.6 51.3 53.2 54.1 54.4 54.9 54.1 54.2 54.6 56 57.4 58.1 58.6 58.3 57.9 57.5 57.4 57 56.5 55.6 54.5 55.2
13.3 14.3 14.8 12.4 13.1 13.5 11.9 11.3 11.9 13.3 18.4 9.8 8.8 7.4 6.9 15.3 9.3 8.8 9.3 9.1 9.9 9.5 9.3 9.5 10 9.8 8.4 13.1 12.6 13.4 13.2 11.5 10.8 11.3 11.6 13.3 11.5 11.5 10.6 10.5 10.5 10.2 11.4 11.3 10.9 10.8 9.8 9.7 9.5 14.1 18 14.6 11.6 10.4 9.3 9.7 10 8.7 8.9 10.9 8.5 11.4 9.2 9.2 7.2 6.7 6.7 5.7 5.7 4.8 4 -1.5 -1.5 0.4 2.2 1.7 2.3 3.9 5.4 6.3 6.8 7.8 7.3 5 5.8 5.5 5.4 4.5 3.7 2.6 2.5 2.6 2.7 2.6 2 2.1 2.3 2.2 -1.5 -1.5 -1.5 2.1 2.9 2.6 3 3.1 2.7 2.9 3.5 5.3 3.9 4.3 4.8 5.2 5.9 7.3 7.8 8.2 8.2 8.2 7.7 6.5 5.2 4.8 5.2 5.3 4.5 3.8 4.2 1.3 -1.5 -1.5 -1.5 -1.5 -1.5 -1.5 -1.5 -1.5 -1.5 -1.5 -1.5 -1.5 -1.5 -1.5 -1.5 -1.5 -1.5 -1.5 -1.5 -1.5 -1.5 -1.5 -1.5 -1.5 -1.5 -1.5 -1.5 -1.5 -1.5 -1.5 -1.5 -1.5 -1.5 -1.5 -1.5 -1.5 -1.5 -0.4 1.2 6.2 13.6 17.4 20.6 23.8 30.9 37.8 43.2 46.6 49.7 51.4 52.4 52.7 52.9 54.1 53.5 54.7 55.5 56.7 58.1 59.6 59 58.6 58.1 57.4 57 56.4 55.9 55 53.5 54.1
12.4 11.8 12.9 10.3 9.3 9.3 9.2 9.1 9.4 10.8 16.5 10.9 9.3 7.1 6.9 14.7 9.3 8.5 9 10.1 12.1 10.5 9.1 9.5 9.3 8.5 9.3 12.2 10.5 12.8 12.3 12 10.3 11.2 12.1 12.1 10.6 12 11.2 10.8 10.7 11.3 11.1 10.6 9.9 10.2 9.7 9.5 9.3 9.7 11.4 14.3 16.2 10.7 11.5 11.1 10.7 9 8.1 8.5 8.5 8.2 7.8 8.2 6.9 6.8 6.2 5.4 5.7 4.2 3.6 2 -1.5 -1.5 -1.5 0.5 1 2.1 2.6 3.6 5.6 5.6 4 4.9 4.9 4 3.1 2.9 2.4 2.8 2.3 2.9 1.7 1.5 2.6 2.7 2 -1.5 -1.5 1.4 2.2 2.8 3.1 2.9 3.3 2.9 2.8 2.8 3.5 4.6 4.9 5.4 5.7 5.7 5.5 7.2 7.7 7.6 7.3 7 6.9 5.6 4.4 5 5.3 5.6 4.4 2.8 1.4 -0.1 -1.5 -1.5 -1.5 -1.5 -1.5 -1.5 -1.5 -1.5 -1.5 -1.5 -1.5 -1.5 -1.5 -1.5 -1.5 -1.5 -1.5 -1.5 -1.5 -1.5 -1.5 -1.5 -1.5 -1.5 -1.5 -1.5 -1.5 -1.5 -1.5 -1.5 -1.5 -1.5 -1.5 -1.5 -1.5 -1.5 -1.5 0.5 1.9 12.1 16.5 21 25.6 30.4 34.8 43 46.9 49.3 50 50.9 51.2 50.6 51.4 52.4 53 55.2 56.6 57.6 58.8 59.4 59 57.7 57.2 56.2 55.6 55.6 55.4 54.4 53.9 52.9
11.3 9.1 9.7 8 8 8 8.1 7 5.9 6.4 12.7 9.1 7.3 6.2 6.6 10.4 8.2 8.2 9.9 13.1 10.8 9.9 10.4 8.4 7.3 8.2 9.5 10.6 9.4 10.8 10.4 12 10.6 11.7 12.1 11.9 10.8 10.9 10.4 9.9 10.2 11 10.6 9.7 10.6 10.2 9.5 9.4 9.2 9.2 11.1 11.3 14 9.8 11.8 8 12.9 9.1 7.7 8.2 8.8 8.3 9 7.2 7.1 6.9 6.2 5.5 5.1 4.1 3.5 3.3 3.4 -1.5 -1.5 -1.5 -1.5 -1.5 -1.5 0.3 -1.5 1.3 1.5 3.3 4.2 3.6 2.6 3.1 4.9 3.7 3.4 1.7 0.5 -0.1 0.4 -1.5 -1.5 1.9 1.7 2.4 3.3 4.4 4 3.1 3.1 3.4 3.7 4.2 4.6 5.2 5.9 6.4 6 5.3 5.3 7.1 7.1 7 6.7 6.4 5.9 5.5 4.8 4.6 4.9 5.4 1.6 0.8 0.3 -0.9 -1.5 -1.5 -1.5 -1.5 -1.5 -1.5 -1.5 -1.5 -1.5 -1.5 -1.5 -1.5 -1.5 -1.5 -1.5 -1.5 -1.5 -1.5 -1.5 -1.5 -1.5 -1.5 -1.5 -1.5 -1.5 -1.5 -1.5 -1.5 -1.5 -1.5 -1.5 -1.5 -1.5 -1.5 -1.5 -1.5 0 3.4 9.8 15.3 19.7 24.4 29.7 33.7 40.7 47 49.8 50.5 50.9 50.8 50.3 50.3 50.3 51.4 53.4 55.5 57.4 58.5 58.9 58.8 58.1 56.4 56.1 54.4 53.5 54.1 54.1 53.4 52 51.4
13.8 9.4 7.5 6.5 7.1 5.8 5.8 5.3 5 6.1 11 7.3 7.1 6.2 7.2 10.7 7.7 9.2 8.9 6.6 9.3 11.9 10.6 8.8 9.4 10.1 10.4 9.2 10.2 9.3 12.4 12.6 11.9 13.7 15 11.5 10.3 10.5 9.8 9.6 9.7 10 10.5 9.4 9.7 9.5 9.6 9.7 9.3 8.9 14.2 8.8 14 8.9 8.6 7.5 11.4 8.1 8.9 7.7 8.3 8.2 8.8 6.7 7.5 7.1 6 5.5 4.9 4.3 3.6 3.3 3.7 2.7 2.9 1.8 1.1 -1.5 -1.5 -1.5 -1.5 -1.5 -1.5 -1.5 3.1 3.9 3.6 4.4 4.1 1.7 1.3 0.4 -1.5 -1.5 -1.5 -1.5 2.7 2.6 2.4 2.4 3.4 4.3 3.9 3.5 3.2 3.2 3.4 4.2 5 5.5 6 6.5 5.9 5.2 5.6 6.4 7.3 6.9 5.9 5.3 4.7 5.1 4.6 4.3 1.5 0.5 -1.5 -1.5 -1.5 -1.5 -1.5 -1.5 -1.5 -1.5 -1.5 -1.5 -1.5 -1.5 -1.5 -1.5 -1.5 -1.5 -1.5 -1.5 -1.5 -1.5 -1.5 -1.5 -1.5 -1.5 -1.5 -1.5 -1.5 -1.5 -1.5 -1.5 -1.5 -1.5 -1.5 -1.5 -1.5 -1.5 -1.5 -1.5 -1.5 -1.5 0.7 8.4 13.4 18.3 23.2 27.5 32.4 36.2 43.7 48.5 50.2 51 49.7 50.4 50.5 50.7 50.8 51.9 53.9 56 57.9 58.1 57.7 57.2 56.7 55.5 54.6 52.8 51.1 51.7 52.1 51.5 50.4 49.7
10.8 7.6 6.7 6.2 6 5 4.7 4.1 4.7 10.8 10.3 7.2 5.3 5.8 8.2 7.6 8 9.8 6.8 6.4 9.6 9.8 9.4 8.4 9.1 9.8 8.8 9.9 8.9 9.1 11 12.1 9.5 10.3 11.7 10 11.9 10.8 9.7 9.5 9.3 9.9 10 10.1 9.2 8.9 9.7 9.9 9.3 8.6 8.6 10.6 9.4 11.3 7.6 6.9 8 7.9 7 11.1 9.6 10.4 8.1 6.6 6.8 7.1 6.7 5.9 5.2 4.5 4.1 3.8 4.4 3.2 3.8 2.1 1.8 0.9 -0.1 -0.5 -0.6 -0.9 -1.3 -1.5 -1.5 0.4 0.6 1 0.9 0.3 0 -0.9 -1.5 -0.9 0.8 1.7 3.4 2.7 2.8 2.9 2.9 3.5 3.3 3 2.9 3 4.2 4.5 5.4 5.7 6.2 6.4 5.8 4.9 5.7 6.2 6.7 6.7 5.3 4.3 3.8 4 2 0.5 -1.5 -1.5 -1.5 -1.5 -1.5 -1.5 -1.5 -1.5 -1.5 -1.5 -1.5 -1.5 -1.5 -1.5 -1.5 -1.5 -1.5 -1.5 -1.5 -1.5 -1.5 -1.5 -1.5 -1.5 -1.5 -1.5 -1.5 -1.5 -1.5 -1.5 -1.5 -1.5 -1.5 -1.5 -1.5 -1.5 -1.5 -1.5 -1.5 -1.5 -1.5 -1.5 3.9 10.7 15.8 20.8 25.4 30.1 32.4 40.2 46.9 49.1 49.6 50.4 51 51.3 51.5 51.6 51.7 53 54.4 55.9 57 56.5 56 55.5 54.6 53.7 52.8 50.7 49.5 49.1 49.5 49.4 48 47.2
8.5 8.3 8.1 7.5 7.9 5.3 4 3.6 4.3 8.1 10.3 5.4 5 5.8 9 8.2 8.5 6 6.1 5.8 6.1 9.5 7.7 8.1 8.9 9.6 8.7 10.2 8.4 9.1 19.3 10.8 10.3 9.3 10.3 11.6 9.6 10.3 9.8 10.1 9.9 10.1 10.3 10.9 9.4 8.6 9.9 10.2 9.5 8.2 8.2 8.3 8.3 13.4 7.2 7.1 8.4 7.9 6.2 12.4 15.7 10.4 8.4 7.6 7.2 7.8 7.6 6.5 6.1 6 5.1 5 5.2 5.1 3.1 2.2 1.9 1.2 0.4 0.2 -0.1 -0.5 -0.9 -1.5 -1.5 -1.5 -1.5 -1.5 -1.5 -1.5 -1.3 -1.5 -1.5 0.1 1.9 2 3.3 3.1 3.1 3.3 3.1 2.9 2.8 2.6 3.1 4.5 5.1 5 5.6 6 6.3 6.2 5.3 3.9 5.4 5.3 5.5 3.9 3.2 2.5 1.4 -1.5 -1.5 -1.5 -1.5 -1.5 -1.5 -1.5 -1.5 -1.5 -1.5 -1.5 -1.5 -1.5 -1.5 -1.5 -1.5 -1.5 -1.5 -1.5 -1.5 -1.5 -1.5 -1.5 -1.5 -1.5 -1.5 -1.5 -1.5 -1.5 -1.5 -1.5 -1.5 -1.5 -1.5 -1.5 -1.5 -1.5 -1.5 -1.5 -1.5 -1.5 -1.5 -1.5 -1.5 0.6 6.7 14.4 18.4 22.8 27.3 30.9 37.3 45.2 48.4 49.2 49.6 50.2 50.7 51 51.4 51.7 52.1 53.4 53.6 53.7 54.9 54.8 54.2 53.5 52.7 51.8 50.4 48.5 47.9 47.3 47 46.7 44.5 44.6
7.6 5.1 8.1 5.4 9.3 7.2 4.7 3.8 3.6 4.7 10 4.8 4.4 7 8.4 8.3 9.8 5.7 5.4 5 11.4 7.4 8 8.4 10.4 8.4 8.7 8.8 8.6 9.6 9.4 10.3 10.8 9.7 10.8 10.3 10.7 10.2 9.9 10.6 10.1 9.7 13.1 11.7 9.5 9.6 10.3 10.7 9.2 9 8 7.3 8.7 7.7 6.9 8.4 7.1 6.5 6.2 8 16.4 9.7 8 7.4 8 6.9 7.4 7.3 6.1 6.4 6.5 8.7 8.9 4.3 3.3 2.3 1.9 1.4 1 0.6 0.3 -0.1 -0.5 -0.9 -1.3 -1.5 -1.5 -1.5 -1.5 -1.5 -1.5 -1.5 -1.5 2 2.6 1.9 2.9 3.5 3.5 3.5 3.3 2.7 2.5 3 4.2 5.3 5.3 5.9 5.9 6.2 4.9 4.4 3.1 2.3 2.1 1.3 1 0.8 0.3 -1.5 -1.5 -1.5 -1.5 -1.5 -1.5 -1.5 -1.5 -1.5 -1.5 -1.5 -1.5 -1.5 -1.5 -1.5 -1.5 -1.5 -1.5 -1.5 -1.5 -1.5 -1.5 -1.5 -1.5 -1.5 -1.5 -1.5 -1.5 -1.5 -1.5 -1.5 -1.5 -1.5 -1.5 -1.5 -1.5 -1.5 -1.5 -1.5 -1.5 -1.5 -1.5 -1.5 -1.5 -1.5 -0.1 1.3 12.7 17.3 21.2 25.5 30.3 38.2 42.8 46.5 48.7 49.1 49.6 50.1 50.5 50.8 51.1 51.5 52.2 52.3 52 51.8 52.5 52.5 52.1 51.4 50.5 49.6 48.3 46 44.9 45.4 46.9 41.2 38.7 37.9
1.8 1.9 4.6 9.2 6.6 7.6 5.8 5.9 3.4 3.7 6.4 4.8 6.6 6.3 8.7 5.5 6 5.7 5.7 5.4 7.9 7.6 8.3 8.9 8.1 8 8 8.2 8.8 9.5 10.2 15 10.7 11.1 8.3 10.1 12.4 11.6 10 11.4 10 14.3 17.7 12.2 9.5 10.9 9.4 9.2 8.3 7.5 7.8 7.2 7.1 6.8 6.7 7.5 9 6.8 6.1 6.7 13 11.5 10 10.8 10.7 8.8 8.6 7.8 6.3 5.5 4.5 7.1 8.4 4.9 2.9 2.3 1.9 1.6 1.3 0.9 0.5 0.1 -0.3 -0.7 -1.1 -1.5 -1.5 -1.5 -1.5 -1.5 -1.5 -1.5 2.5 2.4 2.2 2.1 2.8 3 3 2.9 2.9 2.5 3 3.9 5 5.6 5.7 6.1 5.4 4.3 3.1 1.8 1.3 1 0.8 0.4 -0.7 -1.5 -1.5 -1.5 -1.5 -1.5 -1.5 -1.5 -1.5 -1.5 -1.5 -1.5 -1.5 -1.5 -1.5 -1.5 -1.5 -1.5 -1.5 -1.5 -1.5 -1.5 -1.5 -1.5 -1.5 -1.5 -1.5 -1.5 -1.5 -1.5 -1.5 -1.5 -1.5 -1.5 -1.5 -1.5 -1.5 -1.5 -1.5 -1.5 -1.5 -1.5 -1.5 -1.5 -1.5 -1.5 -1.5 0 0.6 3.3 14.2 18.9 25.1 28.9 33.7 40.4 44.7 47.6 48.5 48.5 49 49.4 50.2 50.6 50.9 51.2 51 50.7 50.5 50.2 50.2 50.3 49.2 48.8 48.2 46.9 45.6 43.5 42.7 38.4 41.7 39 36.8 38.3
1.1 1.3 1.6 1.7 3.4 11 7.5 3.1 3.6 7.3 4.9 4.4 6.5 3.4 9.7 5.2 5.9 5.4 5.6 6.5 7.2 7.2 8.1 8.3 7.5 7.9 8.5 7.7 9 9.6 9.8 7.4 11.7 7.8 8.2 13.7 15.8 15.1 12.6 13.7 12.9 8.3 13.1 10 9.5 11.7 9.9 8.9 8.5 7.5 8.2 6.2 6.4 6.7 9.7 9 6.8 6.1 6.5 7.7 6.5 12 10.1 8.1 9.8 12.2 12.8 7.7 6.9 6.2 4.4 3.9 6 3.7 3.3 2.7 1.8 1.5 1.2 0.9 0.6 0.3 -0.1 -0.5 -0.9 -1.3 -1.5 -1.5 -1.5 -1.5 -1.5 0.6 2.6 2.4 3 1.9 2.3 2.4 2.5 2.5 2.4 2.5 3.5 4.4 5.2 6.4 5.4 4.5 3.1 1.8 1.4 1 0.5 0.2 -0.1 -0.5 -1.5 -1.5 -1.5 -1.5 -1.5 -1.5 -1.5 -1.5 -1.5 -1.5 -1.5 -1.5 -1.5 -1.5 -1.5 -1.5 -1.5 -1.5 -1.5 -1.5 -1.5 -1.5 -1.5 -1.5 -1.5 -1.5 -1.5 -1.5 -1.5 -1.5 -1.5 -1.5 -1.5 -1.5 -1.5 -1.5 -1.5 -1.5 -1.5 -1.5 -1.5 -1.5 -1.5 -1.5 -1.5 -1.5 0.8 4.7 1.9 11.5 17 20.7 27.4 31.4 36.9 43 45.7 49 48.3 48.1 48.3 48.3 49.1 49.6 49.4 49.3 49.1 48.9 48.7 48.5 48.3 47.7 46.4 46 44.6 43.1 39.2 35.2 34.2 36.8 42.7 47.3 43.2 47.9
0.4 0.6 0.9 1.3 1.5 1.7 2.3 5 6.4 10 6 6.3 2.9 3.9 5.1 5.3 5.8 6 6.2 7.9 6 7.9 7.3 7.8 9.9 8 9.2 8 8.7 11.5 7.1 11.3 7.8 7.5 12.9 9.2 10.7 20.2 17.2 9.4 8.6 7.2 14.5 9.2 9 11.2 8.5 9.4 7.3 8.2 7.4 6.5 6.6 8.4 8.9 7.6 6.7 6 6.5 6.5 12.6 6.5 5.6 14.1 7.4 8.1 7.1 8.7 6.4 8.9 4.4 3.9 4.7 3.7 3 2.2 1.6 1.4 1.1 0.7 0.4 0.2 -0.1 -0.4 -0.7 -1 -1.5 -1.5 -1.5 0.8 1.5 1.7 1.7 2 2.2 2.3 1.9 1.8 1.9 1.9 2.4 2.7 2.4 3.7 4.4 3.1 2.1 1.7 1.4 1.2 0.6 0.3 -0.2 -0.6 -1.5 -1.5 -1.5 -1.5 -1.5 -1.5 -1.5 -1.5 -1.5 -1.5 -1.5 -1.5 -1.5 -1.5 -1.5 -1.5 -1.5 -1.5 -1.5 -1.5 -1.5 -1.5 -1.5 -1.5 -1.5 -1.5 -1.5 -1.5 -1.5 -1.5 -1.5 -1.5 -1.5 -1.5 -1.5 -1.5 -1.5 -1.5 -1.5 -1.5 -1.5 -1.5 -1.5 -1.5 -1.5 -1.5 -1.5 -1.5 5.3 10.6 13.3 12.9 18.5 22.3 28.1 33 40.5 46.2 48.9 50.2 48 47.1 46 47.1 47.8 48.1 48.2 48 47.7 47.1 47 46.8 45.2 43.2 42.7 42.3 40.7 36.5 34.2 35 40.1 43.7 47.4 48.4 48.5 51.1
-0.3 0 0.3 0.6 0.9 1.2 1.4 1.6 2.1 3.6 4.4 5.5 8.4 7.8 6.6 5.3 6.3 7.8 7.4 8.3 7.1 6.7 9.3 5.9 9.1 10.2 9 7.4 6.1 6.8 7.4 7.4 7.7 7.7 11.4 7.3 7.7 15.7 7.3 13.4 6.7 9 10.7 11.4 7.1 6.5 9.4 7.8 7 8.2 7.1 6.1 6.3 7.4 5.8 6.7 6.1 6.2 6.6 6.7 5.6 5 5 8.8 5.4 5.6 5.6 7.9 4.7 6.8 3.8 4 4.7 3.7 2.6 1.9 1.5 1.3 1 0.7 0.4 0.2 -0.1 -0.4 -0.7 -1.1 -1.5 -1.5 1.3 2.3 1.7 1.7 1.7 1.7 1.7 1.6 1.6 1.6 1.7 1.7 1.8 2.4 2 1.8 1.6 1.4 1.2 1.1 0.8 0.5 0.1 -0.5 -1.5 -1.5 -1.5 -1.5 -1.5 -1.5 -1.5 -1.5 -1.5 -1.5 -1.5 -1.5 -1.5 -1.5 -1.5 -1.5 -1.5 -1.5 -1.5 -1.5 -1.5 -1.5 -1.5 -1.5 -1.5 -1.5 -1.5 -1.5 -1.5 -1.5 -1.5 -1.5 -1.5 -1.5 -1.5 -1.5 -1.5 -1.5 -1.5 -1.5 -1.5 -1.5 -1.5 -1.5 -1.5 -1.5 -1.5 -1.5 -1.5 5.6 7.2 11.7 12.1 16 19.4 24.2 27.8 38.7 44.3 47.6 50.6 49.1 47.9 45.9 44.7 46.8 47.2 47.1 47 47 46.8 46.2 45.3 43.7 39.7 33.3 33.7 36 33.5 33 32.6 39.6 44.1 46.8 47.8 49 50.2 52.5
-1.5 -0.7 -0.3 0 0.3 0.7 0.9 1.1 1.3 1.6 1.7 1.8 3.5 4.8 10.3 6.2 4.4 7.8 8.9 7.9 6 9.2 5 8.5 7.2 11.6 10.3 8.5 5.9 7.1 7.7 7 7.9 9.8 6.7 6.7 7.6 12.1 9.1 7.6 6.3 6.6 12.1 6.6 6.4 6.1 9.3 6.8 6.8 7 6.3 6.1 6.5 5.5 6.4 5.5 5.8 6.1 7.1 6.5 5.1 4.6 9.1 4.9 5 5.2 5.6 7.2 5.8 7 4.1 5.1 4.8 2.7 2.3 1.8 1.5 1.2 0.9 0.6 0.4 0.1 -0.2 -0.5 -0.7 -1 -1.3 -1.5 0.7 1.7 1.7 1.7 1.6 1.4 1.3 1.2 1.2 1.2 1.3 1.4 1.4 1.6 1.4 1.2 1 0.8 0.6 0.4 0.2 -0.1 -0.4 -1 -1.5 -1.5 -1.5 -1.5 -1.5 -1.5 -1.5 -1.5 -1.5 -1.5 -1.5 -1.5 -1.5 -1.5 -1.5 -1.5 -1.5 -1.5 -1.5 -1.5 -1.5 -1.5 -1.5 -1.5 -1.5 -1.5 -1.5 -1.5 -1.5 -1.5 -1.5 -1.5 -1.5 -1.5 -1.5 -1.5 -1.5 -1.5 -1.5 -1.5 -1.5 -1.5 -1.5 -1.5 -1.5 -1.5 3.6 -1.5 6.2 7.4 10 11.2 15.4 18.3 22 26.1 32.7 41.5 45.2 48.4 49.1 46.1 44.9 43.8 43.9 45.9 45.9 45.8 45.7 45.7 45.7 45.6 44.3 41 32.3 31.2 31.2 31.8 32.5 35.9 39.7 42.8 46 48 48.9 49.5 51.6 53.9
-1.5 -1.5 -0.9 -0.6 -0.2 0.1 0.4 0.5 0.7 0.9 1 1 1.3 1.5 4.1 7 10.5 5.8 8.1 6.2 8 4 4.7 6.4 6.1 5.6 8.8 7 7 8.3 7.9 7.4 7.6 6.8 7.3 6.2 6.7 8.6 6.5 7 6.1 6.4 6.6 6.1 6 10.7 9.5 6.4 6.9 7.2 6.1 5.8 7 5.6 5.2 5.3 5.6 6.4 7.6 6.7 4.8 6.2 4.8 5.2 5 4.8 10 5.5 5.4 5.2 5.1 3.8 3.1 2.5 2 1.7 1.4 1.1 0.9 0.6 0.3 0 -0.2 -0.5 -0.8 -1.1 -1.3 -1.5 0.3 1.6 1.6 1.4 1.2 0.9 0.9 0.8 0.8 0.8 0.9 1 0.9 0.9 0.8 0.7 0.5 0.2 0 -0.2 -0.5 -0.7 -1 -1.5 -1.5 -1.5 -1.5 -1.5 -1.5 -1.5 -1.5 -1.5 -1.5 -1.5 -1.5 -1.5 -1.5 -1.5 -1.5 -1.5 -1.5 -1.5 -1.5 -1.5 -1.5 -1.5 -1.5 -1.5 -1.5 -1.5 -1.5 -1.5 -1.5 -1.5 -1.5 -1.5 -1.5 -1.5 -1.5 -1.5 -1.5 -1.5 -1.5 -1.5 -1.5 -1.5 -1.5 -1.5 -1.5 1.8 3.6 5.1 8.8 9.2 9.7 13.4 16.5 21.3 24.9 32 38.6 42.5 45.8 46.6 44.8 43 41.4 40.8 42.7 44.9 44.7 44.5 44.7 44.8 45 45.1 42.8 36.1 30.4 34.9 38.8 39.9 42.3 43 44.7 45.8 48.1 49.7 51.4 52.8 54.1 54.8
-1.5 -1.5 -1.5 -1.1 -0.7 -0.4 -0.2 0 0 0.2 0.3 0.4 0.6 0.9 1.3 1.5 5.4 9.1 10.5 8.3 5.8 6 4.9 5.9 5.8 8.3 7.3 6.5 8.3 8.9 8.1 7.7 7.6 8.4 6.8 6.1 13.8 8.3 7.2 6.4 5.7 5.8 7.4 6.6 7.6 8.8 10.5 10.3 6.8 6.3 6.2 6.2 4.7 4.6 4.9 5.1 5.7 6.8 6 5.7 4.4 4.4 4.4 5.1 5.1 4.6 7.5 5 7.1 4.1 4.1 4.3 3 2.3 1.8 1.6 1.3 1 0.8 0.5 0.3 0 -0.2 -0.5 -0.8 -1 -1.3 -1.5 0 1 1.2 0.9 0.7 0.5 0.5 0.5 0.4 0.4 0.5 0.6 0.4 0.4 0.2 0.1 -0.1 -0.3 -0.6 -0.8 -1.5 -1.5 -1.5 -1.5 -1.5 -1.5 -1.5 -1.5 -1.5 -1.5 -1.5 -1.5 -1.5 -1.5 -1.5 -1.5 -1.5 -1.5 -1.5 -1.5 -1.5 -1.5 -1.5 -1.5 -1.5 -1.5 -1.5 -1.5 -1.5 -1.5 -1.5 -1.5 -1.5 -1.5 -1.5 -1.5 -1.5 -1.5 -1.5 -1.5 -1.5 -1.5 -1.5 -1.5 -1.5 -1.5 -1.5 -1.5 -1.5 1.7 2.7 5.5 8.2 10.8 12.1 13.9 18.6 25.4 35.6 39.5 40.4 42.5 44.3 43.9 41.7 39.9 38.5 40 42.1 44.3 44.1 44.1 44.4 44.6 44.7 43.9 38.4 30.2 32 39 41.4 43.4 45 46.5 48.1 49.4 51.1 52.2 53.1 54.3 55 55.6
-1.5 -1.5 -1.5 -1.5 -1.2 -0.9 -0.8 -0.6 -0.6 -0.5 -0.4 -0.3 0 0.5 0.6 0.7 1.1 1.6 7.6 10.5 11.2 11.5 6.1 6.9 10.8 10.4 7.5 7 8.7 7.7 8.3 8.6 7 6.9 6.4 5.9 10 7.2 7.4 6.1 6.4 7.5 5.9 6.7 5.6 9.2 4.7 6.7 6.7 6.1 5.6 5.1 4.9 4.6 4.9 5.6 5 5.3 5.7 5.3 4.1 4.1 4.2 4.3 5.6 6.6 5.9 6.5 6.7 3.5 4.7 3.5 2.5 2.1 1.7 1.4 1.2 1 0.7 0.5 0.2 0 -0.2 -0.5 -0.7 -1 -1.2 -1.5 -0.6 0.3 0.6 0.5 0.2 0.1 0.1 0.1 0 0 0.1 0.1 -0.1 -0.3 -0.4 -0.5 -0.7 -0.9 -1.5 -1.5 -1.5 -1.5 -1.5 -1.5 -1.5 -1.5 -1.5 -1.5 -1.5 -1.5 -1.5 -1.5 -1.5 -1.5 -1.5 -1.5 -1.5 -1.5 -1.5 -1.5 -1.5 -1.5 -1.5 -1.5 -1.5 -1.5 -1.5 -1.5 -1.5 -1.5 -1.5 -1.5 -1.5 -1.5 -1.5 -1.5 -1.5 -1.5 -1.5 -1.5 -1.5 -1.5 -1.5 -1.5 -1.5 -1.5 -1.5 -1.5 1.7 1.7 2.7 5.2 10.9 12.2 13.2 14.7 25.8 38.9 48 41.6 40.6 41.5 42.7 40.8 38.7 37.1 38.4 40.6 42.5 43.6 43.7 43.7 43.9 44.1 43.3 40.2 31 29.2 38.7 40.5 42.7 45.1 47.1 49.1 50.4 51.4 52.5 53.6 54.2 55.1 55.7 56.5
-1.5 -1.5 -1.5 -1.5 -1.5 -1.5 -1.5 -1.5 -1.5 -1.5 -1.5 -0.9 -0.4 -0.3 -0.2 -0.1 0.3 0.8 1.3 5.1 8.7 11.3 8.4 10.3 12.6 8.9 12.7 10 11.3 8.4 9 9.3 6.6 6.2 6.5 8.7 8.1 7.2 7 6.9 5.6 5.8 5.8 5.3 5.3 6.4 4.6 9 7.3 5.3 5.6 5.2 5 4.7 4.8 4.3 4.4 4.7 4.2 4.3 3.7 3.8 4 5.1 6.4 7 8.9 3.2 4.5 6.4 3.5 3.8 2.6 1.8 1.6 1.4 1.1 0.9 0.7 0.5 0.2 0 -0.2 -0.5 -0.7 -0.9 -1.1 -1.5 -1.5 -0.4 0 0 -0.2 -0.3 -0.3 -0.3 -0.4 -0.4 -0.3 -0.4 -0.6 -0.8 -1.1 -1.5 -1.5 -1.5 -1.5 -1.5 -1.5 -1.5 -1.5 -1.5 -1.5 -1.5 -1.5 -1.5 -1.5 -1.5 -1.5 -1.5 -1.5 -1.5 -1.5 -1.5 -1.5 -1.5 -1.5 -1.5 -1.5 -1.5 -1.5 -1.5 -1.5 -1.5 -1.5 -1.5 -1.5 -1.5 -1.5 -1.5 -1.5 -1.5 -1.5 -1.5 -1.5 -1.5 -1.5 -1.5 -1.5 -1.5 -1.5 -1.5 -1.5 -1.5 -1.5 1.7 1.7 3.1 4.2 9.9 10.4 11.6 14.2 29.4 44.9 48.8 47.7 39.8 39.9 40.7 39 37.5 35.8 36.2 38.8 41 42.3 43 43.3 43.3 43.5 43.9 41.6 35.4 29.3 34.8 40.1 41.8 44.2 46.6 48.6 50.3 51.7 52.8 53.9 54.7 55.2 55.9 56.2 56.2
-1.5 -1.5 -1.5 -1.5 -1.5 -1.5 -1.5 -1.5 -1.5 -1.5 -1.5 -1.5 -1.1 -1 -0.9 -0.8 -0.5 0 0.6 1.2 1.9 9.2 10.8 5.7 12.8 13.3 9 7.4 13.4 8.9 14.2 10.4 6.3 6 7.3 13.6 11.9 9.3 6.7 6.9 6 5.2 5.2 5 6.4 6.1 5 7.4 5.1 7 4.5 5.4 4.9 4.4 4.7 5.5 4.8 5.4 4.2 4.3 3.6 5 4.8 3.5 8.5 8.7 3.2 4.4 4.2 5.2 3.9 2.4 1.9 1.6 1.5 1.3 1.1 0.9 0.7 0.5 0.3 0.1 -0.2 -0.4 -0.6 -0.8 -1 -1.2 -1.5 -1.5 -0.7 -0.5 -0.7 -0.7 -0.7 -0.7 -0.7 -0.8 -0.7 -0.9 -1.1 -1.5 -1.5 -1.5 -1.5 -1.5 -1.5 -1.5 -1.5 -1.5 -1.5 -1.5 -1.5 -1.5 -1.5 -1.5 -1.5 -1.5 -1.5 -1.5 -1.5 -1.5 -1.5 -1.5 -1.5 -1.5 -1.5 -1.5 -1.5 -1.5 -1.5 -1.5 -1.5 -1.5 -1.5 -1.5 -1.5 -1.5 -1.5 -1.5 -1.5 -1.5 -1.5 -1.5 -1.5 -1.5 -1.5 -1.5 -1.5 -1.5 -1.5 -1.5 -1.5 -1.5 -1.5 1.7 2.1 3.6 4.4 8.4 11 12.2 15.1 39.6 58.7 45.5 40.3 37.5 38.1 37.2 35.9 34.6 33 36.1 38.7 40 40.6 41.5 42.1 42.9 43.6 42.9 38.5 31.8 28.2 39.6 41.7 43.7 46 48 49.8 51.4 52.9 54.1 55.1 55.7 56.2 56.3 55.6 55.8
-1.5 -1.5 -1.5 -1.5 -1.5 -1.5 -1.5 -1.5 -1.5 -1.5 -1.5 -1.5 -1.5 -1.5 -1.5 -1.5 -1.5 -0.8 -0.2 0.4 0.9 1.5 8.8 11.4 6.8 6.4 4.3 5.3 14 6 16 7.1 5.8 6.1 11.1 6.8 5.8 10.9 9.2 7.5 6.8 5.7 5.6 5.5 7.1 5.9 5.7 4.9 4.6 4.8 5.2 5.6 4.5 5.4 5 5.6 5.5 5.4 4.3 3.6 4.4 4.6 5.7 3.4 10.1 6 4.8 3.7 4.2 5.6 2.2 1.5 1.7 1.5 1.4 1.3 1.1 0.9 0.7 0.5 0.2 0 -0.2 -0.4 -0.6 -0.8 -1 -1.3 -1.5 -1.5 -1.5 -1 -1.1 -1.1 -1.1 -1.1 -1.1 -1.2 -1.2 -1.4 -1.5 -1.5 -1.5 -1.5 -1.5 -1.5 -1.5 -1.5 -1.5 -1.5 -1.5 -1.5 -1.5 -1.5 -1.5 -1.5 -1.5 -1.5 -1.5 -1.5 -1.5 -1.5 -1.5 -1.5 -1.5 -1.5 -1.5 -1.5 -1.5 -1.5 -1.5 -1.5 -1.5 -1.5 -1.5 -1.5 -1.5 -1.5 -1.5 -1.5 -1.5 -1.5 -1.5 -1.5 -1.5 -1.5 -1.5 -1.5 -1.5 -1.5 -1.5 -1.5 -1.5 -1.5 -1.5 1.7 4 3.7 4.1 6.6 12 14.4 18.3 32.8 43.1 38.9 36 34.8 35.3 33.2 33.3 32.4 31.2 34.6 36.1 37.5 38.8 39.7 41.1 42.4 43.4 41.1 33.8 28.5 34.4 40.4 42.4 45.1 46.9 48.8 49.9 52.3 54.1 55 55.4 56 56.5 55.9 55.6 55.7
-1.5 -1.5 -1.5 -1.5 -1.5 -1.5 -1.5 -1.5 -1.5 -1.5 -1.5 -1.5 -1.5 -1.5 -1.5 -1.5 -1.5 -1.5 -1.5 -0.6 0 0.7 1.3 5.8 8.9 4.8 5.2 5.4 13.2 5.1 10.3 6.9 7 5.2 15.2 5.3 12.2 4.9 12.3 6.1 6.8 6.1 5.6 5.5 7.4 5.2 4.8 5.8 4.8 4.5 6.2 5.4 6.2 7.4 6.5 10.2 7.2 6.4 5.1 4.2 3.5 5.1 3.7 3.1 2.8 3.7 3.4 5.9 6.6 2.2 0.5 1.4 1.6 1.5 1.3 1.1 1 0.8 0.6 0.4 0.2 0 -0.2 -0.4 -0.6 -0.9 -1.1 -1.3 -1.5 -1.5 -1.5 -1.5 -1.5 -1.4 -1.5 -1.5 -1.5 -1.5 -1.5 -1.5 -1.5 -1.5 -1.5 -1.5 -1.5 -1.5 -1.5 -1.5 -1.5 -1.5 -1.5 -1.5 -1.5 -1.5 -1.5 -1.5 -1.5 -1.5 -1.5 -1.5 -1.5 -1.5 -1.5 -1.5 -1.5 -1.5 -1.5 -1.5 -1.5 -1.5 -1.5 -1.5 -1.5 -1.5 -1.5 -1.5 -1.5 -1.5 -1.5 -1.5 -1.5 -1.5 -1.5 -1.5 -1.5 -1.5 -1.5 -1.5 -1.5 -1.5 -1.5 -1.5 -1.5 -1.5 2.3 4.6 5.9 3.6 3.6 7.6 12.6 17.6 22.2 31.7 35.7 33 31.6 31.8 32.2 30.2 18.2 20.4 18.7 25.8 32.6 34.4 34.9 37.7 39.9 41.6 42.2 39.7 29.7 28.3 33.6 40.5 44 46 47.8 49.2 50.2 52.2 54.3 55.2 56 56.8 57 56.7 56 55.4
-1.5 -1.5 -1.5 -1.5 -1.5 -1.5 -1.5 -1.5 -1.5 -1.5 -1.5 -1.5 -1.5 -1.5 -1.5 -1.5 -1.5 -1.5 -1.5 -1.5 -1.5 -0.2 0.5 1 1.6 12.9 5.7 4.1 5.8 5.9 11.5 8.8 5 12.5 6.4 8.8 10.5 5.1 6 4.4 7.2 6.6 4.9 5.5 6.8 5.5 4.6 5.4 4.5 4.7 10.1 9.2 10.2 4.1 12 9.8 8.5 6.8 4.4 4.8 5.6 7.6 3 4.1 3.3 4.4 8 6.2 1.3 1.1 1.5 1.6 1.5 1.4 1.2 1.1 0.9 0.8 0.6 0.4 0.2 0 -0.2 -0.5 -0.7 -0.9 -1.1 -1.3 -1.5 -1.5 -1.5 -1.5 -1.5 -1.5 -1.5 -1.5 -1.5 -1.5 -1.5 -1.5 -1.5 -1.5 -1.5 -1.5 -1.5 -1.5 -1.5 -1.5 -1.5 -1.5 -1.5 -1.5 -1.5 -1.5 -1.5 -1.5 -1.5 -1.5 -1.5 -1.5 -1.5 -1.5 -1.5 -1.5 -1.5 -1.5 -1.5 -1.5 -1.5 -1.5 -1.5 -1.5 -1.5 -1.5 -1.5 -1.5 -1.5 -1.5 -1.5 -1.5 -1.5 -1.5 -1.5 -1.5 -1.5 -1.5 -1.5 -1.5 -1.5 -1.5 -1.5 -1.5 -1.5 -1.5 3.4 6.3 7.7 8.8 4.2 7.8 14.5 18.4 19.7 27.2 30.1 29.3 28.1 28.3 26.4 22.1 16.9 17.9 19.2 19.3 19 23.9 33.9 37.1 39.3 40.4 40.1 36.6 26.9 30 39.6 41.9 43.7 45.9 48 50.1 51.3 52 53.9 56.3 57 57.7 57.6 57.3 56.9 56.3
-1.5 -1.5 -1.5 -1.5 -1.5 -1.5 -1.5 -1.5 -1.5 -1.5 -1.5 -1.5 -1.5 -1.5 -1.5 -1.5 -1.5 -1.5 -1.5 -1.5 -1.5 -1.5 -0.4 0.1 0.8 1.6 11.9 7.6 9.2 15.6 16 9 12.4 14.5 5.5 6 6.9 5 5.1 7.9 10.6 6.3 4.5 6.3 7.8 4.3 4.9 5.6 5.6 6.8 10.7 10.1 6.6 4 5.7 6.3 7.4 5.1 4.4 5.5 8.7 4.6 3.3 3.9 3.7 6.6 4.3 1.2 1.4 1.8 1.6 1.5 1.4 1.3 1.1 1 0.8 0.7 0.5 0.4 0.1 -0.1 -0.3 -0.5 -0.7 -0.9 -1.1 -1.3 -1.5 -1.5 -1.5 -1.5 -1.5 -1.5 -1.5 -1.5 -1.5 -1.5 -1.5 -1.5 -1.5 -1.5 -1.5 -1.5 -1.5 -1.5 -1.5 -1.5 -1.5 -1.5 -1.5 -1.5 -1.5 -1.5 -1.5 -1.5 -1.5 -1.5 -1.5 -1.5 -1.5 -1.5 -1.5 -1.5 -1.5 -1.5 -1.5 -1.5 -1.5 -1.5 -1.5 -1.5 -1.5 -1.5 -1.5 -1.5 -1.5 -1.5 -1.5 -1.5 -1.5 -1.5 -1.5 -1.5 -1.5 -1.5 -1.5 -1.5 -1.5 -1.5 -1.5 -1.5 -1.5 -1.5 3.1 6.4 7.7 9.1 5.2 5.9 13.3 18.6 22.4 19.4 25.6 25.2 23.5 22.5 15 22.7 23.7 28.5 28.3 30.2 26.5 20.1 25.3 36.7 37.9 37.4 29 25.7 25.6 32.9 42 44 45.4 47.2 48 49.8 52.3 52.4 54.3 57.1 57.9 58.5 58.2 57.7 57.1 56.3
-1.5 -1.5 -1.5 -1.5 -1.5 -1.5 -1.5 -1.5 -1.5 -1.5 -1.5 -1.5 -1.5 -1.5 -1.5 -1.5 -1.5 -1.5 -1.5 -1.5 -1.5 -1.5 -1.5 -0.6 0.1 0.8 1.6 12.4 5.2 11.3 13.7 13.7 10 12.8 4.9 11.9 9.4 7.4 13 13.3 9 5.4 4.7 3.6 5 3.7 4.7 5.4 4.6 6.6 7.3 4.4 4 3.7 3.5 3.7 4.3 6.2 6.4 3.3 4.7 4.1 8.2 7.2 6.9 2.7 2.1 1.5 1.7 1.7 1.5 1.4 1.3 1.1 1 0.9 0.7 0.6 0.4 0.3 0.1 -0.1 -0.3 -0.5 -0.7 -0.9 -1.2 -1.4 -1.5 -1.5 -1.5 -1.5 -1.5 -1.5 -1.5 -1.5 -1.5 -1.5 -1.5 -1.5 -1.5 -1.5 -1.5 -1.5 -1.5 -1.5 -1.5 -1.5 -1.5 -1.5 -1.5 -1.5 -1.5 -1.5 -1.5 -1.5 -1.5 -1.5 -1.5 -1.5 -1.5 -1.5 -1.5 -1.5 -1.5 -1.5 -1.5 -1.5 -1.5 -1.5 -1.5 -1.5 -1.5 -1.5 -1.5 -1.5 -1.5 -1.5 -1.5 -1.5 -1.5 -1.5 -1.5 -1.5 -1.5 -1.5 -1.5 -1.5 -1.5 -1.5 -1.5 -1.5 -1.5 -1.5 5.6 7.3 8.8 10.2 5.3 5.7 11.3 14.7 18.5 15.3 17.9 17.9 15.6 14.1 18.3 26 28.9 31.2 32 33 33 29.7 20.2 24.9 26.6 23 24.2 24.7 31.7 42.6 44.8 46.6 47.3 48.1 48.9 49.3 51.9 53.1 55.6 57.9 58.5 59.1 58.5 58 57 56
-1.5 -1.5 -1.5 -1.5 -1.5 -1.5 -1.5 -1.5 -1.5 -1.5 -1.5 -1.5 -1.5 -1.5 -1.5 -1.5 -1.5 -1.5 -1.5 -1.5 -1.5 -1.5 -1.5 -1.5 -0.7 0.1 0.9 1.8 12.9 6.6 5.3 7.3 4.7 7.4 11.2 6.2 13.3 17.3 21.9 13.8 8.3 10.4 3.7 7 6.9 4.3 5.7 4.6 3.7 5.7 3.8 6.1 3.7 3.7 3.5 3.4 7.9 5.9 3.1 5.3 6 6.3 6 3.1 2.3 2 1.8 1.7 1.7 1.7 1.5 1.3 1.2 1 0.9 0.7 0.6 0.5 0.3 0.2 0 -0.1 -0.3 -0.5 -0.8 -1 -1.2 -1.4 -1.5 -1.5 -1.5 -1.5 -1.5 -1.5 -1.5 -1.5 -1.5 -1.5 -1.5 -1.5 -1.5 -1.5 -1.5 -1.5 -1.5 -1.5 -1.5 -1.5 -1.5 -1.5 -1.5 -1.5 -1.5 -1.5 -1.5 -1.5 -1.5 -1.5 -1.5 -1.5 -1.5 -1.5 -1.5 -1.5 -1.5 -1.5 -1.5 -1.5 -1.5 -1.5 -1.5 -1.5 -1.5 -1.5 -1.5 -1.5 -1.5 -1.5 -1.5 -1.5 -1.5 -1.5 -1.5 -1.5 -1.5 -1.5 -1.5 -1 -0.8 -1 -1.2 -1 -1.5 -1.5 8 8.5 10.2 10.3 9.4 10.8 11.2 11.3 11.9 12.8 12.8 12.5 14.6 20.2 26.3 29.1 32.5 33.1 33.3 33.3 34.4 35.4 27.3 22.2 23.7 25 30.6 38.1 43.4 45.3 47.2 47.8 48.3 49 49.4 51.3 52.7 55.5 56.5 57.5 60.4 59.6 58.3 57.2 56 55.1
-1.5 -1.5 -1.5 -1.5 -1.5 -1.5 -1.5 -1.5 -1.5 -1.5 -1.5 -1.5 -1.5 -1.5 -1.5 -1.5 -1.5 -1.5 -1.5 -1.5 -1.5 -1.5 -1.5 -1.5 -1.5 -0.4 0.4 1.1 1.7 14 7.7 5.1 11.5 8.8 3.9 4 12.8 12 19.2 13.3 4.5 7.5 7.8 9.2 6.1 8.1 10.4 6 5 4.2 9.2 4.4 3.5 4.6 3.4 3.4 9.2 4.8 3.3 3.8 6 3.1 1.7 2.1 2.3 1.8 1.7 1.7 1.7 1.6 1.5 1.3 1.1 0.9 0.8 0.7 0.5 0.4 0.2 0.1 -0.1 -0.2 -0.4 -0.6 -0.8 -1 -1.2 -1.4 -1.5 -1.5 -1.5 -1.5 -1.5 -1.5 -1.5 -1.5 -1.5 -1.5 -1.5 -1.5 -1.5 -1.5 -1.5 -1.5 -1.5 -1.5 -1.5 -1.5 -1.5 -1.5 -1.5 -1.5 -1.5 -1.5 -1.5 -1.5 -1.5 -1.5 -1.5 -1.5 -1.5 -1.5 -1.5 -1.5 -1.5 -1.5 -1.5 -1.5 -1.5 -1.5 -1.5 -1.5 -1.5 -1.5 -1.5 -1.5 -1.5 -1.5 -1.5 -1.5 -1.5 -1.5 -1.5 -1.5 -1.5 -1.5 2.2 3 3.7 3.7 2.3 1.3 -1.5 -1.5 7.6 9.4 14.8 12.9 11.4 11.8 13.4 13.8 13.9 15.2 14.1 19.9 23.1 28.5 31.8 32.2 34.3 34.5 36 37.2 37.5 37.1 33.2 27.5 28.3 35.5 41.7 44.3 46.5 47.6 48.9 48.5 48.5 49.2 49.4 49.4 53.7 54.6 59.3 60.2 60.4 59.6 57.6 56.3 55 53.8
-1.5 -1.5 -1.5 -1.5 -1.5 -1.5 -1.5 -1.5 -1.5 -1.5 -1.5 -1.5 -1.5 -1.5 -1.5 -1.5 -1.5 -1.5 -1.5 -1.5 -1.5 -1.5 -1.5 -1.5 -1.5 -0.9 -0.1 0.5 1.2 3.4 12.7 6.7 13.8 12.7 6 7.6 6.7 6.6 21.7 14.4 4.2 11 8.4 5.8 10.5 10.1 10.6 8.6 6.7 4.9 9.2 4.2 4 6.7 3.6 7.1 2.7 3.4 3.7 6.8 2.7 0.4 0.4 1.2 2.1 1.7 1.7 1.7 1.7 1.6 1.4 1.3 1.1 0.9 0.7 0.6 0.4 0.3 0.1 0 -0.2 -0.3 -0.5 -0.6 -0.8 -1 -1.2 -1.5 -1.5 -1.5 -1.5 -1.5 -1.5 -1.5 -1.5 -1.5 -1.5 -1.5 -1.5 -1.5 -1.5 -1.5 -1.5 -1.5 -1.5 -1.5 -1.5 -1.5 -1.5 -1.5 -1.5 -1.5 -1.5 -1.5 -1.5 -1.5 -1.5 -1.5 -1.5 -1.5 -1.5 -1.5 -1.5 -1.5 -1.5 -1.5 -1.5 -1.5 -1.5 -1.5 -1.5 -1.5 -1.5 -1.5 -1.5 -1.5 -1.5 -1.5 -1.5 -1.5 -1.5 -0.2 0.6 1.1 3.2 5.3 5.3 6 6.8 7.4 8.5 10.6 -1.5 -1.5 -1.5 4.9 4.1 4.8 5.3 11.6 13 14.7 16.3 18 17.9 23.6 27.2 30.7 33.3 35.4 36.6 38.4 39.4 40.2 40.4 40.7 40.3 37.5 38 41.9 45.2 46.9 48.6 50.2 50.3 49.8 49.1 49.2 50 52.3 54.6 58 60.2 60.4 60.4 59.3 57.3 55.3 54.1 52.8
-1.5 -1.5 -1.5 -1.5 -1.5 -1.5 -1.5 -1.5 -1.5 -1.5 -1.5 -1.5 -1.5 -1.5 -1.5 -1.5 -1.5 -1.5 -1.5 -1.5 -1.5 -1.5 -1.5 -1.5 -1.5 -1.5 -0.7 0 0.6 1.2 4.9 10.2 15.4 12 8.5 4 4.1 6.9 17.9 14.7 7.6 9.5 10.2 12.3 17.4 3 12.5 3.6 7.4 10.4 9.5 3.6 5.9 10.1 5.3 4.2 3.6 3.1 7.6 2.7 2.1 1.4 0.7 1.1 1.5 1.7 1.7 1.7 1.7 1.6 1.4 1.2 1 0.9 0.7 0.5 0.3 0.2 0.1 -0.1 -0.3 -0.4 -0.6 -0.7 -0.9 -1.1 -1.3 -1.5 -1.5 -1.5 -1.5 -1.5 -1.5 -1.5 -1.5 -1.5 -1.5 -1.5 -1.5 -1.5 -1.5 -1.5 -1.5 -1.5 -1.5 -1.5 -1.5 -1.5 -1.5 -1.5 -1.5 -1.5 -1.5 -1.5 -1.5 -1.5 -1.5 -1.5 -1.5 -1.5 -1.5 -1.5 -1.5 -1.5 -1.5 -1.5 -1.5 -1.5 -1.5 -1.5 -1.5 -1.5 -1.5 -1.5 -1.5 -1.5 -1.5 -1.5 -1.5 -0.2 0.5 1.3 1.9 4.4 6.1 6.8 8.1 7.6 8.2 8.7 9.2 10.2 6.1 -1.5 -1.5 -1.5 -1.5 -1.5 -1.5 4 12.5 14 16.2 20 22 25.6 29.1 32.2 34.5 38.3 40.1 42.1 42.2 43 43 42.3 41.6 40.6 41.3 44 47.6 49.3 50.8 51.8 51.6 50.9 50.2 50.5 50.9 52.6 56.3 57.7 59.7 60.5 60.4 58.7 56.4 54.9 53.4 51.9
-1.5 -1.5 -1.5 -1.5 -1.5 -1.5 -1.5 -1.5 -1.5 -1.5 -1.5 -1.5 -1.5 -1.5 -1.5 -1.5 -1.5 -1.5 -1.5 -1.5 -1.5 -1.5 -1.5 -1.5 -1.5 -1.5 -1.5 -0.6 0 0.7 1.3 1 8.9 14.6 6.5 3.7 3.8 4.3 16.1 12.9 10.7 8.4 10.7 14.3 10 4.6 3.7 4 9.2 12.4 8.5 3 3.2 7.1 6.7 3.7 3 7.2 3.5 2.6 2.3 2.2 1.6 1.3 1.7 1.7 1.7 1.7 1.7 1.6 1.4 1.2 1 0.8 0.7 0.5 0.3 0.1 0 -0.2 -0.3 -0.5 -0.7 -0.8 -1 -1.1 -1.3 -1.5 -1.5 -1.5 -1.5 -1.5 -1.5 -1.5 -1.5 -1.5 -1.5 -1.5 -1.5 -1.5 -1.5 -1.5 -1.5 -1.5 -1.5 -1.5 -1.5 -1.5 -1.5 -1.5 -1.5 -1.5 -1.5 -1.5 -1.5 -1.5 -1.5 -1.5 -1.5 -1.5 -1.5 -1.5 -1.5 -1.5 -1.5 -1.5 -1.5 -1.5 -1.5 -1.5 -1.5 -1.5 -1.5 -1.5 -1.5 -1.5 -1.5 -0.4 0.4 1 1.8 2.5 3.5 5.4 6.8 7.1 9.2 12.5 11 13 10.6 11.2 11.2 2.3 1.7 0.7 -1.5 -1.5 -1.5 -1.5 4.6 13 16.1 21.4 23.2 27.1 30.3 34.2 38.9 41.4 43.9 45.2 45.3 44.7 44 43.3 42.6 41.4 43.1 46.4 49.2 51 52.5 52.7 52.5 52 51.8 51.3 51.1 53 55.7 58.5 60.5 61 59.8 57.5 55.5 53.5 52.2 50.2
-1.5 -1.5 -1.5 -1.5 -1.5 -1.5 -1.5 -1.5 -1.5 -1.5 -1.5 -1.5 -1.5 -1.5 -1.5 -1.5 -1.5 -1.5 -1.5 -1.5 -1.5 -1.5 -1.5 -1.5 -1.5 -1.5 -1.5 -1.5 -0.5 0.1 0.7 1.3 3 8.1 8.9 7.9 4.1 2.7 18.2 13.8 10.4 10.7 8.6 3.4 5.2 2.3 1 6.8 2.9 5 6 3.7 8.6 4.9 4.3 6.1 7.5 3.1 2.9 2.5 2.2 2.1 1.9 1.8 1.7 1.7 1.7 1.7 1.7 1.6 1.4 1.2 1 0.8 0.6 0.4 0.3 0.1 -0.1 -0.2 -0.4 -0.6 -0.7 -0.9 -1 -1.2 -1.4 -1.5 -1.5 -1.5 -1.5 -1.5 -1.5 -1.5 -1.5 -1.5 -1.5 -1.5 -1.5 -1.5 -1.5 -1.5 -1.5 -1.5 -1.5 -1.5 -1.5 -1.5 -1.5 -1.5 -1.5 -1.5 -1.5 -1.5 -1.5 -1.5 -1.5 -1.5 -1.5 -1.5 -1.5 -1.5 -1.5 -1.5 -1.5 -1.5 -1.5 -1.5 -1.5 -1.5 -1.5 -1.5 -1.5 -1.5 -1.5 -0.5 0.3 1.1 2 2.8 3.9 5.2 6.5 7.4 8.8 10.4 15.4 19.5 22.4 21.9 20.4 22.6 24.7 23 16.8 7 5.2 1.7 1.7 -1.5 -1.5 3.8 13.1 21.1 22.9 26.7 31.9 37 40.4 43.3 46.4 47.8 46.9 45.7 43.8 42.9 42.1 42.2 44.8 48.3 50.6 51.9 52.6 52.8 52.8 52.8 52.6 52.1 51.8 53.2 56.7 57.5 55.8 59.5 56.7 55.3 54.2 52.9 51.5 50
-1.5 -1.5 -1.5 -1.5 -1.5 -1.5 -1.5 -1.5 -1.5 -1.5 -1.5 -1.5 -1.5 -1.5 -1.5 -1.5 -1.5 -1.5 -1.5 -1.5 -1.5 -1.5 -1.5 -1.5 -1.5 -1.5 -1.5 -1.5 -1 -0.4 0.1 0.7 1.2 2.4 12.6 14 4.1 4.6 16.4 16.1 10.3 8.4 8.5 7.1 7.2 3.3 8.4 4.1 4 3.9 2.6 8.5 8.3 7.5 4.8 2.9 2.9 2.8 2.5 2.4 2 1.9 1.8 1.7 1.7 1.7 1.7 1.7 1.7 1.6 1.4 1.2 1 0.8 0.6 0.4 0.2 0 -0.1 -0.3 -0.5 -0.6 -0.8 -0.9 -1.1 -1.3 -1.5 -1.5 -1.5 -1.5 -1.5 -1.5 -1.5 -1.5 -1.5 -1.5 -1.5 -1.5 -1.5 -1.5 -1.5 -1.5 -1.5 -1.5 -1.5 -1.5 -1.5 -1.5 -1.5 -1.5 -1.5 -1.5 -1.5 -1.5 -1.5 -1.5 -1.5 -1.5 -1.5 -1.5 -1.5 -1.5 -1.5 -1.5 -1.5 -1.5 -1.5 -1.5 -1.5 -1.5 -1.5 -1.5 -1.5 -1.5 -0.1 0.8 1.6 2.6 3.9 4.7 5.9 9.8 11.6 12.1 12.3 20.4 25.2 28.1 27 31.2 36.5 41.3 39.2 31.5 23.1 14.6 12.4 12.2 1.7 1.7 -1.5 -1.5 -1.5 11.4 22.7 26.9 33.1 37.6 40.8 44.7 46.7 48.6 48.2 46.2 43.5 41.7 41.1 43.1 46.9 48.7 48.9 51 52.2 52.6 52.2 50.1 51.3 50.6 50.6 52 51.7 51.5 51.7 51.9 54.2 50.8 51 50.2 48.5 47.1
-1.5 -1.5 -1.5 -1.5 -1.5 -1.5 -1.5 -1.5 -1.5 -1.5 -1.5 -1.5 -1.5 -1.5 -1.5 -1.5 -1.5 -1.5 -1.5 -1.5 -1.5 -1.5 -1.5 -1.5 -1.5 -1.5 -1.5 -1.5 -1 -0.4 0.1 0.7 1.2 1.5 1.7 7.6 14.4 8.3 6.7 14.7 11.9 9.9 5.5 3.5 2.4 0 3.7 1.3 6.6 2.7 5 7.6 6.8 2.9 2.7 2.4 2.4 2.4 2.2 2.1 1.8 1.8 1.7 1.7 1.7 1.7 1.7 1.7 1.7 1.6 1.4 1.2 1 0.8 0.6 0.4 0.2 0 -0.2 -0.3 -0.5 -0.7 -0.8 -1 -1.2 -1.3 -1.5 -1.5 -1.5 -1.5 -1.5 -1.5 -1.5 -1.5 -1.5 -1.5 -1.5 -1.5 -1.5 -1.5 -1.5 -1.5 -1.5 -1.5 -1.5 -1.5 -1.5 -1.5 -1.5 -1.5 -1.5 -1.5 -1.5 -1.5 -1.5 -1.5 -1.5 -1.5 -1.5 -1.5 -1.5 -1.5 -1.5 -1.5 -1.5 -1.5 -1.5 -1.5 -1.5 -1.5 -1.5 -1.5 -1.5 0.8 1.5 2.3 2.4 4.2 5.9 7.2 10.2 15.7 11.6 11.3 14 22 26.6 29.8 29.4 35 38 45.1 43.8 34.8 28 15.9 14.1 13.5 12.6 1.7 0.9 -1.5 -1.5 3.7 22.1 26.6 32.5 36.9 40.4 44.4 46.2 47.6 46.1 44.4 41.4 40.5 41.4 44.6 47.8 47.5 48.2 49.3 50.3 51.1 48.4 46.3 45.7 40.3 40.7 42.7 46.9 47.3 51.5 50.6 49.3 49.7 47.9 45.9 45.2 43.2
-1.5 -1.5 -1.5 -1.5 -1.5 -1.5 -1.5 -1.5 -1.5 -1.5 -1.5 -1.5 -1.5 -1.5 -1.5 -1.5 -1.5 -1.5 -1.5 -1.5 -1.5 -1.5 -1.5 -1.5 -1.5 -1.5 -1.5 -1.5 -1 -0.4 0.1 0.7 1 1.2 1.5 1.7 5.9 13.3 8.2 6.3 9.5 4.6 3.2 2.6 1 1.2 0.5 0.9 2.2 0.1 4.1 3 2.9 1.8 1.9 1.9 1.9 2 1.8 1.7 1.7 1.7 1.7 1.7 1.7 1.7 1.7 1.7 1.7 1.6 1.4 1.2 1 0.8 0.6 0.4 0.2 0 -0.2 -0.4 -0.6 -0.7 -0.9 -1.1 -1.2 -1.4 -1.5 -1.5 -1.5 -1.5 -1.5 -1.5 -1.5 -1.5 -1.5 -1.5 -1.5 -1.5 -1.5 -1.5 -1.5 -1.5 -1.5 -1.5 -1.5 -1.5 -1.5 -1.5 -1.5 -1.5 -1.5 -1.5 -1.5 -1.5 -1.5 -1.5 -1.5 -1.5 -1.5 -1.5 -1.5 -1.5 -1.5 -1.5 -1.5 -1.5 -1.5 -1.5 -1.5 -1.5 -1.5 0.6 2.4 2.5 3 3.3 3.8 5.4 7.4 9.4 11 9.3 10.6 13.9 16.2 19.6 23.8 25 25.4 29.7 34.8 36.2 34.5 27 21.2 15.8 15.2 14.3 13.5 14.1 9.8 -1.5 -1.5 -1.5 10.9 24.9 30.4 35.3 39.2 42.3 43.9 44.8 44.1 42.3 40.2 39.9 42.6 45.7 46.8 46.9 47.2 47.5 48.1 47.8 45 41.9 36.7 28.1 28.1 30.1 38.6 44.3 45.2 46.1 47.7 47 44.9 35.7 34.8 33.1
-1.5 -1.5 -1.5 -1.5 -1.5 -1.5 -1.5 -1.5 -1.5 -1.5 -1.5 -1.5 -1.5 -1.5 -1.5 -1.5 -1.5 -1.5 -1.5 -1.5 -1.5 -1.5 -1.5 -1.5 -1.5 -1.5 -1.5 -1.5 -0.9 -0.4 0.2 0.5 0.7 1 1.2 1.4 1.6 4.1 13.3 13.1 10.5 9.8 8.9 4.3 3.1 1.9 0.3 0.5 0.3 0.9 0.6 1.5 1.5 0.8 1.5 1.6 1.6 1.6 1.6 1.5 1.8 1.8 1.7 1.7 1.7 1.7 1.7 1.7 1.7 1.6 1.4 1.2 1 0.8 0.6 0.4 0.2 0 -0.2 -0.4 -0.6 -0.8 -0.9 -1.1 -1.3 -1.5 -1.5 -1.5 -1.5 -1.5 -1.5 -1.5 -1.5 -1.5 -1.5 -1.5 -1.5 -1.5 -1.5 -1.5 -1.5 -1.5 -1.5 -1.5 -1.5 -1.5 -1.5 -1.5 -1.5 -1.5 -1.5 -1.5 -1.5 -1.5 -1.5 -1.5 -1.5 -1.5 -1.5 -1.5 -1.5 -1.5 -1.5 -1.5 -1.5 -1.5 -1.5 -1.5 -1.5 0.1 1.3 2.4 2.4 3.1 4 4.3 5.1 6.7 8.3 8.7 9.7 10.5 12.9 14.9 17.3 22.3 24.5 24.4 25 27.7 30.5 29.5 25.2 19 16.6 16.1 15.7 15 14.8 15.5 13.9 1.2 -1.5 -1.5 5.9 23.2 28.5 33.1 36.4 39.9 40.8 41.9 40.7 38.6 38.7 39.7 42.6 45.2 45.8 45.6 44.8 44.7 44.5 43.5 39.9 37.2 21.5 18.7 19.9 19.7 29.4 40.1 44.3 45.6 47.2 46.4 39.4 26.8 27.2 27.9
-1.5 -1.5 -1.5 -1.5 -1.5 -1.5 -1.5 -1.5 -1.5 -1.5 -1.5 -1.5 -1.5 -1.5 -1.5 -1.5 -1.5 -1.5 -1.5 -1.5 -1.5 -1.5 -1.5 -1.5 -1.5 -1.5 -1.5 -1.5 -0.9 -0.4 0 0.3 0.5 0.7 1 1.1 1.3 1.5 1.6 7.4 9.3 7.9 6.8 4.2 3.2 2.3 3 2.6 0.9 1.9 1 0.8 1 0.5 1.2 1.3 1.3 1.3 1.2 1.6 1.8 1.8 1.8 1.7 1.7 1.7 1.7 1.7 1.7 1.6 1.4 1.2 1 0.8 0.6 0.4 0.2 0 -0.2 -0.4 -0.6 -0.8 -1 -1.2 -1.3 -1.5 -1.5 -1.5 -1.5 -1.5 -1.5 -1.5 -1.5 -1.5 -1.5 -1.5 -1.5 -1.5 -1.5 -1.5 -1.5 -1.5 -1.5 -1.5 -1.5 -1.5 -1.5 -1.5 -1.5 -1.5 -1.5 -1.5 -1.5 -1.5 -1.5 -1.5 -1.5 -1.5 -1.5 -1.5 -1.5 -1.5 -1.5 -1.5 -1.5 -1.5 -1.5 -1.5 -0.3 1.2 2.5 2 3.1 3.9 4.8 5.2 6.5 8.4 10.3 10 11 12 13.7 15.4 18.5 22.2 23.4 24.6 24.4 21.5 18.8 17.8 16.8 16.6 17.2 16.7 16.2 15.8 15.9 16.3 16.3 -1.5 -1.5 -1.5 9.4 22.4 26.8 31.1 32.3 35.1 36.9 37.4 37.3 36.4 37.8 38.6 41.2 42.7 42.7 42.4 41.6 41.4 41.3 39.6 36 31.7 21 20.7 21.3 20.5 19.2 31.9 43.3 45.9 47.3 44.7 36.1 27.1 29.5 28.4
-1.5 -1.5 -1.5 -1.5 -1.5 -1.5 -1.5 -1.5 -1.5 -1.5 -1.5 -1.5 -1.5 -1.5 -1.5 -1.5 -1.5 -1.5 -1.5 -1.5 -1.5 -1.5 -1.5 -1.5 -1.5 -1.5 -1.5 -1.5 -0.9 -0.5 -0.2 0 0.2 0.5 0.7 0.9 1 1.1 1.3 1.5 3.3 6.8 11.3 5 4.1 3.4 3.9 3.3 2.5 0.9 0.1 0.3 1.1 1.8 2.2 0.8 1 1 0.9 1.8 1.9 1.9 1.8 1.8 1.7 1.7 1.7 1.7 1.7 1.6 1.4 1.2 1 0.8 0.6 0.4 0.2 0 -0.2 -0.4 -0.6 -0.7 -0.9 -1.1 -1.4 -1.5 -1.5 -1.5 -1.5 -1.5 -1.5 -1.5 -1.5 -1.5 -1.5 -1.5 -1.5 -1.5 -1.5 -1.5 -1.5 -1.5 -1.5 -1.5 -1.5 -1.5 -1.5 -1.5 -1.5 -1.5 -1.5 -1.5 -1.5 -1.5 -1.5 -1.5 -1.5 -1.5 -1.5 -1.5 -1.5 -1.5 -1.5 -1.5 -1.5 -1.5 -1.5 -1.5 1.7 3.4 3 4.2 6.1 6.8 7.5 6.1 6.6 8 10.7 10.5 10.9 11.5 12 13.4 15.8 18.5 21.5 20.4 18.4 15.5 16 16.3 16.3 17.1 17.3 17.2 17.9 18 17 17.7 -1.5 -1.5 -1.5 2.4 16.3 21.9 26.1 27.5 27.5 32.1 33.5 34.9 34.6 35.5 36.5 37.1 38.4 39.4 39.2 38.9 38.6 38.4 37.5 35.5 30.7 20.1 18.2 22.6 24.6 24.5 20.9 20.1 27.1 32.8 35.8 29.4 28.4 28.4 30.8 30
-1.5 -1.5 -1.5 -1.5 -1.5 -1.5 -1.5 -1.5 -1.5 -1.5 -1.5 -1.5 -1.5 -1.5 -1.5 -1.5 -1.5 -1.5 -1.5 -1.5 -1.5 -1.5 -1.5 -1.5 -1.5 -1.5 -1.5 -1.4 -0.9 -0.7 -0.5 -0.2 0 0.2 0.4 0.6 0.7 0.7 0.9 1.1 1.4 3.1 5 15 10.1 7.3 9.3 0.7 2.2 0.9 1.8 3 3.4 4.7 3.3 1.8 1.9 1.2 0.9 2 2 1.9 1.9 1.8 1.8 1.8 1.8 1.7 1.7 1.6 1.4 1.2 1 0.8 0.6 0.4 0.2 0.1 -0.1 -0.3 -0.5 -0.8 -1 -1.2 -1.5 -1.5 -1.5 -1.5 -1.5 -1.5 -1.5 -1.5 -1.5 -1.5 -1.5 -1.5 -1.5 -1.5 -1.5 -1.5 -1.5 -1.5 -1.5 -1.5 -1.5 -1.5 -1.5 -1.5 -1.5 -1.5 -1.5 -1.5 -1.5 -1.5 -1.5 -1.5 -1.5 -1.5 -1.5 -1.5 -1.5 -1.5 -1.5 -1.5 -1.5 -1.5 -1.5 2.6 5.7 7 6.3 8.2 10.6 12 16 7.5 8 9.9 10.3 10.5 10.7 11.2 11.6 12.1 13.2 14.1 17.1 17.1 14.8 14.3 15.5 16.6 16.8 18.6 18.5 20.9 23.2 22.8 18.9 -1.5 -1.5 -1.5 2.4 11 18.4 20.8 24.9 27.4 27.5 30.7 31.9 33.1 33.8 35 34.8 34.8 34.9 36 36.3 36 35.7 35.6 34.7 29 18.3 16.8 21.3 23 25 22.9 22 23.1 22 23.6 24.7 25.9 24.4 28.1 32.1 34.6
-1.5 -1.5 -1.5 -1.5 -1.5 -1.5 -1.5 -1.5 -1.5 -1.5 -1.5 -1.5 -1.5 -1.5 -1.5 -1.5 -1.5 -1.5 -1.5 -1.5 -1.5 -1.5 -1.5 -1.5 -1.5 -1.5 -1.5 -1.5 -1.2 -0.9 -0.7 -0.5 -0.3 0 0.1 0.2 0.3 0.4 0.5 0.7 0.9 1.2 1.5 4.4 8.2 8.9 13.5 1.3 2.4 1.8 7 4.5 3.8 4.5 1.6 1.9 1.5 0.9 2.7 1.7 2.1 2.1 2.1 2.1 1.8 1.9 1.9 1.8 1.7 1.6 1.4 1.2 1 0.9 0.7 0.5 0.3 0.1 -0.1 -0.4 -0.5 -0.7 -0.9 -1.1 -1.5 -1.5 -1.5 -1.5 -1.5 -1.5 -1.5 -1.5 -1.5 -1.5 -1.5 -1.5 -1.5 -1.5 -1.5 -1.5 -1.5 -1.5 -1.5 -1.5 -1.5 -1.5 -1.5 -1.5 -1.5 -1.5 -1.5 -1.5 -1.5 -1.5 -1.5 -1.5 -1.5 -1.5 -1.5 -1.5 -1.5 -1.5 -1.5 -1.5 -1.5 -1.5 4.9 11.8 14 8.5 12.4 10.4 10.8 13.6 9.3 7.1 8.1 9.4 10.5 11.1 11.3 11.6 11.8 12.4 13.3 14.4 13.7 13.9 12.5 13.9 15.1 16.4 18.2 20.1 21.9 24.1 24.6 24.5 24 -1.5 1.3 3.2 3.9 17 18.2 20.6 24.5 26.7 27.6 28.6 31.5 32.3 33.2 33.9 33.3 32.9 33 33 33.3 32.8 32.5 25.2 25.9 24.1 19.1 22.5 23.4 26 30.1 25.4 22.4 23.3 22.4 22.4 21.1 23.2 24 30.8 32.5 37.2
-1.5 -1.5 -1.5 -1.5 -1.5 -1.5 -1.5 -1.5 -1.5 -1.5 -1.5 -1.5 -1.5 -1.5 -1.5 -1.5 -1.5 -1.5 -1.5 -1.5 -1.5 -1.5 -1.5 -1.5 -1.5 -1.5 -1.5 -1.5 -1.4 -1.2 -1 -0.7 -0.5 -0.3 -0.2 -0.1 -0.1 0 0.2 0.3 0.4 0.6 0.9 1.3 2.2 4.2 8.5 3.5 3.6 3.2 11.5 4.3 6.2 3.3 2.3 0.8 0.6 1.5 1.4 0.8 2.1 2.4 2.4 2.2 2 2.1 2.1 1.9 1.8 1.7 1.5 1.3 1.2 0.9 0.7 0.6 0.4 0.2 0 -0.1 -0.3 -0.6 -0.8 -1.1 -1.5 -1.5 -1.5 -1.5 -1.5 -1.5 -1.5 -1.5 -1.5 -1.5 -1.5 -1.5 -1.5 -1.5 -1.5 -1.5 -1.5 -1.5 -1.5 -1.5 -1.5 -1.5 -1.5 -1.5 -1.5 -1.5 -1.5 -1.5 -1.5 -1.5 -1.5 -1.5 -1.5 -1.5 -1.5 -1.5 -1.5 -1.5 -1.5 -1.5 -1.5 2.5 13.2 13.9 11.2 10.3 11.8 11.2 9.9 7.8 6.6 6.7 7.6 8.7 9.8 11 11.9 12.2 12.6 13.7 16.1 16.7 16.1 13.9 13.8 14.6 15.9 17.6 19.7 21.7 24.3 25.6 26.5 26.2 22.1 -1.5 3.9 3.7 8.4 17.4 17.7 20.2 24.8 28 29.8 30.9 32.7 33.7 32.6 32.4 31.8 31.3 31.2 31.9 32.2 32.8 28.5 19.1 18.7 15.8 20.7 23.1 24.2 28.7 31.6 31.8 25.8 23.2 24.1 25.6 20.5 22.9 27.5 30.2 32.4 40.9
-1.5 -1.5 -1.5 -1.5 -1.5 -1.5 -1.5 -1.5 -1.5 -1.5 -1.5 -1.5 -1.5 -1.5 -1.5 -1.5 -1.5 -1.5 -1.5 -1.5 -1.5 -1.5 -1.5 -1.5 -1.5 -1.5 -1.5 -1.5 -1.5 -1.4 -1.2 -1 -0.8 -0.6 -0.5 -0.4 -0.4 -0.4 -0.3 -0.2 -0.1 0 0.3 0.6 1.1 1.6 2.6 5.1 6.9 6 6.7 4.7 3.2 4.3 8 2.3 2.4 1.9 1.5 1.6 1.7 2.5 2.2 3.5 2.6 2.8 2.2 2 1.9 1.9 1.7 1.5 1.3 1.1 1 0.8 0.6 0.4 0.3 0 -0.3 -0.6 -0.8 -1.1 -1.5 -1.5 -1.5 -1.5 -1.5 -1.5 -1.5 -1.5 -1.5 -1.5 -1.5 -1.5 -1.5 -1.5 -1.5 -1.5 -1.5 -1.5 -1.5 -1.5 -1.5 -1.5 -1.5 -1.5 -1.5 -1.5 -1.5 -1.5 -1.5 -1.5 -1.5 -1.5 -1.5 -1.5 -1.5 -1.5 -1.5 -1.5 -1.5 0.3 2.4 8.7 8.1 7.9 6.8 8.5 9.9 10 9.1 7.9 7.3 7.9 8.7 8.7 10.1 11.5 12.1 12.8 13.6 15.1 16.4 17.7 17.6 15.8 16.1 16.7 17.7 20.7 22.8 25.6 27.8 28.5 28.8 28.9 22.4 -1.5 4.5 5.5 9.6 17.7 18 20.8 27.7 29.8 31.6 33.4 34.9 34 31.8 30 29.6 29.4 30.9 31.7 32.1 32.1 20 18.9 16.2 19.1 21.2 23 24.1 29.9 31.7 32.4 33.2 30.9 27.9 27.8 27.4 28.9 30.3 31.9 32.8 40.6
-1.5 -1.5 -1.5 -1.5 -1.5 -1.5 -1.5 -1.5 -1.5 -1.5 -1.5 -1.5 -1.5 -1.5 -1.5 -1.5 -1.5 -1.5 -1.5 -1.5 -1.5 -1.5 -1.5 -1.5 -1.5 -1.5 -1.5 -1.5 -1.5 -1.5 -1.5 -1.2 -1.1 -1 -0.8 -0.8 -0.8 -0.8 -0.7 -0.7 -0.7 -0.7 -0.5 -0.2 0.3 0.7 1.1 1.5 1.7 2.3 5.8 5 5.7 7.7 8.8 10.2 7.5 3.5 3.4 3.5 3 6.3 7.3 3.3 3.3 3.6 2.7 2.5 2.7 1.9 1.8 1.7 1.5 1.3 1.2 1 0.8 0.6 0.3 0 -0.2 -0.4 -0.6 -1 -1.5 -1.5 -1.5 -1.5 -1.5 -1.5 -1.5 -1.5 -1.5 -1.5 -1.5 -1.5 -1.5 -1.5 -1.5 -1.5 -1.5 -1.5 -1.5 -1.5 -1.5 -1.5 -1.5 -1.5 -1.5 -1.5 -1.5 -1.5 -1.5 -1.5 -1.5 -1.5 -1.5 -1.5 -1.5 -1.5 -1.5 -1.5 0.3 1.6 4 6.3 6.6 6.8 6.9 7.6 8.8 8.8 9 9.1 9.3 9.7 10.2 10.2 11.5 11.6 13.8 15.6 17.5 19.5 19.5 19.4 19.7 19.9 20.5 20.8 20.5 23.5 27.3 29.6 31 31.3 31 30.1 28.5 -1.5 7.1 5.7 5.2 15.8 19.2 22.8 28.5 31 32.6 34.3 34.3 32.5 28.6 27.9 27.9 28.8 29.7 30.8 30.8 31.5 27.5 17.7 16.8 19.8 21.8 22.8 26.1 30.7 31.8 32.8 33.8 34.5 34.6 32.4 29.4 30.3 31.6 35.1 35.6 38.1
-1.5 -1.5 -1.5 -1.5 -1.5 -1.5 -1.5 -1.5 -1.5 -1.5 -1.5 -1.5 -1.5 -1.5 -1.5 -1.5 -1.5 -1.5 -1.5 -1.5 -1.5 -1.5 -1.5 -1.5 -1.5 -1.5 -1.5 -1.5 -1.5 -1.5 -1.5 -1.5 -1.5 -1.3 -1.2 -1.2 -1.2 -1.2 -1.2 -1.5 -1.5 -1.5 -1.5 -1.5 -0.5 -0.1 0.3 0.6 0.9 1.1 1.3 1.4 1.5 2.3 2.6 3.1 4.9 6.6 5.9 5.7 7.4 7.6 8 6.6 5.7 6.5 8.2 6 2.6 2.2 2.9 1.9 1.8 1.6 1.4 1.2 0.9 0.7 0.5 0.3 0.1 -0.2 -0.5 -0.7 -1.5 -1.5 -1.5 -1.5 -1.5 -1.5 -1.5 -1.5 -1.5 -1.5 -1.5 -1.5 -1.5 -1.5 -1.5 -1.5 -1.5 -1.5 -1.5 -1.5 -1.5 -1.5 -1.5 -1.5 -1.5 -1.5 -1.5 -1.5 -1.5 -1.5 -1.5 -1.5 -1.5 -1.5 -1.5 -1.5 1.4 1.8 1.9 4.3 4.9 6.6 7.3 7.5 7.5 7.7 8 8.6 8.6 9.2 9.4 10.3 10.3 10.2 12.1 17.6 18.3 19.3 20.4 21.2 21.4 21.7 21.7 22.3 23 23.1 24.6 27 30.1 32.4 33.1 32 31.6 30.9 28.9 14.9 3.8 4.7 8 11.1 18.4 23 29.1 32.2 33.8 33.7 33 28.6 26.7 27 27.5 28.2 28.5 28.8 29.4 30 29.2 14.9 15.9 19.4 21.8 23.6 27.1 30.5 31.6 32.6 33.7 34.6 34.5 36.1 39.3 39.1 42 43.3 41.1 40.6
-1.5 -1.5 -1.5 -1.5 -1.5 -1.5 -1.5 -1.5 -1.5 -1.5 -1.5 -1.5 -1.5 -1.5 -1.5 -1.5 -1.5 -1.5 -1.5 -1.5 -1.5 -1.5 -1.5 -1.5 -1.5 -1.5 -1.5 -1.5 -1.5 -1.5 -1.5 -1.5 -1.5 -1.5 -1.5 -1.5 -1.5 -1.5 -1.5 -1.5 -1.5 -1.5 -1.5 -1.5 -1.5 -0.9 -0.6 -0.2 0 0.4 0.5 0.6 0.8 0.9 0.9 1 1 1 1 0.9 1 1.2 1.4 1.6 3.1 4.7 8.1 5.8 12.3 6.3 4.5 2.6 2.4 1.7 1.6 1.4 1.2 1 0.8 0.6 0.3 0 0.1 0.2 -1.5 -1.5 -1.5 -1.5 -1.5 -1.5 -1.5 -1.5 -1.5 -1.5 -1.5 -1.5 -1.5 -1.5 -1.5 -1.5 -1.5 -1.5 -1.5 -1.5 -1.5 -1.5 -1.5 -1.5 -1.5 -1.5 -1.5 -1.5 -1.5 -1.5 -1.5 -1.5 -1.5 1.7 2.2 2.7 2.5 3.4 4.2 5.1 5.5 6.8 7.9 8.1 8.2 8.4 8.3 9.2 9.8 9.1 9.9 10.3 10.5 11.6 15.3 19.6 21.2 21.6 21.7 21.9 22.1 22.3 23.3 24.1 24.3 24 26.7 29.8 32.2 33.9 34.2 33.2 32.1 31.1 28.6 24.8 1.7 3.4 8.6 12.5 16.1 22.1 30.1 33.3 33.4 31.8 27.8 25.4 25.9 26.6 27 26.9 27.2 27.7 27.8 27.8 21.4 13.4 17.1 21.1 22.7 24.9 29 31.1 32 32.8 33.6 34.8 37 42.5 48.4 49 48.5 48.5 49.8 50.3
-1.5 -1.5 -1.5 -1.5 -1.5 -1.5 -1.5 -1.5 -1.5 -1.5 -1.5 -1.5 -1.5 -1.5 -1.5 -1.5 -1.5 -1.5 -1.5 -1.5 -1.5 -1.5 -1.5 -1.5 -1.5 -1.5 -1.5 -1.5 -1.5 -1.5 -1.5 -1.5 -1.5 -1.5 -1.5 -1.5 -1.5 -1.5 -1.5 -1.5 -1.5 -1.5 -1.5 -1.5 -1.5 -1.5 -1.5 -1.5 -0.7 -0.4 -0.4 -0.2 0 0.1 0.1 0.2 0.2 0.2 0.1 0 0.1 0.3 0.6 0.7 1 1.4 1.8 2.4 4.8 8 7.8 5.6 3.4 1.9 1.8 1.7 1.5 1.3 1.1 0.9 0.8 0.9 0.9 0.8 -0.4 -1.5 -1.5 -1.5 -1.5 -1.5 -1.5 -1.5 -1.5 -1.5 -1.5 -1.5 -1.5 -1.5 -1.5 -1.5 -1.5 -1.5 -1.5 -1.5 -1.5 -1.5 -1.5 -1.5 -1.5 -1.5 -1.5 -1.5 -1.5 -1.5 0.2 1.8 2.3 2.7 3.1 3.5 4.1 5.2 4.9 5.7 6.4 6.9 8.1 8.6 9.8 11 11.6 11.7 13 13.2 11 11.1 11.6 14 16.8 19.7 21.5 22.1 21.9 21.5 21.8 23.8 25 24.3 24.9 25.6 28.6 31.6 33.9 35.1 35.2 34.4 33 31.4 29.1 27.1 16.8 2.7 7.8 9.4 16 13.5 28 32.8 31.9 27.5 24.1 24.2 24.7 25.7 25.9 26 26 26.7 22.5 17.4 13.8 14.9 19.9 26.2 27.2 29.3 32.1 31.8 32.6 33.3 34.6 38.4 43.7 49.1 51.9 51 47.6 49.9 53.4 55.5
-1.5 -1.5 -1.5 -1.5 -1.5 -1.5 -1.5 -1.5 -1.5 -1.5 -1.5 -1.5 -1.5 -1.5 -1.5 -1.5 -1.5 -1.5 -1.5 -1.5 -1.5 -1.5 -1.5 -1.5 -1.5 -1.5 -1.5 -1.5 -1.5 -1.5 -1.5 -1.5 -1.5 -1.5 -1.5 -1.5 -1.5 -1.5 -1.5 -1.5 -1.5 -1.5 -1.5 -1.5 -1.5 -1.5 -1.5 -1.5 -1.5 -1.5 -1.5 -0.9 -0.8 -0.8 -0.7 -0.6 -0.7 -0.7 -0.8 -0.9 -0.7 -0.5 -0.3 -0.1 0.1 0.3 0.7 1 1.4 2.7 4 5.5 6.9 5.5 3.3 2.6 1.8 1.6 1.5 1.6 1.7 1.7 1.7 1.4 1 -1.5 -1.5 -1.5 -1.5 -1.5 -1.5 -1.5 -1.5 -1.5 -1.5 -1.5 -1.5 -1.5 -1.5 -1.5 -1.5 -1.5 -1.5 -1.5 -1.5 -1.5 -1.5 -1.5 -1.5 -1.5 -1.5 -1.5 -1.5 0.5 1.9 2.4 2.9 3.2 3.6 4 5.1 5.7 5.4 6.5 7.3 8 10.4 14.3 14.2 14.4 13.1 13.4 14.4 14.2 13 12 14.7 15.8 17.2 19.4 20 20.7 20.9 20.9 23.6 26.2 25.4 24.4 25.1 27.4 30.4 33.4 34.7 35.4 35.7 35.7 34.3 30.9 28.9 29.6 28.8 9.7 3.4 3.5 4.7 5.4 11.6 20.5 16.8 18.9 22.7 23.5 24 24.8 25.4 25.5 24.5 16.8 14.1 13.1 18.8 29.7 34 36.5 38.6 34.5 36.7 36.9 35.6 36 37.7 42.4 47.8 51.3 51.9 49.2 49 53.8 57.3 59
-1.5 -1.5 -1.5 -1.5 -1.5 -1.5 -1.5 -1.5 -1.5 -1.5 -1.5 -1.5 -1.5 -1.5 -1.5 -1.5 -1.5 -1.5 -1.5 -1.5 -1.5 -1.5 -1.5 -1.5 -1.5 -1.5 -1.5 -1.5 -1.5 -1.5 -1.5 -1.5 -1.5 -1.5 -1.5 -1.5 -1.5 -1.5 -1.5 -1.5 -1.5 -1.5 -1.5 -1.5 -1.5 -1.5 -1.5 -1.5 -1.5 -1.5 -1.5 -1.5 -1.5 -1.5 -1.5 -1.5 -1.5 -1.5 -1.5 -1.5 -1.5 -1.5 -1.5 -1.5 -1.5 -0.8 -0.5 -0.2 0.2 0.6 1.1 1.4 2.3 3.4 5.1 6.4 5.9 4.6 2.2 1.7 1.7 1.7 1.7 3.3 10.1 -1.5 -1.5 -1.5 -1.5 -1.5 -1.5 -1.5 -1.5 -1.5 -1.5 -1.5 -1.5 -1.5 -1.5 -1.5 -1.5 -1.5 -1.5 -1.5 -1.5 -1.5 -1.5 -1.5 -1.5 -1.5 -1.5 -1.5 0.4 1.9 2.5 2.9 3.4 3.8 4.2 4.6 5.8 7.9 7.1 7.7 10 12.8 15.8 16.3 16.1 14.9 14.9 15.1 15.1 14.5 13.1 13.2 15.8 16.7 16.4 18.3 18.6 19 19.2 22 25.5 26.4 25.1 25 26.4 29.5 32.4 34.2 34.4 34.6 35.7 35 32.3 29 29.2 30.5 30.9 27.3 16.1 11.7 8.5 1.8 11 4.4 4.1 8.9 20.7 22.9 23.3 23.8 24.7 23.4 16.6 13 14.2 22 32.3 31.6 23.8 23.1 30.1 41.9 42.1 42 42 41.8 43.3 46.7 48.6 50.7 49 47.4 52.8 57.1 60.1 61.5
-1.5 -1.5 -1.5 -1.5 -1.5 -1.5 -1.5 -1.5 -1.5 -1.5 -1.5 -1.5 -1.5 -1.5 -1.5 -1.5 -1.5 -1.5 -1.5 -1.5 -1.5 -1.5 -1.5 -1.5 -1.5 -1.5 -1.5 -1.5 -1.5 -1.5 -1.5 -1.5 -1.5 -1.5 -1.5 -1.5 -1.5 -1.5 -1.5 -1.5 -1.5 -1.5 -1.5 -1.5 -1.5 -1.5 -1.5 -1.5 -1.5 -1.5 -1.5 -1.5 -1.5 -1.5 -1.5 -1.5 -1.5 -1.5 -1.5 -1.5 -1.5 -1.5 -1.5 -1.5 -1.5 -1.5 -1.5 -1.5 -1.5 -0.7 -0.3 0.1 0.6 1 1.6 2.6 3.6 4.2 4 3.7 2.6 2.2 1.7 1.7 6.4 4.6 1.2 -1.5 -1.5 -1.5 -1.5 -1.5 -1.5 -1.5 -1.5 -1.5 -1.5 -1.5 -1.5 -1.5 -1.5 -1.5 -1.5 -1.5 -1.5 -1.5 -1.5 -1.5 -1.5 -1.5 -1.5 0.1 1.8 2.6 3 3.5 3.9 4.4 4.7 5.1 6.8 9.4 9.4 11.4 14.5 16.4 16.6 15.9 15.3 14.4 15 15.3 15.2 14.2 13.2 14.3 16.2 17.6 17.4 17 17.6 18.2 20 23.9 26.2 26.4 25.5 25.6 28.5 31.2 33.2 33.2 33.3 34.4 34.6 33.6 29.7 28.4 29.8 31.2 32.5 29.6 26.4 15.5 12.8 7.4 2.9 4.1 4.1 6.1 20.4 21.9 22.7 22.8 21.6 14 13.9 15.1 22.3 31 24.9 22.7 12.5 12.5 16.8 38.2 47.8 47.5 47.5 46.9 46.9 48.3 48.2 46.6 48.3 52.3 56.4 60.5 63.2 63.8
-1.5 -1.5 -1.5 -1.5 -1.5 -1.5 -1.5 -1.5 -1.5 -1.5 -1.5 -1.5 -1.5 -1.5 -1.5 -1.5 -1.5 -1.5 -1.5 -1.5 -1.5 -1.5 -1.5 -1.5 -1.5 -1.5 -1.5 -1.5 -1.5 -1.5 -1.5 -1.5 -1.5 -1.5 -1.5 -1.5 -1.5 -1.5 -1.5 -1.5 -1.5 -1.5 -1.5 -1.5 -1.5 -1.5 -1.5 -1.5 -1.5 -1.5 -1.5 -1.5 -1.5 -1.5 -1.5 -1.5 -1.5 -1.5 -1.5 -1.5 -1.5 -1.5 -1.5 -1.5 -1.5 -1.5 -1.5 -1.5 -1.5 -1.5 -1.5 -1.5 -1.5 -0.3 0.3 0.7 1.1 1.6 2.7 4.1 5 5.3 3.4 2.5 3 5.9 7 -1.5 -1.5 -1.5 -1.5 -1.5 -1.5 -1.5 -1.5 -1.5 -1.5 -1.5 -1.5 -1.5 -1.5 -1.5 -1.5 -1.5 -1.5 -1.5 -1.5 -1.5 -1.5 -1.5 0.1 1.4 2.9 2.8 3.1 3.7 4.4 4.9 5.2 5.9 7.9 10.5 12.5 14.3 16.4 16.6 15.6 14.7 13.8 13.9 14.5 14.9 15 13.7 13.9 15.4 17 17.7 16.4 16.6 17.2 18.1 21.2 25.8 27.5 26.9 26.6 27.2 29.9 32.4 32.6 32.1 32.7 32.5 32.5 30.6 28.7 28.8 28.6 30.8 31.5 28.5 25.4 20.2 23.3 12.7 4 3.2 4.1 7.4 16.6 20.4 20.8 20.6 19.9 11.7 13.8 14.1 17.9 24.6 21.4 12.5 12.5 12.5 12.5 31.6 51.4 50.3 49.4 48.4 47.1 46.4 45.4 47.2 53.4 56.1 59.6 63 64.8 62.9
-1.5 -1.5 -1.5 -1.5 -1.5 -1.5 -1.5 -1.5 -1.5 -1.5 -1.5 -1.5 -1.5 -1.5 -1.5 -1.5 -1.5 -1.5 -1.5 -1.5 -1.5 -1.5 -1.5 -1.5 -1.5 -1.5 -1.5 -1.5 -1.5 -1.5 -1.5 -1.5 -1.5 -1.5 -1.5 -1.5 -1.5 -1.5 -1.5 -1.5 -1.5 -1.5 -1.5 -1.5 -1.5 -1.5 -1.5 -1.5 -1.5 -1.5 -1.5 -1.5 -1.5 -1.5 -1.5 -1.5 -1.5 -1.5 -1.5 -1.5 -1.5 -1.5 -1.5 -1.5 -1.5 -1.5 -1.5 -1.5 -1.5 -1.5 -1.5 -1.5 -1.5 -1.5 -1.5 -0.6 -0.1 0.4 0.9 1.5 2.9 4.5 5.6 6.2 4.4 5.9 5.3 2 -1.5 -1.5 -1.5 -1.5 -1.5 -1.5 -1.5 -1.5 -1.5 -1.5 -1.5 -1.5 -1.5 -1.5 -1.5 -1.5 -1.5 -1.5 -1.5 -1.5 -1.5 -0.2 1.1 2.3 3.1 3.4 3.2 3.6 4.2 4.9 5.5 6.7 9 12.2 14.1 15.7 16.6 16.7 15.7 14.7 13.6 13.7 14 14.8 14.2 13.6 14.5 15.7 17 16.4 16.1 16.3 17.1 19 23.8 26.7 27.8 28.2 28 28.4 31.2 32.4 32.4 31.9 31.4 31 29.6 28.7 28.1 28 28.4 29.2 28.9 26.9 23.5 23.4 24.9 24 10.5 4.6 3.8 4.7 8.2 17.6 19 18.9 17.4 13 14 14.2 17.4 13.8 13.5 12.5 12.5 12.5 12.5 28.6 31.4 45.1 47.3 46.1 44.9 45.2 48.3 52.8 56.3 58.9 61.7 64.7 64.8 63.1
-1.5 -1.5 -1.5 -1.5 -1.5 -1.5 -1.5 -1.5 -1.5 -1.5 -1.5 -1.5 -1.5 -1.5 -1.5 -1.5 -1.5 -1.5 -1.5 -1.5 -1.5 -1.5 -1.5 -1.5 -1.5 -1.5 -1.5 -1.5 -1.5 -1.5 -1.5 -1.5 -1.5 -1.5 -1.5 -1.5 -1.5 -1.5 -1.5 -1.5 -1.5 -1.5 -1.5 -1.5 -1.5 -1.5 -1.5 -1.5 -1.5 -1.5 -1.5 -1.5 -1.5 -1.5 -1.5 -1.5 -1.5 -1.5 -1.5 -1.5 -1.5 -1.5 -1.5 -1.5 -1.5 -1.5 -1.5 -1.5 -1.5 -1.5 -1.5 -1.5 -1.5 -1.5 -1.5 -1.5 -1.5 -1.5 -0.3 0.3 0.9 1.6 4.3 6.6 5.1 5 5 2.1 -1.5 -1.5 -1.5 -1.5 -1.5 -1.5 -1.5 -1.5 -1.5 -1.5 -1.5 -1.5 -1.5 -1.5 -1.5 -1.5 -1.5 -1.5 -1.5 -1.5 0.1 1.3 2.1 3 2.9 3.2 3.5 3.7 4.1 5.1 5.7 7.4 9.2 12.7 14.3 15.6 16.2 16.4 15.8 14.5 13.7 14.1 14.2 14.7 14 14.3 15.3 16.8 16.9 16.1 16.3 16.8 18.2 23.1 26.1 27.1 27.3 28.1 29.4 29.6 31.2 31.8 31.8 31.8 31.4 28.3 27.4 28.1 27.5 27.2 27.8 28.5 27.2 25.3 17.7 25.6 24.6 24.9 18 8.9 4.6 5.4 8 12.1 16.8 15.7 12.6 10.4 14.2 14.3 15.9 16.8 18.6 15.7 14.6 12.5 12.5 16.1 26.8 39.2 44.6 43.6 44.4 46.6 53.2 57 59.3 61.6 64 64.5 64.3 62.2
-1.5 -1.5 -1.5 -1.5 -1.5 -1.5 -1.5 -1.5 -1.5 -1.5 -1.5 -1.5 -1.5 -1.5 -1.5 -1.5 -1.5 -1.5 -1.5 -1.5 -1.5 -1.5 -1.5 -1.5 -1.5 -1.5 -1.5 -1.5 -1.5 -1.5 -1.5 -1.5 -1.5 -1.5 -1.5 -1.5 -1.5 -1.5 -1.5 -1.5 -1.5 -1.5 -1.5 -1.5 -1.5 -1.5 -1.5 -1.5 -1.5 -1.5 -1.5 -1.5 -1.5 -1.5 -1.5 -1.5 -1.5 -1.5 -1.5 -1.5 -1.5 -1.5 -1.5 -1.5 -1.5 -1.5 -1.5 -1.5 -1.5 -1.5 -1.5 -1.5 -1.5 -1.5 -1.5 -1.5 -1.5 -1.5 -1.5 -1.5 -0.2 0.5 1.2 2.4 5.5 4.9 3.2 -1.5 -1.5 -1.5 -1.5 -1.5 -1.5 -1.5 -1.5 -1.5 -1.5 -1.5 -1.5 -1.5 -1.5 -1.5 -1.5 -1.5 -1.5 -1.5 -1.5 0 1.2 1.1 3.5 3.7 3 3 3.3 3.6 4 5.3 6.4 8.1 9.8 12.4 14 15.2 16 16.9 16.1 15.1 14.4 14.7 14.7 14.8 14.1 14 16.1 16.5 16.4 16.2 17.4 19.4 22.3 25.1 27.6 26.9 27 27.2 28.7 30.3 31 31.2 31.2 31.1 30.7 28 27.6 26.9 26.6 26.5 28.2 27.4 25.5 23.1 24.9 24.4 24.4 25.1 24.4 23.2 9.2 5.8 4.1 8.6 10.5 10.8 10.6 9.4 13.4 13.8 14.1 17.4 25.7 28.7 27.6 24.3 20.3 28.6 33.5 40.9 43 44 47.1 52.3 56 59 60.9 63 63.2 62.9 61.9 61.1
-1.5 -1.5 -1.5 -1.5 -1.5 -1.5 -1.5 -1.5 -1.5 -1.5 -1.5 -1.5 -1.5 -1.5 -1.5 -1.5 -1.5 -1.5 -1.5 -1.5 -1.5 -1.5 -1.5 -1.5 -1.5 -1.5 -1.5 -1.5 -1.5 -1.5 -1.5 -1.5 -1.5 -1.5 -1.5 -1.5 -1.5 -1.5 -1.5 -1.5 -1.5 -1.5 -1.5 -1.5 -1.5 -1.5 -1.5 -1.5 -1.5 -1.5 -1.5 -1.5 -1.5 -1.5 -1.5 -1.5 -1.5 -1.5 -1.5 -1.5 -1.5 -1.5 -1.5 -1.5 -1.5 -1.5 -1.5 -1.5 -1.5 -1.5 -1.5 -1.5 -1.5 -1.5 -1.5 -1.5 -1.5 -1.5 -1.5 -1.5 -1.5 -1.5 -0.2 0.7 2 3.6 -1.5 -1.5 -1.5 -1.5 -1.5 -1.5 -1.5 -1.5 -1.5 -1.5 -1.5 -1.5 -1.5 -1.5 -1.5 -1.5 -1.5 -1.5 -1.5 -1.5 -0.4 0.9 2 3.4 3.8 4.1 3.1 2.9 3.2 3.5 4.7 5.9 7.2 8.9 10.6 12.2 13.7 14.9 16.1 16.3 15.3 14.6 14 13.9 14.3 14.3 13.4 14.4 15.6 16.2 16.6 17.3 18.7 20.8 23 26 27.3 26.9 27 27.6 29 30.4 30.9 30.8 30.5 30.4 30.3 29.3 26.3 25.3 25.2 25.4 27 25.8 22.6 17.9 24.2 24.4 24.6 24.8 24.7 25 25.4 13.5 5.6 6.5 7.6 9.3 9.2 8.8 9.8 10 15.9 19.5 32.1 47.1 46.9 38.2 33.7 37.2 42.3 42.4 45.4 47.2 50.4 54.7 58.9 60.4 61.9 61.8 61.5 60.6 59.9 59.5
-1.5 -1.5 -1.5 -1.5 -1.5 -1.5 -1.5 -1.5 -1.5 -1.5 -1.5 -1.5 -1.5 -1.5 -1.5 -1.5 -1.5 -1.5 -1.5 -1.5 -1.5 -1.5 -1.5 -1.5 -1.5 -1.5 -1.5 -1.5 -1.5 -1.5 -1.5 -1.5 -1.5 -1.5 -1.5 -1.5 -1.5 -1.5 -1.5 -1.5 -1.5 -1.5 -1.5 -1.5 -1.5 -1.5 -1.5 -1.5 -1.5 -1.5 -1.5 -1.5 -1.5 -1.5 -1.5 -1.5 -1.5 -1.5 -1.5 -1.5 -1.5 -1.5 -1.5 -1.5 -1.5 -1.5 -1.5 -1.5 -1.5 -1.5 -1.5 -1.5 -1.5 -1.5 -1.5 -1.5 -1.5 -1.5 -1.5 -1.5 -1.5 -1.5 -1.5 -1.3 -1.4 -1.5 -1.5 -1.5 -1.5 -1.5 -1.5 -1.5 -1.5 -1.5 -1.5 -1.5 -1.5 -1.5 -1.5 -1.5 -1.5 -1.5 -1.5 -1.5 -1.5 -0.5 0.5 1.6 2.9 3 4.1 3.8 2.6 2.7 3 3.8 7.7 8.6 11.4 12.8 12.8 14.3 15.5 14.9 14.6 14.1 13.2 12.7 12.6 12.9 13 13.1 14.1 15.4 16.7 17.2 18.3 19.4 20.9 22.8 24.9 26.3 26.8 27.3 27.6 28.1 28.6 29.9 30.5 30.6 30.3 29.9 29.6 26.3 24.2 23.5 23.6 24.3 25.8 24.3 22.9 22.8 24 24.5 24.7 25 25.2 26.8 30 26.7 15.1 14.2 9 5.7 8.1 8.7 9 8 9.6 17 36.4 44.5 45.8 41.9 40.3 41.4 42.8 45.8 49.1 51.3 54.3 58 59.7 60.4 60.9 60.1 59.1 58.2 58 57.7
-1.5 -1.5 -1.5 -1.5 -1.5 -1.5 -1.5 -1.5 -1.5 -1.5 -1.5 -1.5 -1.5 -1.5 -1.5 -1.5 -1.5 -1.5 -1.5 -1.5 -1.5 -1.5 -1.5 -1.5 -1.5 -1.5 -1.5 -1.5 -1.5 -1.5 -1.5 -1.5 -1.5 -1.5 -1.5 -1.5 -1.5 -1.5 -1.5 -1.5 -1.5 -1.5 -1.5 -1.5 -1.5 -1.5 -1.5 -1.5 -1.5 -1.5 -1.5 -1.5 -1.5 -1.5 -1.5 -1.5 -1.5 -1.5 -1.5 -1.5 -1.5 -1.5 -1.5 -1.5 -1.5 -1.5 -1.5 -1.5 -1.5 -1.5 -1.5 -1.5 -1.5 -1.5 -1.5 -1.5 -1.5 -1.5 -1.5 -1.5 -1.5 -1.5 -1.5 -1.5 -1.5 -1.5 -1.5 -1.5 -1.5 -1.5 -1.5 -1.5 -1.5 -1.5 -1.5 -1.5 -1.5 -1.5 -1.5 -1.5 -1.5 -1.5 -1.5 -1.5 -0.5 0.2 1.2 2.2 2.5 3.8 4.3 3.6 2.9 2.6 2.9 6.5 15.7 20.8 19.3 23 20.3 16.4 17.2 13.8 12.7 13.4 11.8 12.3 13 13 13.1 14.2 15.4 16.7 18.2 19.4 20.5 21.6 23.1 25 26.9 27.9 28.9 29.3 28.5 29.1 29.2 29.4 30 30.3 30.1 29.7 29 28.3 25.3 22.5 22.5 23.4 24.4 23.5 21.3 23.1 23.5 24.4 24.7 25 27.5 32.3 35.7 38.3 32.9 33.3 28.2 21.8 25.7 16.6 8.8 6.4 9.5 17.6 38.3 44.1 43.8 41.5 40.9 43.6 47 49.1 51.5 54.3 57.3 58.8 59 58.7 58.3 57 56.4 56.2 56 56.6
-1.5 -1.5 -1.5 -1.5 -1.5 -1.5 -1.5 -1.5 -1.5 -1.5 -1.5 -1.5 -1.5 -1.5 -1.5 -1.5 -1.5 -1.5 -1.5 -1.5 -1.5 -1.5 -1.5 -1.5 -1.5 -1.5 -1.5 -1.5 -1.5 -1.5 -1.5 -1.5 -1.5 -1.5 -1.5 -1.5 -1.5 -1.5 -1.5 -1.5 -1.5 -1.5 -1.5 -1.5 -1.5 -1.5 -1.5 -1.5 -1.5 -1.5 -1.5 -1.5 -1.5 -1.5 -1.5 -1.5 -1.5 -1.5 -1.5 -1.5 -1.5 -1.5 -1.5 -1.5 -1.5 -1.5 -1.5 -1.5 -1.5 -1.5 -1.5 -1.5 -1.5 -1.5 -1.5 -1.5 -1.5 -1.5 -1.5 -1.5 -1.5 -1.5 -1.5 -1.5 -1.5 -1.5 -1.5 -1.5 -1.5 -1.5 -1.5 -1.5 -1.5 -1.5 -1.5 -1.5 -1.5 -1.5 -1.5 -1.5 -1.5 -1.5 -1.5 -0.7 0 0.7 1.5 2.6 2.7 4.6 4.7 4 3.3 2.6 2.6 5.9 10 14.8 17.4 20.5 19.8 16.5 15 12.1 11.6 11.5 12.6 13.4 14.6 15 15.3 15.8 16.7 18.2 20 21.8 23 24.1 26.2 28 30.3 30.4 31.3 31.2 30.5 30.2 30.4 29.8 29.7 29.8 29.9 30.9 30.9 30.7 26.6 21.6 21.8 22.2 22.3 21.9 22.3 23.2 23.5 24 24.7 27.8 32.8 35.3 38.6 40.2 42.1 43.4 43.3 40.8 38.8 28.2 19.1 19.1 19.5 29.2 40.5 42.9 41.7 40.5 41.8 47.5 49.7 51.8 53.9 56.5 58.2 58.2 57.2 56.4 55.7 54.3 54 54.2 55 56
-1.5 -1.5 -1.5 -1.5 -1.5 -1.5 -1.5 -1.5 -1.5 -1.5 -1.5 -1.5 -1.5 -1.5 -1.5 -1.5 -1.5 -1.5 -1.5 -1.5 -1.5 -1.5 -1.5 -1.5 -1.5 -1.5 -1.5 -1.5 -1.5 -1.5 -1.5 -1.5 -1.5 -1.5 -1.5 -1.5 -1.5 -1.5 -1.5 -1.5 -1.5 -1.5 -1.5 -1.5 -1.5 -1.5 -1.5 -1.5 -1.5 -1.5 -1.5 -1.5 -1.5 -1.5 -1.5 -1.5 -1.5 -1.5 -1.5 -1.5 -1.5 -1.5 -1.5 -1.5 -1.5 -1.5 -1.5 -1.5 -1.5 -1.5 -1.5 -1.5 -1.5 -1.5 -1.5 -1.5 -1.5 -1.5 -1.5 -1.5 -1.5 -1.5 -1.5 -1.5 -1.5 -1.5 -1.5 -1.5 -1.5 -1.5 -1.5 -1.5 -1.5 -1.5 -1.5 -1.5 -1.5 -1.5 -1.5 -1.5 -1.5 -1.5 -1 -0.3 0.4 1 1.8 2.9 3.5 5.4 4.9 4.1 3 2 2.6 6.5 7.8 9.6 12.1 12.9 12.3 11.3 12 10.8 10.7 12.9 13.5 14.5 16.1 17.1 17.2 17.4 18.3 20.2 22.2 23.9 25.4 29.9 30.4 32.4 32.9 33.7 34.1 35 33.2 31.7 31.7 30.1 30.1 30.2 30.6 30.7 30.8 29.4 21.5 21.1 21.5 21.9 22.1 22 22.7 23 23.4 24 27 32.4 35.3 37.2 39.4 40.8 41.7 43.5 44.9 46 46.2 44.9 44.8 41.1 42.8 42.2 42.4 41.7 40.8 39.5 43.9 48.7 52.5 54.2 56.5 57 58.1 57.1 55.7 54.7 53.7 53.7 53.6 54.1 55.3 56.4
-1.5 -1.5 -1.5 -1.5 -1.5 -1.5 -1.5 -1.5 -1.5 -1.5 -1.5 -1.5 -1.5 -1.5 -1.5 -1.5 -1.5 -1.5 -1.5 -1.5 -1.5 -1.5 -1.5 -1.5 -1.5 -1.5 -1.5 -1.5 -1.5 -1.5 -1.5 -1.5 -1.5 -1.5 -1.5 -1.5 -1.5 -1.5 -1.5 -1.5 -1.5 -1.5 -1.5 -1.5 -1.5 -1.5 -1.5 -1.5 -1.5 -1.5 -1.5 -1.5 -1.5 -1.5 -1.5 -1.5 -1.5 -1.5 -1.5 -1.5 -1.5 -1.5 -1.5 -1.5 -1.5 -1.5 -1.5 -1.5 -1.5 -1.5 -1.5 -1.5 -1.5 -1.5 -1.5 -1.5 -1.5 -1.5 -1.5 -1.5 -1.5 -1.5 -1.5 -1.5 -1.5 -1.5 -1.5 -1.5 -1.5 -1.5 -1.5 -1.5 -1.5 -1.5 -1.5 -1.5 -1.5 -1.5 -1.5 -1.5 -1.5 -1.5 -0.8 -0.1 0.6 1.2 3 3.3 4.7 5.6 4.7 3.1 2.5 2.1 4 7.1 7.9 9 10.3 10.1 9.7 9.3 9.7 10.1 12.1 13 14.3 15.7 17.3 19.1 19.2 19.4 20.3 23 26.4 30.3 33.8 34.7 34.3 35.4 35.3 36.4 37.3 37.5 36.6 34.2 33.3 32.5 32.2 31.1 31.7 30.2 24.7 20.7 20.9 21.1 21.2 21.4 22.7 22.2 23.4 25.9 25.2 29.8 32.7 35.2 35.9 37.4 39.3 40.2 41 42.1 43.4 44.6 46.2 45.2 43.6 41.4 41.6 40.8 40 39.8 39.5 41.5 47.5 52.1 55.5 56.8 57.9 57.5 57.3 56 54.7 53.9 53.6 53.4 53.9 54.5 56.3 57.7
