ncols 200
nrows 82
xllcorner 250000
yllcorner 352200
cellsize 50
223.8 224.3 231.7 233.3 235.2 238.9 248.5 249.4 256.6 267.2 270.5 274.5 276.2 279.3 283.3 282 281.7 282.8 286.8 292.2 300.4 310.1 316.4 325.3 338.7 353.4 371.5 388.4 403.9 414.8 418.8 419.5 415.4 410 403.6 392.6 388.2 377.3 375.7 372.7 367.6 372.3 360.7 355.7 353 348.3 345.3 341.7 336.2 329.3 321.1 313 305.4 298.5 293 286.8 280.4 278.7 274 271 265.4 254.3 247.6 242.7 237.1 229.1 219.4 209.4 200.4 198.4 190.6 198.5 204.5 209.1 219.7 230.5 241.2 259.1 285.6 296 307.7 310.6 305.3 298.1 287.7 282.2 255.5 232.7 209.9 187.2 168.9 154 143.2 143.2 140.6 145.4 149.1 152 157.4 160.6 171 178.2 189.2 205.6 219.1 233.9 240.2 249.8 265.2 287.9 310.9 348.5 398.3 426.7 421.2 407 403.6 405.9 409.9 419.4 421.5 435.2 446.2 453.4 455.1 466.9 476.3 486.2 489.8 486.9 487.7 498 510.3 525.2 538.6 550 561.8 574.5 586.5 596.2 598.6 597.2 589.9 576.3 535.4 494.8 452.4 420.4 395.6 375.2 373.4 387.7 406.5 428.1 452.9 486.2 516.7 538.9 564.7 584.4 595.4 593.9 577.4 575.1 581.6 602.1 621.3 642.3 649.4 657.9 659.3 659.6 657.3 656.1 654.1 653.2 620.5 567.7 509 466.5 436.7 411.5 392 370.9 364.1 365.8 381.4 403.8 423.3 445.1 467.1 486.4 504.1 521.5 543 561.6 575.3 589.4 599.3 605.6
221.7 224.5 229.2 230.1 232.6 236.7 245.8 250.6 254.8 265 269.1 270.3 273.4 277.3 279.9 280.5 281.6 283.2 286.4 290 299.4 308.8 316.2 326.9 340.7 357 373.9 390.5 404.7 414.5 419.5 420.8 417.9 413.1 403.3 395.6 366.5 338.9 357.5 369.4 366.6 373.3 365.8 358.7 357.9 351.8 346.8 343 336.3 329.5 323.5 316.7 308.3 302.9 298.2 291.8 290.1 287 281.9 278.9 274 266.5 261.5 256.8 252.4 241.7 232.7 223.3 215.4 209.3 202.8 201 211.4 215 229 241.9 254.5 282.8 294.8 310.8 311.2 308.1 302.1 297.9 292.2 279.4 251.8 230.1 206.6 184.9 171 156.7 149.2 147.1 139.7 143.1 146.1 150.5 156 160.7 166.1 177.5 187.5 195 206.8 213.9 219.7 229.5 253 270.6 289 323.9 376 402.6 395.2 382.6 381.9 382.9 390.2 398.7 406.2 418.3 423.8 427.5 436.1 444 452.8 463.9 466.7 467.5 473.9 490.6 505 519.6 532.3 544.8 557.8 570.9 583.9 594.3 595.6 588.9 571.9 561 528.8 488.3 452.4 418.8 394.5 381.9 388.7 400.8 420 441.9 469.6 507 537.1 560.9 584.6 598.1 609.7 617.5 624.3 624.9 628.2 636.6 639.7 652.4 649.7 646.8 644.9 643.8 642.6 641.6 641.1 640.9 638.6 596.3 536.4 484.8 444 423.2 402.5 379.7 369.4 382.4 388.6 410.4 431.6 452.7 474.2 495.5 514.1 533.2 553.5 570.8 583.7 594.2 601.8 607.5
220.6 223.6 225.3 228.4 230.5 233.2 239.4 245.7 251 257.7 262.3 264.9 268.6 271.3 275.3 278.2 280.9 284.9 286.6 290.3 299.3 308.2 316.3 328.9 343.3 358.5 374.1 389.8 403.8 413.5 421.4 420.1 418.2 413.3 399.6 375.6 361.1 351.1 358.1 370.6 374.6 374.3 374.7 374 366.9 357.9 349.6 343.3 336.6 332 326 319.8 311.4 305.7 300.8 299.4 297.2 293.8 289 286.8 282.8 278.7 275.8 269.3 266.2 256.7 248.8 238.7 230.3 225.2 214.6 209.9 218.2 222.9 237.8 252.4 274.8 290.4 308.4 308.9 305.5 306.7 301.3 297.2 286.1 264.3 244 225.5 206.2 185.2 169.3 156.8 146.7 140.6 139.3 140.5 143.5 148.1 153.3 156.6 158.4 168.1 170.2 179.7 179.9 196.2 205.6 218.7 238 253.4 271.2 299.9 339.6 371.8 370.5 362.3 362.4 359.1 371.4 377.4 389.4 395.1 401.5 403.9 414 421.9 429.8 438.9 443.8 445.7 464.6 480.9 494.2 510.1 525.1 540.2 552.9 566 578 585.6 585.7 570.7 553.3 542.3 516.5 477 445.8 417.5 396.2 391.5 403.7 416.1 433.4 456 485.5 522.5 553.2 580 595.6 610.1 618.2 624 630.3 636.2 641.3 646.6 646.1 640.2 634.3 629.8 626.1 624.4 623.2 624.3 624.8 627.1 631.8 607.5 553.8 496.9 457 430.8 408.6 386.5 375.7 384.7 395.6 416.5 440.6 456.3 482.3 503.8 524.8 543 560.8 575.1 585.7 596.5 603.4 609.3
215 217.9 221.5 226.1 228.3 230.9 234.9 240.4 246.1 252.7 259.4 265.5 269.1 274.3 275.7 277.5 279.9 281.5 286 290.1 298.5 308.1 315.7 330.3 357.6 369.9 373 387.8 398 408 415.6 415.5 416 406.4 368.9 338.9 348.6 352.2 377.8 376.1 374.8 374.6 374.9 371.4 371.7 369.1 362.4 343.7 339.2 334.6 329 321.6 313.8 307.3 305.3 303.4 300.6 299.2 296.8 293.7 291.1 290.2 286.7 284.1 276.4 271.1 263 254.6 243.4 235.9 225.4 223.1 229.7 236.5 249.2 269.1 287.5 294.3 303.4 306.3 303.5 303.8 298.5 287.1 277.6 256.9 239.3 220.8 203.5 184.1 165.8 151 143.4 140.5 138.4 139.3 140.9 145.3 149.5 150.8 149.9 148.1 152.6 162.9 173.6 187.3 197.4 214.1 225.8 239.4 256.7 283 312.6 347.6 348.6 350.4 337.1 341.7 352.8 361.9 370 372.1 376.5 383.3 392.4 399.6 407 413.8 417.9 428.7 449 466.4 486.9 504.7 519.6 534 547 562.8 569.8 572.8 571.3 554.2 539.8 527.9 501.2 467.6 439.1 415.9 401.1 409.9 421.2 433.7 451.7 474.6 509.6 544.3 570.4 590 603 609.9 615.1 621.3 627.3 628.2 630.2 629.2 626.7 623.1 616.8 611.1 606.6 604.8 603.6 605 608.4 611.6 613.9 603.3 556.8 504.3 467.8 436 411.7 389.2 381.1 392.7 404.5 423.3 447.1 465.2 489.2 509.9 530.5 548.5 562.7 574.9 585.8 596.4 604.2 611.1
212.3 216.1 218.2 222.3 226 229.2 233.4 239 247.4 256.2 261.7 269.5 273.7 276.7 274.6 275.7 277.7 279.9 285 290.2 297.4 307 330.6 344.7 366.4 373.6 380.7 383.3 393.9 400.7 407.8 411.6 407.5 370.7 357.4 338.9 344.4 378.9 389.8 378.7 378.4 375.8 374.5 373.8 373.9 372.9 366.6 355.4 338.4 334.8 329.4 323.1 315.5 312.2 310.8 309.4 307.4 305.3 302.7 299.2 297.2 296.5 294.6 293.3 288.7 284.3 276.1 269.2 259.1 249.6 243.1 238.6 242.5 247.9 264.3 282.9 290.8 296.2 296.3 295.1 291.1 304.6 303 294.3 285 259.3 243.9 226.8 210.2 186.9 169.1 152.7 141.7 140 137.4 138.4 139.6 141.7 142.9 144.8 144.9 143.5 144.2 149.1 167.6 178.7 191.8 198.7 208.7 223.1 243.8 271.3 294.6 322.8 334.7 330.8 314.5 325 338.5 347.8 349.2 351.8 356.5 364.6 371.4 377 383.3 389.4 395.3 409 435 460 479.1 494 510.8 522.4 537.7 553.2 555.8 557.4 557.9 541.5 528.2 513.6 488.7 457 433.7 414.5 418.3 430.2 442.5 456.3 474.8 497.2 531.4 558.9 576.1 586.2 591.8 596.1 600.9 606.5 610.8 612.3 611.9 612.4 611.6 608.7 600.3 592.8 587 585.3 584.1 587.1 589.9 593.5 594.7 593.9 556.7 512.2 471.5 439 414.2 391.2 386.4 397.1 409 428.3 452.2 471.6 492.5 513.9 534.2 550.6 562.9 574.4 584.5 593.7 603.1 612
212.8 216 217 221 225 229 232.9 238.3 246.9 256.5 263.6 271.2 277.2 275.2 274.2 276 277.6 279.2 284 289 297 306.5 320.6 349.1 359.7 378.6 381.4 386 388.2 394.1 401.1 408.1 392.7 356.4 339.6 339.5 373.8 393.5 391.9 392.4 390.2 388.6 387 385.5 377.7 371.8 361.2 346.5 336.6 333.2 328.7 322.7 319.1 317.7 317 315.5 313.6 310.3 306.8 303.9 303 303.5 306.3 307.3 302.6 297.8 292.2 285.8 274.9 265.1 255.6 248.6 249.6 254.9 270.4 286.6 291.2 290.9 287.2 288.4 301.9 312.8 311.3 302.7 288.6 267.8 251 234.4 216.7 190.3 166.5 153.1 142 140.5 137.7 138.3 139.3 139.6 140.3 141.3 141.6 142.2 142.8 149.6 165.9 178.4 185.6 195.3 200.3 216.7 244.4 265.9 290 320.1 323.9 312.7 294.1 306.8 323.6 328.5 324.4 328.6 339.2 344.6 350.4 355.3 362 360.2 372.5 401 426.4 449.1 466.1 479.2 493.8 509.8 523.1 530.8 533.4 541.5 542.1 531.8 516.4 501.3 474 449.2 432.1 433.9 440 452.4 466.5 484.5 506.2 527.2 555.1 566.4 571.2 573.2 575.6 580.6 584.1 586.7 591.3 594 595.7 598 598.6 596 587.1 572.3 566.4 563.8 565.3 566.6 569.6 572.2 573.4 574.6 555.9 510.3 472.1 439.8 414.7 393.6 392.3 403.5 422.4 434.4 454.3 475.1 495 515.2 536.3 552.2 565.6 574.7 584.7 592.5 599.2 608.7
216.2 218.6 220.1 221.3 225.1 228.7 235.8 240 247.3 256.7 264.4 271.7 274.9 275.2 276 278.8 278.8 280.3 284.3 289.5 297.6 305 318.5 340.3 369.9 370 377.1 383.1 392 391.8 396.1 401.8 370.7 354.1 338.9 345.7 403 399.1 392.4 386.4 390.5 391.3 389.9 375.6 362.5 371.8 350.5 348.5 339.5 333.8 330.8 328.8 327.4 327 325.6 322.4 317.9 313 308.8 309.1 314.4 322.1 327.1 326 320.6 313.2 307.8 299.9 291.6 280.4 268.9 258.3 254.6 260.9 272.6 289.8 292.4 291.3 289.7 296.2 314 309.6 309.5 296.2 281.4 265.5 259 249.2 230.1 198.9 169.3 152.9 143.5 140.6 138.7 139 140.9 140.6 140.9 143.8 149 151.6 146.4 152.4 166.8 181 197 195.3 200.8 223.3 245.1 253.3 283.3 296.7 311.2 299.2 277.7 297 306.3 306.6 303.9 303.7 320.3 327.1 329.8 336.1 337.7 343.2 367.3 388.3 413.1 434.5 449.3 463 476 488.8 494.2 503.6 520.5 528 525.9 517.4 503.7 488.9 463.5 446.1 454 465.5 474 498 511.2 525.8 545.8 553.8 557.6 556.1 555.8 556.2 558.7 561.2 563.3 566.6 571.7 576 581 585.7 587.7 584.6 574.4 554.3 543 542.3 542.7 543.9 547.1 550 551.7 552.9 550.9 504.4 466.2 441.3 418.4 402.9 405.7 413.8 432.8 445.5 459.2 481.1 500.3 522 539.9 557.2 568.4 580.5 585.2 591.5 598.6 606.2
218.8 220.6 223.6 224.4 228.2 230.9 234.8 242.2 247.4 254.7 262.4 267 270.9 273.2 276.3 279 280 282.5 285.5 290.3 297 306.6 316.6 330.8 353.9 366.3 372.9 378.7 380.7 388.8 390.7 381.2 366 371.2 375 402 403.6 400.5 394.9 389.4 385.6 379.5 383.7 388.9 379 354.7 350.5 347 341.5 333.2 332.2 331.6 333 334.2 332 326.7 318.3 312.2 310.3 315.3 326.9 339 346 344.5 340.7 332.5 323.9 317 307.4 296.4 282.6 271.7 268 270 270 279.7 284.3 283.6 286.2 312.1 323.1 317 310.8 301.2 287.2 272.6 271.1 255.9 233.6 203.9 174 154.2 143.9 142 140 138.4 140.5 142.6 144 152.6 154.3 154.7 151.1 152.8 153.2 162.3 181.3 182.7 189.2 211.7 228.3 239.8 260.8 275.1 284.6 276.9 263.2 282.1 284 278.9 283 287.3 299.9 305.5 309.6 314.3 311.1 332.3 350.9 370.8 396.1 416.8 426.8 439.6 451.7 459.8 468.3 484 502 504.4 504.7 500.3 493.3 482.7 462.4 463.5 483 493.6 502.8 517 531.3 545.7 554.5 552.6 546.4 540.1 538.7 538.5 540 540.8 542.6 546.4 552.3 559.1 566.3 573.8 576.9 573.9 564.8 548.6 522.9 520.1 521 521.3 524.1 527 531.5 536.4 538.9 503.6 471.2 447.5 427 420.6 415.7 417.7 432.5 447.9 466.3 490.5 508.8 525.2 550.1 572.2 585.2 593.3 596 595.6 596.8 598.3
219.8 225.7 229.1 227.6 230.4 233.7 240.7 243.8 247.3 251.7 259.8 263.2 267.4 269.8 273 277.2 279.3 280.6 284.4 289.8 295.1 306.9 328.9 329.9 338.2 350.7 351.6 356.8 381.6 385.5 385.8 385.2 381.4 400.4 402.5 403.2 403 400.3 395.8 390.2 386.3 382.8 378 370.8 358.9 354.9 349.4 347 347.9 336.8 333.2 334 336.3 338.6 334.9 326.6 317.5 311 311 320.3 336.7 352.7 358.3 359.8 355.3 350.3 340.8 332.5 322.3 314.2 301.2 289.1 280 276 273.1 273.7 274.4 274.9 285.3 314.2 335.6 334.4 326.1 315.3 301.4 289.1 281.9 274.2 253.8 236.3 201.7 168.1 151.1 144.2 140.7 139.5 139.3 138.6 144.6 149.3 154.9 155.8 147.5 149 151.2 148.8 156.9 170 178.3 192.4 206.9 230.1 247 253.6 260.5 263.7 245.3 256.7 257.6 255.5 263.4 268.5 276.8 284 288.1 291.2 301.6 315.3 332.2 355 377.7 392.3 401.6 414.2 422.3 432.8 444.5 463.3 480.2 479.8 482.5 482.8 480.9 475.9 467.6 472 477.2 483.7 494.5 507 519.1 530.5 538.9 537.4 531.1 523.3 520 519.5 519.7 520 521.6 525.9 532.3 540.5 550.9 561.7 567.1 562.8 554.5 540 519.9 496.3 498.3 499.8 502.2 505.4 511.3 518.3 521.2 505.6 485.7 459.4 448.8 436.9 429 424 438.4 455.7 472.6 495.4 513.2 533.6 553.3 571.3 576.4 581.2 583.7 588.3 593.4 594.1
220.6 225.7 230 230.2 232.4 236.2 243.3 247.5 248.5 252.6 257.9 262.8 265.8 268.9 269.8 272.8 276.7 279.3 283.1 287.9 298.3 312.1 324.7 330.2 330.9 345.9 351.1 354.7 377 384.3 381.5 385.8 392.8 395.8 399.7 400.8 400.9 399.4 395.7 391 386.8 382.2 376.8 370.3 361 356.2 352 347.3 350.2 345.2 341 336.6 337.4 337.5 332.8 325 314.4 311.3 311.5 324.5 348.5 363.5 368 369.8 367.9 361.3 355.5 346.1 335.4 327.5 318.2 305.8 296.8 281.3 275.8 274 272.6 274.9 300.4 329.5 335.9 336.7 329.1 316.3 304.9 288.9 278.6 271.1 261.9 244.1 216.9 187.9 164.4 146.4 141.3 140.5 141.3 141.9 139.4 145.1 149.7 149.6 145.2 144.4 145.2 145.4 150 159.9 174.8 184.6 198.3 218.8 222.9 225.6 237 243.2 226.5 234.4 228.7 233.8 236.4 248.4 257.1 265.7 269.8 273.1 286.3 298.8 317.9 339.8 352.4 362.5 372.7 385.8 397 406.8 422.5 437.8 449.7 457.4 461.2 466.2 466.9 468.7 465.5 462 466.4 473.1 482.2 493.3 504.4 514.8 523 522.9 515.7 506.4 498.8 499.4 500.4 500.4 501.4 505.4 511.8 522.5 536.1 547.2 552.5 549.2 539.2 525.8 510 493.3 475.3 479.3 482.7 486.2 491.4 495.4 498.9 499.5 499.6 476.5 468 454.3 445.9 442.1 452.4 470.2 483.6 503.6 531.1 554.3 561.8 562.3 564.6 570 576.2 580.1 583.9 589.5
218.3 221.9 226.1 227.6 231 236.2 251.7 248.9 251.8 255.1 256 259.7 264.1 265.6 268.3 270.9 274.5 278.1 281.8 295.1 321.3 325 345.8 347.9 347.9 349 351.6 353.9 372.8 372.8 373.9 380 386.1 390.1 394.3 396.6 393 395.2 394.5 390.5 385.6 381 375.7 367.8 360.6 353.8 350.3 347.3 346.8 346.3 344.6 339.6 335.9 330.1 322 317 311.2 311.5 322.2 342.4 360.3 370.8 374.4 374.7 374.1 370.7 363.4 355.9 347.8 338.6 329.9 322.6 312.2 295.1 277.7 276.4 276.6 292.3 309.5 327.5 350.6 354.1 346.4 327.9 314.7 298.6 280.4 269.5 262.2 255 240.5 216 195.1 169.6 153.2 150.1 142.6 141.7 140.9 140.4 145.7 152.2 146.9 143 143.9 145.1 146.4 151.6 158.1 169.8 180.6 185.5 194.6 205.4 215.8 215 208.3 210 209.5 214.7 226.4 228.1 239.1 242.5 245.5 263.5 272.9 285.7 303.8 316.7 326.3 337.3 349.4 361.2 373.4 386 399.7 411.7 420.4 431.4 441.2 446.1 454.8 465 461.7 454.6 455.1 461.3 469.9 478.4 488.5 498.7 508.6 508.2 500.1 487.9 477.5 479.9 481.6 480.4 481.6 483.9 489.2 508.2 522.8 532.6 536.3 532.1 521.9 509.6 496 482.2 467.6 461.2 466.1 469.9 474 478.8 483.3 488.9 497 503 479.9 482.2 473.7 469.6 471.9 489 504.8 526 548.8 571.2 576.3 574.7 569.7 571.5 572.3 571.9 574.8 581.4
216 219.9 222.6 224 228.4 233.7 246.4 246.7 251 258 259.3 263 266.2 265.8 268.7 270.9 273.5 291.2 280.3 285.5 291.1 297.9 320 343.9 349.5 350.2 352.9 353.7 357 364 370.9 376.5 379.8 383.2 386.5 389.7 388.5 391 390.3 387.6 383.8 380.1 374.6 367.3 359.8 355.1 351.1 342 341.3 339.4 338.3 337.7 331 321.4 311.4 311 313.4 328 344.7 359.7 370.2 375.6 379.5 379.7 378 375 370.2 361.4 353.8 347.7 339.6 334.3 325.9 308.2 287.5 280 283.2 301.2 327.2 364.7 405.8 407.6 391 375.3 372.2 351.7 349.7 336.3 334.8 323.4 301.4 277.6 248.3 215.5 187.3 169.7 151.7 145.9 141.6 139.1 141.6 143.7 147.3 142.3 143.8 144 145.3 145.4 148.8 151.2 161.3 162.8 170 181.2 189.3 189.1 186.3 188.9 190.8 204.8 206.5 214.8 218.7 220.7 235.9 246 255.5 269.9 281 296.4 307.4 316.2 325.6 338.8 350.3 365.5 375.4 386.6 397 407.9 412.8 432.7 452.6 460.8 458.5 448.2 445.5 447.4 455.7 462.8 471.2 481.1 489.7 490.8 484.1 473.2 461.4 461.3 462.9 461.8 460.9 463.5 476.7 495.4 509.3 516.9 517.3 513.4 504.1 492.6 480 469.4 460.5 452.4 453.7 457.4 458.3 462 468.2 474.4 484 491.1 502.7 520.3 538 540.7 525.3 520 533.4 552.6 573.5 592.1 598.8 589.4 584.5 581.8 582.1 583.5 595.9 578.7
214.5 218.3 220.5 223.5 226.3 230.3 240.3 245 247.9 253 261.3 267.8 266.4 266.6 269 270.7 272.2 288.9 291.5 284.5 290.5 296.8 302.7 323.7 327.5 337.5 343.7 351.5 357.1 361.5 365.3 371 375.3 378.2 380.5 374.3 386.7 386.3 384 384.4 383.3 377.1 368.8 362.5 356.9 351.4 349.1 341.4 342.8 338.8 336.1 337.3 323.7 311.6 311 311.7 331.8 348.1 357.5 365.9 373.6 379.6 384 383.1 380.2 376.3 372.5 365.3 358.7 354.5 346.6 339.9 333.6 316.9 295.2 291 298.3 323.3 359.9 404.6 449.3 456 434.6 414.8 411.6 400.6 392.8 375.6 368.3 357.6 347.1 327 291.1 253.7 223 202.4 165.5 161.2 144 142 139.4 139.7 142.4 142.5 142.8 143.8 143.5 145.3 144.3 145 147.1 147.8 150.4 155.2 161.8 167.8 165.3 171.8 180.2 188.6 186.3 198.1 201.2 209.3 217.2 227.7 238.7 250.4 263.7 278.9 285.9 294.7 305.5 315.4 331.7 343.4 353 364 374.1 382.2 408.9 433.3 447.1 456.7 456.8 442.9 436.4 437.1 440.9 448.1 454.8 463.4 471.1 472.2 467.4 458.4 448.2 443.6 445.2 443.3 444.7 448.7 467.3 484.7 494.5 500.8 499.3 494.2 485 474.6 464.5 459.7 454.8 447.4 446.1 445.7 445.5 447.6 455.6 460.1 464.8 476.3 495.3 520.5 546.3 570.5 577.2 566.2 570.8 583.5 605 627 629.2 623.1 617.3 638.8 634.3 617 609.4 591.2
216.2 217.6 219.7 222.1 224.6 228 235.2 241.9 245.8 251.1 257 265.4 268.7 269.1 269.2 270.2 272.4 283.6 297.1 284.6 290.7 297.9 302.8 311.1 324.2 331.2 333.8 351.6 357.3 360.9 364.1 366.1 370 373 376.3 379.2 388.7 379.2 377.2 379 373.4 367.9 361.5 355.8 352.2 345.4 343.2 339.7 339.7 339.2 337.1 335.3 321.6 311.4 311.7 328.8 345.1 352 359.5 367.2 374.4 380.4 384.6 385.2 381.7 377.6 372.7 366.5 362.2 359.2 355.2 344.5 331.5 318.5 306.9 304.5 323.7 353.6 388.7 419.3 467.7 506.2 498.3 470.6 458.8 440.7 429.8 419 407.2 404.9 396.6 357.2 321 276.1 253.3 242.3 199.3 182.9 172.6 146.2 141.2 142 140.2 141.4 142.6 142.1 140.8 139.6 142.8 143.2 143.7 144.7 146.4 148.7 152.2 157.3 158.2 158 169.4 171.3 172.2 183.1 182.8 195.9 204.3 212.8 225.5 237.6 247.2 255.8 264.7 273.8 284.3 298.1 311.2 321.8 331.5 343.7 350 375.9 402 422.2 436.2 447.2 451.3 439.2 429 426.2 428.4 433 439.5 445 450.7 453.2 450.6 443.4 436 431.6 430.7 432 431.6 443.3 456.4 471.9 480.1 483.2 480.1 473.8 465.5 459.2 454.9 451.8 448.1 442.9 442 442.7 442.5 440.7 445 443.8 445.3 458.9 478.5 500.2 522.9 551.8 579.3 598.6 614 626.5 642.6 662.7 670.6 673.8 699.5 710.2 707.5 695.2 678.6 657.5
217.2 219.2 220.7 224.5 230.5 233.3 231.7 237.5 245.2 250.6 256.7 261.6 268.3 268.7 268.7 270.1 273.5 288.6 300.9 293.7 291.6 298 305.1 312.7 322 333.3 343.3 351 356.2 358.1 360.8 362.6 364.1 366.4 370.7 381.1 378.5 371.7 367.9 367.5 366.6 360 354.4 350.8 346.8 340.5 337.1 337 337.9 339.1 335.5 332.4 325.1 321.3 329.8 341.2 349.2 354.3 359.1 366.3 373.5 379.6 385.7 389.2 387.2 381.9 376.8 370.3 365.2 362.6 357.9 346 331.7 320.3 316.9 330.1 344.8 372.3 409.5 442.3 484.4 516.5 531.8 529.5 508.3 499.3 485.7 465.3 447 440.1 421.9 390.5 350.6 305.5 275 257.1 233.4 200 193.7 176.2 152.4 142.4 141 141.5 139.6 139.6 139.6 139.6 139.6 140.1 141.3 143.5 144.9 147.1 150.1 151.4 149.5 154.8 156.6 160.2 164.3 171.5 171.5 185.1 189.1 201.9 210.8 223.7 232 237.8 247.3 257.9 267.7 280.8 290.5 301.1 312.9 320.1 344.2 368 391.6 407.2 421.7 435.4 445.6 435.4 422 418.5 416.2 420.4 424.7 429.1 433.3 435.5 434.4 429.6 426.3 424.2 421 419.7 424.4 433.8 445.8 458 465.2 465.8 460.8 454.7 451.3 446.9 446 444.3 441.3 438.6 437.6 438.3 443.6 439.8 431.2 423.4 426.4 440.2 457.9 479.2 504.7 537.7 562.4 590.7 611.6 631.7 649.3 663 677.9 695.9 717.2 737.4 752.8 770.8 753.9 730.7
219.2 221.2 224 230.6 239.1 244.1 249.5 237.8 244.3 250.1 255.9 259.9 265 268.7 270.7 272.6 277.2 295.9 323.8 301.1 298.8 304.8 308 316.3 325.2 335.3 344.2 350.6 354.2 356.2 357.2 358.3 358.4 359.7 364 372 364.9 363.2 361 358.5 358 354.3 350.4 345.5 340.8 333.9 336.3 336.8 338 334.9 329 328.1 329.5 329.2 335.9 344.1 349.3 354.1 359.4 366.3 372.5 379.4 386.7 394.8 395.2 391.8 386 380.4 372.5 363.9 357.8 344.8 331.5 322.4 324.5 334 352.2 381.5 411.4 450.2 492 521.8 542.2 552 550.9 542.9 530.3 516.3 499.2 480.5 459.5 418.5 373.2 321.4 294.7 270.4 259.4 231.6 245.6 199.9 176.5 146.3 142.7 140.8 139.6 139.6 139.6 139.6 139.6 139.6 139.6 142.4 143.4 144.6 146.6 146.8 147.2 149.5 151.5 154.5 156.6 160.3 165.9 171.8 182.6 192.1 198.3 205.9 213.5 220.6 231 242.5 251.9 261.8 272.7 283.9 292.6 312.4 333.2 353.9 372.6 389.8 405.9 421.4 435.7 427.6 417.5 411.5 406.1 409 411.2 413.9 417.7 420.4 420 419.8 416.8 416.3 412.1 412.9 415.8 423.6 435 445.9 447.2 446.6 444.9 443.8 439.3 438.8 438.2 436.5 434.4 432.3 432.9 436.1 441.6 441.7 431.6 420.6 420.6 420.6 441.9 461 488 514.9 539.4 573.5 601.6 621.5 636.5 651.7 668.6 687.2 709.5 731.5 749.6 768.5 783.2 778
221.3 224.5 231.1 240.2 246.6 256.4 258.3 245.5 243.6 250 255.9 260.8 268.3 272.2 273.4 276.8 282.1 305.3 321.7 311.4 322.3 317.9 315.8 321.3 325.8 335.9 344 349.7 352.1 353.5 354.1 353.5 353.6 353.6 357.5 357.5 363.2 353.1 350.6 350 349.3 347.7 343.1 337.8 335.3 332.6 333.8 336.4 329.4 323.8 324.8 325.1 320.8 325.6 332.6 344.6 349.3 353.9 359.5 365.7 374.1 384 394 403 409.2 410.9 407.8 398.4 380.9 366.3 354.7 340.6 330.7 324.3 326.7 332.8 352.6 382.1 417.8 458.8 496.3 524.8 546 560.6 568.9 570.7 562.5 547.2 527.3 505.6 478.6 446.6 402.7 364.5 316 292.2 278.4 282.3 275.3 256.5 231.1 182.6 143 139.6 139.6 139.6 139.6 139.6 139.6 139.6 139.6 139.6 139.6 140.9 143.6 143.6 143.4 146.4 148.6 148.8 151.2 153.5 157.9 163.2 177.9 184.1 187.8 193.3 200.4 208.8 218.2 226.3 236.2 246.6 257.3 267.6 282.6 301.4 320.3 338.1 353.1 376.9 388.7 402.5 415.4 417.1 412.4 404.9 399.4 397.9 400.1 402.2 405.3 408.6 410.6 411.3 409 407.8 405.8 404.3 408 414.4 421.9 430.5 434.6 434.6 433.2 431.4 432.2 431.7 430.6 429.8 428.4 427 428.7 434.8 438.2 437 435.6 420.6 420.6 420.6 426.4 437.1 454 481.7 512.9 550.4 582.6 606.1 619.5 636.1 652.2 673.6 697.1 720.7 740.6 757.3 774.2 784.9
223.2 226.7 233.2 242.3 252.1 258.7 258.1 249.8 246.4 250.8 258.4 265.2 273.2 274.7 277.6 282.1 289.3 306.8 326.2 328.8 325.4 329.1 322.5 326.2 330.4 330.8 342 347.5 349.6 350.5 350.6 349.4 348.9 349.2 352 351.3 348.4 344.2 342.9 342.1 340.9 339.5 333.8 333 332.7 332.1 331.3 329 321.2 319.5 320.1 322.4 319.6 321.7 331.2 343.3 349.3 353.2 358.7 365.9 375.2 387.4 400.2 411.8 421.8 429.7 430.4 420.6 396.5 367.2 349.8 338.6 329.5 325.1 328.5 340.2 362.9 388.5 420.4 454.1 493.2 525.7 548.4 564.3 575.7 583.4 590.9 578.8 558.8 534.6 506.3 468.5 431.5 393.9 351.9 315.6 298.7 302.6 308.1 312.3 291 221.1 156.8 143.5 139.6 139.6 139.6 139.6 139.6 139.6 139.6 139.6 139.6 139.6 139.6 141 142.3 144.1 145.7 146.3 148 151.2 154.2 163.9 173.4 174.3 178.4 182.8 188.7 196.3 204.5 213.5 222.6 233.6 242.5 256 270.2 287.8 302.5 320.3 338.1 355.8 369 382 393.6 405.1 406.2 399.2 392.3 388.3 390.5 392.4 396.2 400.3 402.7 402.9 401.8 401 398 399.2 402.3 406.7 411.2 417.2 421.5 423.3 423.6 424.2 425.2 425.4 424.6 424 423.4 422.8 423.6 429.4 432.3 434 433.5 428.5 420.6 420.6 420.6 420.6 432.2 455.3 485.8 525.5 559.2 580.3 591.6 606.8 627 647.2 674.7 693.9 712.1 736.8 763.2 780
225.1 228.6 233.8 241.6 254.6 261.8 256.8 253.8 250.7 250.5 261.5 273.3 276.9 278 281.5 289.4 297.2 311.3 319.6 324.8 329.5 330.3 330.5 330.7 335.9 341.3 344.7 346.9 348.4 348.7 347.8 345.8 344.3 344.2 344.2 342.6 339.2 336.5 334.5 332.4 330 330.2 328.6 328.4 331.4 328.9 326.7 321.7 317.8 317.3 316.7 318.4 321.6 324.8 333.8 337.3 344.9 351.3 357.9 367.5 379.3 393.9 407.1 421.2 434.4 446.9 450.5 439 404.5 371.3 352.6 348.9 350.5 337.4 335.1 347.2 365.2 390.3 426.6 456.2 498.4 525.5 547 565.4 577 585.6 590 585.5 576.1 559.8 533.4 499.5 451.7 408.6 372.1 354.5 339.3 312.4 316.7 305.3 266.1 224.8 189.6 150.6 142.3 139.6 139.6 139.6 139.6 139.6 139.6 139.6 139.6 139.6 139.6 139.6 139.6 140.6 142.4 144.3 145.2 150 153.8 158.1 161.6 165 168.6 173.6 179.7 187.4 195.6 204 210.7 221.3 233.6 245.7 258.5 274.1 289.8 304.6 323.4 337.4 347.4 360.1 373.8 387.2 393.2 390.9 386 379.1 382.1 385.7 389.7 392.9 395.4 395.5 394.8 394.5 393.9 394.3 397.9 400.9 404.4 409.1 413.1 415.9 416.7 418.1 419.4 419.7 418.6 418 417.5 417.1 419 423.1 425.6 427.2 428.9 427.5 420.6 420.6 420.6 420.6 420.6 436.3 464.7 496.3 533.1 547.2 554.9 567.7 588.8 620.9 637.4 659.2 684.3 718.2 748.2 774.1
227.7 231.8 238.3 242.6 253.6 263.2 258.3 257.7 257.2 258 263.7 275.9 277.3 278.9 285.7 295.6 304.5 314.5 312.1 314.9 327.2 328.4 329.5 332.7 338.4 343.4 347.6 348.4 347.3 346.4 344.8 342.3 337.8 336.2 333.7 330.2 328.9 328 324.7 322.5 322.9 323.6 327.6 325.8 322 319.4 319.1 317 318.3 319.7 315.7 313 321 326.8 334 335.9 343.5 351.9 358.4 367.3 380.6 396 414.4 431.2 444.8 459.2 469.8 460.9 416.1 378.5 353.6 350.6 349.4 354.4 350.1 364.2 395.6 410.6 439.3 467 497.1 527.9 549 567.4 578.3 584.1 584.6 578.4 568.5 556.6 541.8 524 486 445.9 412.2 390.5 371.9 344.4 318.9 297.5 284.4 258.4 180 164.8 147.1 139.6 139.6 139.6 139.6 139.6 139.6 139.6 139.6 139.6 139.6 139.6 139.6 139.6 139.6 140.6 142 144.3 149.9 151.5 153.6 158.1 161.8 166.1 172.7 179.3 187.1 195.2 203.5 214.1 224.3 235.1 247.2 261.7 277.1 292.6 308 319.9 332.7 346.2 359.8 372.6 380.7 382.2 376.1 373.1 374.5 378.7 382.7 385.3 387.5 388.1 387.8 388.1 387.2 390.2 393.3 396.3 399.5 403.3 406.2 408.7 410.9 412.8 414.7 414 413 412.2 412.1 411.9 413.5 415.8 416.3 418.1 422.6 422.1 420.6 420.6 420.6 420.6 420.6 426.4 451 470.3 500.3 508.8 519.6 529.6 548.2 571.6 600.6 633.4 673.9 707 745.4 773.5
233.4 238.2 246.6 251.7 255.3 262 260.8 263.3 267.9 265 267.2 274.5 276.9 280.4 289.5 302 314.6 315.1 313.4 316.5 317.5 304.5 304.5 331.8 339.4 344.2 346.8 347.3 343.9 342.7 339.5 337.1 331.9 327.6 326.2 323.5 321.4 319.7 318.9 318.9 321 321.1 321.7 320.9 317.1 314.1 312.4 313.2 314.2 314.8 314 316 321 324.4 330 334 342.1 347.2 357 366.9 379.3 396.7 415.7 435.1 451.3 467.5 480.1 478.9 436.7 394.3 367.8 361.5 368.1 369.9 373.1 386 405.2 430.1 443.3 473.4 504.8 536.7 557.8 571.5 579.7 582.3 579.8 572 561.2 547.5 531.6 512.5 491.4 464.2 426.5 399.5 383.7 348.3 319.3 286.3 245.3 205.2 205.9 177.3 149.4 139.6 139.6 139.6 139.6 139.6 139.6 139.6 139.6 139.6 139.6 139.6 139.6 139.6 139.6 139.6 139.6 139.6 143 144.9 147.5 151.2 154.7 158.6 163.1 169.6 179.9 187 196.2 205.8 216.2 226.8 238.7 251.4 266.1 280.8 293.5 306.1 320.1 333.4 346.8 355.1 362.1 364.4 365.8 363.6 367 372.2 376.7 379 380.7 381.8 382 381.7 379.5 386.2 389.1 393.1 395.1 397.4 399.9 403.1 406.4 408.9 409.8 408.8 407.7 406.9 407.1 406.5 407 407.8 406.4 409 415.6 420.4 420.1 420.4 420.6 420.6 420.6 424.7 441.9 451.4 465.7 475.4 485.1 494.8 514.5 538.6 577.9 620.1 664.6 697.4 727 758.7
243.8 250.4 255.6 260.1 260.5 263.3 265.8 268.9 274.6 265.2 272 273.9 278.9 284.7 292.6 305.6 307.9 312.8 317.3 317.2 304.9 304.5 304.5 308.1 338.8 342.2 344.1 344.6 342 338.4 335.1 329.5 324.2 320.5 318.4 316 314 312.2 311.4 311.5 312.8 315.3 316.1 314.2 310.7 309.7 308.9 308.2 306.6 304.7 307.2 308.7 318.8 326.5 330.3 334 340.7 346.2 354.3 366.9 380.5 397.8 417.4 437 454.6 470.8 486.6 496.8 469.5 423.8 400.3 386.8 393.2 394.2 399.4 409.3 419.2 437 451.3 478.3 521 552.9 568.3 577.5 582.5 580.8 577.7 568.4 555.6 539.3 520.7 498.6 475.1 448.3 420.9 394.2 366 336.7 307.1 270.2 238.2 238.4 240 198.8 153.8 143 139.6 139.6 139.6 139.6 139.6 139.6 139.6 139.6 139.6 139.6 139.6 139.6 139.6 139.6 139.6 139.6 139.6 143.3 145.6 148.1 150.2 152.8 157.3 163.9 172.3 179.5 189.3 197.7 208.1 218 227.5 242 258.2 270.7 280.6 293.5 306.8 317.8 328.3 337.7 345.1 351.4 354.1 354.1 360 364.9 369.3 373.3 374.9 376.1 376.8 376 376.6 381 385.8 389.7 392.1 394.1 397.3 399.1 402.2 404.5 404.7 403.8 402.7 402 402 401.8 400.4 399.7 396.5 399.8 407.1 412.9 414.7 416.3 419.9 422.1 424 427.7 432.5 438.7 441.4 444.6 453 467 489.4 512.2 549.8 604.4 637.3 665.9 700.4 744
250.2 261.8 261.3 266.6 264.7 266.9 271.9 276.8 272.6 268.3 275 277.9 283.1 290 299.8 305.1 306.8 312.9 313.8 315.5 318.1 304.5 309 330.4 335.4 338.8 339.8 339.2 337.1 334 330.3 322.9 317.5 314.3 311.4 308.8 306.8 305 303.8 303.7 304.7 307.6 307.7 303.3 298.9 300.8 304.4 302.3 300.1 300.1 300.1 308.3 316.7 323.9 330.1 335.9 341.9 346.6 359.8 372.5 386.1 402.2 420.8 439.1 457.3 474.5 492 506 511.1 486.2 444.9 431.7 425.3 426 428.4 432.8 440.7 459.4 480.9 512.9 542.6 570 580.4 586.8 587 585 578.5 566.7 549.3 531.3 512 489.2 461.6 432.4 402.9 379.3 354.5 329.6 295.7 270.4 261 257.7 256.1 220.8 163.9 154.7 139.6 139.6 139.6 139.6 139.6 139.6 139.6 139.6 139.6 139.6 139.6 139.6 139.6 139.6 139.6 139.6 139.6 140 142.8 144.9 146.7 150.2 153.6 160.2 166.7 173.9 182.2 189.5 199.7 208 219.6 233.6 246.4 257 268.4 281.1 292.9 302.7 312.1 323.2 332 339.2 343.2 347 353.1 358.2 362.4 366.7 368.7 369.7 370.5 369.4 371.6 376.6 382.2 385.7 388.7 391.4 394.7 396.5 398.3 399.4 400 398.9 398.1 398 398.2 397.7 394.1 392.7 391.8 396.1 402.3 405 407.5 409.9 414 416.8 419.6 422.3 425.8 427.7 426.3 424.5 429.6 445.5 462.8 486.2 532.5 564.8 609.3 649.7 693.1 726.5
254.4 261.2 264.9 269.1 270.8 272.2 275.6 279 276.3 265.5 276.5 282.4 287.7 297.1 302.4 305.9 307.7 309.8 311.6 314 316.8 319 323.1 326.9 331 333.9 335.2 334.8 333.5 330.7 326.1 316.2 313.1 308.5 305.5 302.7 299.8 297.2 296 296 297.6 300.7 301.2 298 295.6 297.1 299.8 300 300.1 300.1 300.1 310.4 321.6 325.5 328 334.8 344.8 346.9 355.9 371.5 389.1 407.5 425.2 442.9 461.1 479.6 498 513.1 526 533.3 501.4 504.7 476.7 465 459.6 458.9 466.9 484.6 508.9 544.2 571.1 587.7 595.9 599.4 597.1 592 582.9 568 552.9 535.2 515.1 494.7 470.3 443 408.1 379.8 354.6 329.2 304 297.8 284 279.3 282.7 247.8 202.4 166.2 152 141.7 139.6 139.6 139.6 139.6 139.6 139.6 139.6 139.6 139.6 139.6 139.6 139.6 139.6 139.6 139.6 139.6 139.8 142.9 145.2 146.3 150.3 156.6 162.3 168.6 175.5 182.1 191.4 201.2 212 222.6 231 242.1 254.7 266.5 277.6 289.2 299.2 310.5 319.4 327.9 334 339.2 346.6 351.8 356 359.7 362 363.1 363.4 363.6 366.8 371.4 376.5 380.7 384.2 388.4 392 393.7 394.4 394.8 395.4 394.5 394.1 393.6 393.2 392.9 391.5 390.7 390.3 394.5 397.8 399 400.1 402.1 405.9 409 412 416.6 416.9 414.9 414.9 414.4 416 428.2 448.9 475.5 502 547.5 604.2 634.9 673.7 711.2
257.4 262.2 268 273.9 274.2 277.7 280.6 283.5 284.3 275 279 284 290.7 297 299.9 301.7 303.4 305.6 307.2 309.6 312.6 315.4 319.8 323.8 326.9 329.6 330.1 330.4 327.8 326 324.1 313 308.4 303.3 299.8 296.8 292.3 290.5 289.4 289.3 291.3 294.1 295.9 296.3 294.8 297.4 300.1 300.7 301 303.9 306 314.9 322.7 327.2 334.3 334.6 343.2 351.1 358.5 372.8 389.2 409.3 428.7 448.7 468.2 486.1 503 518.8 533.8 545.3 549 554.7 527 521.9 500.1 498.5 497.7 515.6 544.4 586.3 601.3 608.2 611.8 612.3 608.8 602.4 589.3 574.8 557.6 539.9 518.1 494.5 469.2 439.9 407.8 380 355.3 330.3 322.2 319.3 309.7 301.1 297.7 261.5 227.8 201 165 154 145.5 139.6 139.6 139.6 139.6 139.6 139.6 139.6 139.6 139.6 139.6 139.6 139.6 139.6 139.6 139.6 139.6 141.2 143.7 144.5 147.2 152.4 159.7 165.9 171.3 179.3 187.6 196.2 205.8 213.4 221.9 230 242.7 253.9 264 276.4 288.7 298.5 308.5 317.3 322.7 331.7 339 344.5 348.8 351.3 354.3 356.5 356.2 358.6 361.7 366.2 370.6 374.7 378.7 383.9 387.1 388.9 390 390.4 390.5 389.4 390.1 391.2 390.6 390.2 388.9 388.5 389.1 391.6 393.5 394.2 395 397 399 402.4 405.8 409.3 410.9 410.2 410.8 411.6 413.9 420.1 438.2 459.2 483.3 517.5 558.9 616.4 650.5 691.3
265.1 267.9 273.8 277.1 280.4 284.4 287.3 289.2 289.3 281.8 284.4 288.6 291.3 295.7 294.7 297.4 299.4 300.2 302.5 304.1 307.7 310.4 315.2 318.4 323.1 323.9 326.2 326 323.2 320 312.6 307.3 302.1 297.6 293.8 289.5 286.2 284.8 283 283.3 284.8 287.6 290.9 293.1 292.2 297.6 302.7 300.5 303.9 308.1 313.8 320.3 325.5 327.9 332.2 333.8 340 349.7 359.4 372.9 390.2 409.8 430.4 453.6 475.5 493.3 510.6 527.5 542.4 555 565.3 575 573 574.8 563.3 551.1 549.6 563.3 592.8 614.8 622.8 625.6 626.3 626 622.1 612.1 598.3 582.4 564.1 542.8 517.2 490.4 462.5 435.3 404.4 378.5 356.7 333.8 337.4 337.6 335.4 343.2 308.7 274.8 248.4 219.8 187.4 165 158.9 149.7 139.6 139.6 139.6 139.6 139.6 139.6 139.6 139.6 139.6 139.6 139.6 139.6 139.6 139.6 139.6 139.6 139.8 140 144.5 148.2 155.2 160.3 167.3 175.2 183.2 191.2 197.5 205.8 213.3 220.3 229.6 242.2 254.5 264.4 277.5 287.5 297.5 305.8 315 324.9 332 336.9 340.8 344.1 348.4 350.4 351.6 354.1 356.4 360.8 364.6 367.3 372.9 378.5 381.6 383.3 383.9 383.3 383 385.1 386.6 387.8 388.4 387.6 386.7 387.2 387.7 388.7 389.8 390.6 391.4 393 395.2 398.3 403.3 408.2 410.3 409.1 410.1 411.8 414.3 419.8 436.4 453.6 477.1 507.2 542.3 581 620.6 663.2
278.8 275 278.3 280.8 285.7 288.6 291.4 292.3 293 290.5 280.8 286.4 291 289.2 291.9 294.1 294.5 295.9 298.2 299.6 301.5 304.1 308.5 312.5 316.9 319.5 319.9 319.5 316.4 312.8 306.6 302.1 297.2 291.7 287.7 283.5 279.4 278.1 276.8 277.6 278.6 280.5 283.1 284.7 288.5 293.4 298 300.5 306 309.1 313.4 318.9 323.3 325.9 331.2 337.2 335.7 345.1 357 371.8 390.1 410.4 432.9 457.7 480.9 501 518.8 535.9 551.4 565.7 576.9 586.8 594.2 599.5 603.5 600.5 601.8 609.1 623.5 634.4 638.4 640.6 641.6 639.6 632.8 621.5 605.6 588.4 567.3 540.4 510.4 481.7 455.1 428.6 402 379.9 358.7 349.7 353.6 352.4 353.8 340.4 318.2 286.4 262.2 233.5 204.5 179.7 170.1 159.9 145.7 139.9 139.6 139.6 139.6 139.6 139.6 139.6 139.6 139.6 139.6 139.6 139.6 139.6 139.6 139.6 139.6 139.6 139.6 145.1 149.5 155 161.9 169.4 177.7 184.7 190.7 198.4 205.3 212.9 219.5 230 243.7 253.6 266.4 277.2 283.3 297 307.4 317.2 323.1 327.9 333.6 336.8 339.7 342.2 346 348.1 350.9 354.6 358.3 362.4 367.7 372.1 375.1 376.8 377.5 377.6 378.7 381 383.3 384.5 385.6 384.5 384.4 386 386.9 387.9 388.8 389.5 390.4 390.9 391.7 396 404 407.4 407.5 407.5 410.7 413.2 415.4 424.6 440.1 456 478.6 508.9 546.5 575.4 607.2 640.4
295.4 292.9 282.6 286 288.7 291.5 293.6 294.5 294.4 293 290.5 286.1 284.7 286.6 289.1 290.3 291.3 292.2 293 295.2 296.6 298 302.2 308.7 284.2 312 311.8 272.4 270.5 305.1 300.6 297.1 291.7 285.9 282 278.3 274.4 272.6 271.5 272.2 273.1 275.3 277.4 278.9 279.4 284.7 291.5 299 304.1 307.9 312.6 313.3 318.5 321.3 328 333.3 333.2 342.6 355.2 371.4 389.5 411.3 435.9 461.1 484.2 506.6 526.3 542.9 558.7 575.2 588.3 600.2 607.7 614.3 619.9 625.9 632.8 640.3 645 649.4 652.7 653.9 653.7 650.1 641.8 627.3 609.7 590 564.4 532.9 502.5 473.4 448.7 421.5 398.7 378.5 362 367.3 371.4 376.9 371 350.3 322.8 292.5 271.7 250.3 223.8 197.4 180.4 165.8 153.5 147.8 139.6 139.6 139.6 139.6 139.6 139.6 139.6 139.6 139.6 139.6 139.6 139.6 139.6 139.6 139.6 139.6 139.6 140.6 145.1 150 155.9 164 171.1 177.2 183.1 191.1 198.2 204.8 210.9 220.7 231 241.6 252.6 261.6 275.7 288.1 297.4 306.5 312 318.3 321.8 330.5 335.4 337.6 341.1 343.6 346.9 350.3 354 357.5 361.8 365.7 368 370.4 371.8 372.8 375.9 377.6 379.5 381.2 381.1 382.6 384.9 385 385.5 387.1 387.6 388.4 389.3 389.5 390.3 395.8 397.8 401 401.7 405.6 408.9 414.9 419.5 431.3 445.4 463.7 489.2 524.7 547 567.7 593 614.7
288.3 287.9 291.3 295.4 292.6 294.3 295.3 295.3 294 292.2 289.6 286.4 283.6 285.2 286.4 287.1 288 288.8 289.6 290.8 292.5 294.5 296.8 304.2 304.9 306.1 305.5 292.9 270.3 302.5 295.6 292.2 285.5 280.5 276.7 273.7 269.9 267 266.5 266.7 268.6 271.5 273.9 274.6 276 278 282.7 289.2 297.6 304.2 308.9 312.3 315.3 318.7 324.4 331.6 333.9 342 355.6 371.1 390.7 413.8 438.5 463.1 486.7 509.7 530.7 548.7 565.3 582.5 597.4 611.1 621.8 629.1 635.3 641.7 648 654.6 659.3 662.5 664.7 664.8 661.7 655.7 644.2 628.5 607.3 582.8 555.9 526.1 496.9 468.2 440.4 415.3 395.8 379.2 369.7 381.6 388 385.8 373.7 354.2 327.9 301.4 282.6 257.1 232.5 209.2 185.1 170.2 159.1 153.1 147.2 140.5 139.6 139.6 139.6 139.6 139.6 139.6 139.6 139.6 139.6 139.6 139.6 139.6 139.6 139.6 139.6 139.6 139.6 147.5 151.5 158.6 164.1 169.7 176 182.8 189.8 197 203.3 210.5 219 226.7 240.8 256.2 266.7 274.8 286.3 296.5 303.1 309.2 317.3 325.8 328.4 332.6 336.7 339.4 342.7 346.1 349.2 352.7 355.7 358.3 361 364 366.7 369.6 372.6 375.1 376.5 377.4 381.4 383.5 384.9 384.9 384.9 386 386.7 387.1 387.9 388 389.4 393.3 396.8 397.7 398.9 402.4 409.8 418.2 426.7 435.5 450.4 459.7 485.6 515.9 541.9 558.7 576.2 590.7
293.4 292.7 294.1 293.5 294.9 295.8 295.6 294.5 292 289.4 286.2 282.8 281.8 282.1 282.9 283.9 284.7 285.4 285.7 286.6 289.3 291.2 292.9 296 299 305.1 304.6 303.9 304 302.1 289.4 287 281.4 275.8 271.6 269.2 265.8 262.3 261.6 261.4 264.2 268.1 270.8 272.1 274.1 277.1 281.8 285.5 291.5 296.8 303.8 309.9 314.7 318.9 324.5 330.2 334.6 343.2 356.1 372.6 391 415.3 439.5 463 486.7 511.5 532.8 551.8 568.3 585.9 602.1 617.8 630.6 640.5 647.2 654.7 660.6 666.3 670.2 672.7 673.4 671.8 665.9 656 640.7 620.5 597.5 571.2 544.2 516.9 488.6 460.3 432.3 409.4 393.4 379.5 386.5 395.5 399.5 395.6 383.7 364.1 344.4 312.3 288.8 262.1 241.1 220.6 196.5 180.3 169 160.3 156.4 149.8 143.7 139.6 139.6 139.6 139.6 139.6 139.6 139.6 139.6 139.6 139.6 139.6 139.6 139.6 139.6 139.6 139.6 144.3 146.6 152.6 157 162.4 168.1 175 183.7 190.1 196.6 202.8 207.1 217.1 232.7 245.3 255.6 263 276.1 286.6 296.1 304.6 312.7 320 321.2 327.5 331.7 334.2 337.9 342.5 345.9 349.2 352.4 354.5 357.5 360.2 363.9 366.4 369.4 371.9 374.3 378.6 382.2 385 384.9 384.9 385.4 385.1 386.1 386.9 387.3 388.5 389.1 391.2 393.7 394.9 397.4 400.8 415.1 427.5 439.7 450.1 458.5 470.1 485.9 507.5 529.2 545.9 559.4 565.9
297.2 295.9 294.7 293.4 295.3 295.1 294.6 292.9 289.6 286.7 283 279.8 279.2 278.4 278.7 279.6 279.8 279.5 280 282.5 285.1 287.3 289.2 290.3 292.4 293.8 296.6 302 303.3 304.3 289.6 282.1 279.8 279.7 269.1 263.1 258.3 254.7 253 256.6 260.5 266.3 270 271.6 273.2 276.2 280.3 284.8 288.5 293.6 298.7 304.5 310.1 316.5 323.2 331.1 336.9 345.6 356.4 372 392.7 414.8 438.2 462.3 486.6 510.7 533.9 553.5 570.3 584.6 599.6 616.3 631.9 645.6 656.2 663.1 669.1 674.5 678.5 681.1 680 676.6 668.3 652.4 630.8 608.3 585.1 559.4 533 506.4 479.8 453.1 427.1 406.9 392.8 391.4 399.9 408.7 412.7 405.3 390.5 375.5 350.9 319.4 290.8 268.8 248.8 231.6 211.5 193.5 179.6 170.2 161.9 156.7 152.1 144.9 139.6 139.6 139.6 139.6 139.6 139.6 139.6 139.6 139.6 139.6 139.6 139.6 139.6 139.6 139.6 139.6 141.8 147.4 151.4 157.1 162.9 168.7 176.1 182.8 189.3 192.7 200.7 211.3 222.7 233.4 242.9 254.3 267 279 287.8 296.8 305.3 309.7 315.3 322.3 325.5 329.2 333.2 337.8 342.8 346.7 349.9 351.5 353.9 356.5 358.3 358.9 363.9 371.7 375.7 379.4 383.1 385.1 385.9 385.9 385.9 386.1 386.8 387.7 387.9 388.8 389.1 391.2 392.9 395 394.7 409.3 430 445.7 455.9 467.9 474.1 482.3 497.6 506.8 517.5 531.1 539.3 543.6
301.6 298.6 296.1 294.9 294.3 293.9 292.5 289.6 286.6 281.9 279.5 277.1 275.9 274 273.5 274.4 274.6 275.1 276.2 277.8 280.1 282.3 284 286.6 289 291.1 290.7 291.1 299.7 302.6 299.2 275.1 273 279.4 269.4 259 251.1 248.5 249.6 250 259.1 266.5 268.9 270 272.2 274.5 278.6 283.5 286.5 290.9 294.4 298.7 302.4 309.9 318.8 326.8 335.7 345.3 358.1 371.4 391.5 412.8 436.1 459.4 482.8 506.2 528.8 549.6 566 579 592.8 608.1 622.2 635.7 648.7 661.3 669.9 678.9 685.7 690.2 686.6 680.4 668.1 645.6 621.4 598.4 573.7 548.1 522.3 495.9 470.1 446.1 423.9 408.2 399.5 403.3 411.8 421 425.5 415.3 399.7 378.9 355.4 326 301.8 281.8 260.6 243.7 223.8 207.8 192.3 181.4 175 164.9 159.1 154.2 146.7 139.6 139.6 139.6 139.6 139.6 139.6 139.6 139.6 139.6 139.6 139.6 139.6 139.6 139.6 139.6 139.6 142.2 146.4 152.1 157.4 161.6 168.9 174.5 180.3 186.5 196.4 205.4 213.3 222.3 230.5 242.7 257.6 267.3 276.2 285.8 295.4 305.4 312.6 316.1 319.4 323.3 326.9 332.3 338.1 343.5 346.4 348.3 349.2 344.1 352.8 361 365.8 371.5 375.8 380 383.7 385 385.2 385.2 385.3 386.4 387.6 388.3 389.7 390.1 389.1 391 392.2 394.4 406.3 430.1 452.3 464.8 473.2 482 492.1 494 504.5 511.1 518.6 527.6 535.6 536.6
305 300.4 297.1 295.8 293.8 291.8 289.2 286 282 278.1 275.7 273.7 272.4 269.5 268.8 268.8 269.6 271.5 272.6 273.6 276.2 277.7 279.8 282.9 285.8 287.6 286.3 284.6 282.7 280 281.5 269.1 267.7 267.7 255.4 246.1 244.8 238.9 240.3 246.4 255.3 263.5 265.4 267.1 269 272.3 276.2 281.3 285.1 287.6 291 294.9 299.2 304.8 313 324.7 334.4 342 356.5 372.7 389.3 410.7 432.9 456.4 477.1 498.4 518.5 537.1 552.7 566.4 579 593.1 607.2 622.2 635.4 648.9 661.8 672.8 686.4 696.5 691.5 682.6 664.3 639.3 614.2 588.3 562.9 537.7 512.3 486.9 463.2 439.9 421.4 408.7 412.4 418.8 429.5 441.5 439.2 430 410.7 384.2 359.9 336.3 316.4 295.1 274.9 261.4 241.2 223.2 209.4 196.4 189.5 181.3 171.6 163.6 158.6 149.3 139.6 139.6 139.6 139.6 139.6 139.6 139.6 139.6 139.6 139.6 139.6 139.6 139.6 139.6 139.6 140 142.1 146.1 149.6 153.6 160.7 165.6 176.7 183.2 190 198.9 207.6 214.1 222.7 233.5 246.3 256.2 264.1 278.3 287.3 298.2 307.1 309.4 312.2 314.9 321 327.8 333.8 339.1 342.4 344.6 338 345.6 352.4 358 363.9 370 375.5 380.6 383 384.8 384.6 384.5 385.2 386.1 387.6 390.2 392.4 391.1 389.4 391.1 393.6 402.7 421.3 443.2 469.2 485.4 494.4 498.8 504.3 506.9 511.1 516.3 523 530.2 534.5 530.7
308.5 303 299 295.2 292.6 288.8 285.5 281.9 277.9 274.8 272.3 270.4 270.4 266.3 264.6 264.5 265.1 266.4 268.2 269.6 271.8 273.7 275.8 279.1 280.7 281.5 280.7 279.3 277 273.4 268.6 261.9 258.8 264.7 242.9 240.6 238.9 232.6 239.1 242.8 249.6 257.4 262.1 264.5 266.1 269.2 272 276 280.6 284.1 287.8 292.5 297.9 303.9 310.4 317.6 328.2 340.6 351.8 369.6 387.7 406.2 427.2 449 470.2 488.2 504.4 518.9 533.4 547.8 562.2 575.5 588.8 603.8 619 633.3 646.8 659.9 674.3 686.4 690.2 682.8 661.8 632.8 606.3 580.2 554.6 528.8 502.8 477.6 456.2 436.5 420.5 425.1 431.5 440.9 451.4 462.8 458.2 441.9 419.3 394 369.3 349.3 328.1 303.9 288.8 273.3 254.5 244 230.8 214.5 208.5 201.1 189.9 178.8 169.8 159.2 150.8 139.6 139.6 139.6 139.6 139.6 139.6 139.6 139.6 139.6 139.6 139.6 139.6 139.6 139.6 139.6 140.7 143.5 145.7 149.3 153.6 162.7 171.9 179.1 184.5 193.2 200.4 208.6 216.4 225 235.1 243 254.9 264.7 279.1 289.6 299.9 303.4 304.5 307 315.8 323.1 329 333.5 337.3 339.1 334.4 344.5 349.6 355.2 361.7 369.4 375.9 380.3 382.6 383.8 383.7 384.3 385 385.9 387.8 391.3 393.1 391.7 390.1 391.3 401.6 418.3 462.4 471.1 494.2 500.9 508.1 510.5 513.2 514.7 515.7 521.3 522.5 528.9 535.8 531.1
311.2 305.7 299.9 294.6 291.4 286.7 282.8 278.8 279.6 272.7 269.4 268.4 265.1 262.8 260.7 260.3 260.9 261.5 263.4 264.9 266.7 268.9 271.1 274.1 274.8 275.6 275.3 273 269.1 266.2 260.9 253 245.7 241.4 238.6 236.3 234 226.2 234.9 239.7 248.1 258.2 262 263.1 262.6 264.6 267 271 275.5 279.9 284.4 290.6 296.6 303 309.9 316.3 323.7 335.7 347.7 364.2 384.3 400.5 419 437.1 455.9 471 485.8 499.7 513.4 527.4 541.8 556.9 570.9 586.1 601.2 616.3 631 644.4 657.9 671.1 682.5 680.5 658.4 629.1 601.7 574.8 547.2 520.4 493.6 471 451.7 435.6 437.8 446.7 454.5 466.4 477.8 488.7 481.4 456.7 430.2 405.7 383.6 361.6 340.7 315.2 308.5 291.2 269.3 261.1 250.5 241.7 232.9 221.7 210.8 198.7 187 174.7 158.1 145.8 139.6 139.6 139.6 139.6 139.6 139.6 139.6 139.6 139.6 139.6 139.6 139.6 139.6 139.6 139.6 143.6 145.9 148 151.7 159.9 166.3 172.8 177.8 186.4 194.2 202.1 210 216.7 224.6 233.5 244 258.1 270.1 279.9 289.3 296.1 296.3 300.9 308.9 317 323.5 328.2 327.5 323.7 336.9 343 347.8 353.3 360.9 368.7 374.6 378.6 381.3 382.7 383 383.9 384.7 385.7 388.8 391.8 392.2 391.7 391.1 402.4 427.2 436.9 465.7 495 505.3 510.8 516 519 518.3 520.4 521.3 519.7 521.5 525.7 530.6 531
312.6 306.8 300.9 294.6 289.6 284.9 280.8 279.3 272.6 269.6 269.1 264.1 261.4 259.7 257.4 255.3 255.2 255.6 256.9 259.3 261.3 263.4 265.6 269.1 270.2 271.1 269.5 265.6 262.6 258.9 253.1 243.5 240.7 235.9 231.6 231.2 227.5 222.7 230.1 236.7 246.6 256.8 261.4 260.5 259.5 261.1 263.7 266.3 270.4 274.9 279.9 287.1 294.4 301.5 309.5 317.3 323.4 332.6 341.9 356.3 372.1 390.3 407.7 422.2 434.5 449.2 463.6 477.5 491 506.2 521.2 536.4 551.6 567.2 582.2 598.3 613 627.8 641.2 654.4 665.2 670.2 654.5 626.3 598.3 572.5 543.1 514.6 487.3 467 451.2 450.1 457.5 467.5 478.1 491.6 505.7 517.3 503.4 471.6 443.8 420 396.5 374.1 354.3 333.6 319.4 308 288.5 287.8 266.3 263.6 261.5 253.3 236.8 221.2 206.2 189.9 174.3 162.9 143.7 139.6 139.6 139.6 139.6 139.6 139.6 139.6 139.6 139.6 139.6 139.6 139.6 139.6 139.6 141.8 144.6 147.1 149.9 156 162 166.8 171.5 180.3 187.2 195.3 201.8 209.1 217.8 227.7 238.1 250 262.7 271.4 282 287.9 288.6 294.9 302.9 309.7 317.3 323 312.3 326.2 333.5 340.6 348 354.5 361.2 367 372.1 375.6 378.1 381.3 382.9 383.9 385.8 388.6 391.6 393.6 393.8 394.4 397.3 428.9 489.4 497.8 480.4 501.5 510.2 518 521.8 525.6 525.2 525.5 524.5 519.4 520.1 522.3 522.2 525.8
313.7 305.8 298.5 292.8 287 284.5 285.4 273.2 270.1 266.5 263.2 259.9 256.8 254.8 252.9 251.1 250 250.2 251.9 253.9 255.9 257.9 260.4 263 266.2 265.4 263.7 260.4 256.9 252.2 242.4 233.6 232.2 229.7 225.8 224.9 215.1 218.8 228.1 233.8 244.4 253.9 257.7 256.9 256.5 258.1 259.9 262.1 265.7 270 275.6 283.5 292.1 299.9 307.6 315.7 322.7 328.5 335.3 345.9 358.8 373.8 388.7 403.1 414.1 426.1 439.5 454 468.4 484.1 499.4 514.9 531.6 547.4 563.8 579.8 595.5 610.5 624.1 637 648.3 657 653.7 625.8 599 570.8 541.5 512.8 488.2 471.7 466.7 471.4 481 491.4 504.6 519.4 534.3 543.8 517.9 488.4 460.4 435.1 411.7 389.7 368.2 347.6 330.6 318.8 312 306.2 292.9 291.3 291.1 279.3 265.1 249 233.7 215.7 195.9 183.2 167.9 152.6 139.6 139.6 139.6 139.6 139.6 139.6 139.6 139.6 139.6 139.6 139.6 139.6 139.6 140.8 143 145.3 147.7 149.8 155.8 160.2 166.5 173 180.6 186.3 196.2 203.1 212.6 221.5 231.7 243.4 253.4 263.7 272.3 277.8 283.1 289.6 297 305 312.4 318 308.3 321.4 329.5 335.3 343.2 351.9 359.4 364.3 369.5 374.7 378.2 381.7 383.6 386.3 390.1 393.4 395.4 397.2 398.1 400.1 414.5 449 505.4 514.6 505.7 507 515.2 524 528.8 531.7 532.1 531.7 529.8 519.4 519.4 519.4 519.6 523.9
312.7 303.8 296.1 291.2 283.9 279.9 275.1 270.6 267.6 262.7 258.3 255.7 252.6 249.8 247.4 245.6 230.6 237.9 246.8 248.8 250.4 250.9 252.8 255.7 258.8 258.5 255.7 253.9 250.2 242.6 232 225.9 224.4 222.5 220 210.1 209.4 217 226.3 232.2 241.1 250.1 253.3 253.8 253.5 255.2 256.7 258.1 261.7 265.7 270.3 279.1 290.2 296.9 304.9 313.1 319.3 325 329.6 335.4 343.7 355.9 368 381.2 392.5 402 414.8 429.5 445.3 461 477.3 493.5 510.2 527.5 544.4 560.8 576.9 592.4 606.9 620.6 634.2 645.5 651.9 627.7 598.9 570.5 544.1 517.5 497.4 488.7 490.1 495.6 504.1 518.2 533 547.1 564.3 563.1 534.4 507.2 479.1 453 430.3 408.8 389.7 369.7 352.9 337.1 328.3 323.3 314.5 313.3 310.2 302.8 289.1 272.5 254.5 235.5 213.7 197.8 187.5 171.3 156.1 139.6 139.6 139.6 139.6 139.6 139.6 139.6 139.6 139.6 139.6 139.6 139.6 141.3 143.6 145.7 147.7 150 151.8 156.5 163 167.4 176.5 183.9 192.2 200 207 215.3 226.8 238.4 248.4 257.3 266.3 273.9 277.4 286.4 293 300.4 306.8 310.8 303.7 314 324.2 336.8 347.8 352.8 358.7 364.6 369.4 374 377.9 381.6 385.7 389.8 394 398.2 401.8 405.1 411.3 421.2 439.9 478.8 504.5 517.9 517 516.3 523.6 530.6 533.9 536 536.4 534.5 534.9 524.2 519.4 519.4 521.2 524.4
310.1 301.9 294.3 286.9 281 276.6 272.5 268.7 265.5 259.5 254.3 250.3 247.5 244 240.6 218.9 196.4 201.9 239.2 243.3 243.9 245.1 248.3 251.5 253.3 251.8 248.9 246.4 241.8 232.5 223.4 219.7 217.4 215.8 214.4 201.8 206.8 215.7 224.1 231.3 239.3 248.2 251.6 251.7 250.9 250 251.9 253.9 258 262 267.5 274.2 286.2 293.5 299.6 308.9 314.2 316.9 320.5 324.1 328.3 336 345.6 357.4 368.3 377.9 390.3 404.7 421.7 437.9 454.8 472.1 489.2 506.6 524.1 541.2 557.1 573.6 590.5 605.1 619.2 631.8 641.8 632.8 604.3 574.6 551.1 530.2 516.6 512.5 515.8 521 530.8 547.7 562.1 571.3 567.2 559.9 540.7 520.1 501.1 474.8 453.8 436.9 415 391.2 372.5 358.2 346.6 338.2 333.1 331.3 327.8 326.2 311.5 294.5 276.6 253.7 231.8 213.4 198 185 172.1 155 141.1 139.6 139.6 139.6 139.6 139.6 139.6 139.6 139.6 139.6 142.4 141.4 143.8 146 146.8 148 150.5 153.6 156.4 162.6 174.1 182.1 189.2 197 204.3 213 221.9 231.1 241 252.3 260.5 265.7 272.6 280.7 287.5 293.8 298.9 295 301.6 315.3 328 337.3 346.9 353.8 359 363.7 367.4 370.6 374.9 380.4 385.7 390.3 394.8 399.6 403 409.8 431.9 467.9 477.2 501.9 526 528.4 528.5 525.8 531 533.3 531.5 534.4 538.8 539.2 537.5 533.1 523.6 521.4 523 528.1
307 298.5 290.3 283.7 278.2 273.6 269.5 266.7 261.4 255.8 248.9 244 241.5 239.6 235 197.5 153.7 127.5 203.5 233.1 238.3 240.6 243.7 239.7 249 242.4 241.6 237.7 230.6 222.4 215 213 210.9 208.8 202.7 197.3 205 216.6 225.3 231.7 240.7 244.5 248 249.4 247.6 245.6 247.7 250.3 254.4 259 264.9 270.6 276.1 288.3 297.9 304.4 308.4 308.3 307.3 309.9 313.8 317.9 324 331.9 342 352.4 364.7 381 395.9 413.8 431 449.1 467 485.7 504.6 522.2 540 557.1 573.5 590 604.8 618.6 630.4 634.5 613.5 586.1 565.4 551.6 541.9 539.4 539.2 546.7 560.6 574.6 573.2 567.6 558.3 548.3 535 519.3 502.3 488.3 478.4 465.6 442.4 412 390 371.9 357.3 347.4 344.4 339.5 338.9 331.4 324.1 313.2 299.9 280.6 252.2 230.7 212.5 201.4 188.5 173.7 158.4 145.5 139.6 139.6 139.6 139.6 139.6 139.6 140.9 142.4 141.8 142.3 143.3 145.4 146.7 148.3 151.4 152.5 156.6 163.9 170.8 179.3 186.5 193.9 200.5 208.5 217.7 226.2 232.8 242.6 251.5 259 268.5 275.6 281.6 287.6 280.8 292.3 306.4 314.7 324 335.1 345.2 353.7 359.5 363.5 366.9 369.6 372.4 377.8 384.4 390.7 395.7 399.5 406.4 427.4 473.2 492.9 508.4 525 535.3 540.5 541.8 539.7 530.8 530.8 530.8 530.8 542.9 546.8 546.5 543.7 536.6 532.5 530.2 533.7
301.9 293.5 286.7 281.1 276.7 267.8 261.7 265.3 258.5 252.6 245 241 236.1 232.4 218 178.7 137.5 127.9 158.4 216 231.4 234.8 212.8 234.9 239.1 234.4 233.3 225.8 219.5 212.1 205.5 205.2 205.7 199.8 190 196.2 205.4 217.9 225 231.8 239.6 242.7 245.3 245.4 243.4 242.6 245.3 247 251.2 255.9 263.1 268.8 274.3 281.7 287.8 294.6 300.2 301.2 302.3 303.9 305 307.1 312.4 319.2 325.1 329.7 341.4 356.8 369.9 386.4 405.8 424.5 445.2 464.3 484.1 504.2 522.3 540.9 557.3 575.3 591 606.7 620.2 628 622.2 601 581.7 569.9 563 562.1 562.7 570.8 568.4 563.9 560.7 554 541.9 532.3 519.8 507.6 494.8 485.6 475.5 457.8 430.5 402 379.1 366 357.4 348.4 335.4 333.8 332.7 326.6 327.9 320.2 305.1 296.7 275 248.5 229 216.2 201.3 191.8 176.8 160.5 152 139.6 139.6 139.6 140.8 140.1 140.5 141.4 141.5 141.2 143.3 145.4 147.1 148.6 150.1 151.3 155 161.7 167.3 172.9 180.9 188.6 198.3 206.3 213.5 222.6 230.5 238.7 246.5 257.6 264.1 271.1 276.1 271.9 284.3 300 306.2 312.6 321.7 333.4 343.2 352.8 359.3 362.9 365.7 368.4 371.9 377.3 383.6 389.7 395.1 405.5 419.2 462.2 485.2 499.3 509.9 521.6 534.9 548.4 557.9 548.4 540.3 532.3 530.8 540.9 552.1 553.9 558.3 556.4 551.5 547.8 542.6 544
297.6 289.8 283.9 278 266.8 222 229.8 262.7 255.9 246.8 240.7 235.9 232.2 227.4 174.7 159.4 139.4 133.4 172.5 220.1 225 228.5 227.2 232.5 229.5 223.9 219.1 213.7 208.6 201.9 198.8 198.5 197.3 188.7 187 195.7 206.9 216.1 222.8 229.7 236.9 237.9 240.2 240.9 239.5 239.6 241.8 245.3 248.9 254.9 261.2 267.4 273.3 279.6 283.1 287.6 291.2 294.5 296.2 298 299.6 303.8 308.8 312.9 316.7 324.3 336.5 347.7 353.7 365.1 382.3 401.7 422.6 442.7 463.8 485.1 504.2 523.3 541.8 560.5 578.4 595.4 604.1 612.7 613.4 600 602.6 592.8 586.7 580 576.7 568.9 556.7 539 529.7 515.2 503.4 496.2 488.4 474.7 469.3 451.8 434.8 418.4 399.4 381 365.5 356.5 351.4 337.3 325.1 322.9 318.9 319.4 319.7 310.4 300.6 297.6 283.7 262.9 243.1 227.6 213 205.2 189.4 179.9 166.7 152.4 142.4 142.9 141.2 141 141.5 141.5 141.9 142 143.4 145 146.9 148.1 149.2 150 152 156.6 160.3 164.6 167.1 175.1 188.8 198.3 206.1 216.2 224.2 232.3 241.1 257.4 274.1 269.9 265.6 278.5 292.9 305.3 307.6 314.5 321.5 330.3 341.2 349 357.2 361.5 364.4 367.2 371.7 378.3 385.7 391 400.2 416 436.8 466.3 488.5 499.8 510.6 526.3 537.8 555.5 569.6 560.1 543.6 542.8 546.8 546.9 553.6 558 563.3 563.4 559.2 553.3 551.4 551.2
293.1 288.1 268.8 229.8 220.7 229.2 246.6 261.1 248.5 242.4 235.6 230.9 224.7 209.1 157.1 155.7 146.1 174.3 199.6 214.4 220.4 229.8 230 225 224.1 212.7 206.9 203.5 197.6 193.4 192.2 191.1 184.4 179.2 185.8 196.6 205.4 212.5 219.1 226.1 232.4 233.4 234.6 235.9 234.9 236.4 239.5 243.9 248 252 258.4 266.3 272.2 277.2 281 284.2 286 289.3 289.7 293.6 297.1 301.3 306.8 312.1 316.5 323.7 339.5 356.7 372.2 381.4 389.7 397.7 406.1 420.7 444.8 466.2 487.3 507.8 529.5 550.6 561.6 569.5 546.6 560.7 572.7 550.5 555.8 578.4 585.7 582.4 566.1 547.6 528.2 503.1 481.8 475.8 465.6 460 450.9 438.7 429.3 416.2 402.4 390.1 376.6 363.3 351.1 348 339.7 323.9 312.3 308.3 305.6 305.1 302.6 299.7 289.8 287.9 276.6 273.9 254.8 242.1 227.9 217.2 204.3 192.1 183 169.3 157.2 146.9 142 141.4 141.4 141.8 142.2 142.7 143.8 144.9 145.6 146.4 147.9 148.6 150.4 151.5 155.4 163.1 173 185.4 196.1 207.7 213.3 222.1 226.9 236.7 262.3 257.5 252.6 268.4 279.1 283.5 293.6 294.1 298.1 307.4 317.7 330.1 340.4 350.1 356.3 360.2 364.4 369 373.3 381.5 390.6 396.9 409 425.8 445.4 470.8 490.7 502 516 528.6 546.2 569.9 584.1 584.6 573.9 556.6 559.4 556.2 552.9 561.5 566.7 567.4 571 565.4 557.3 555.9
282.4 266.5 249 208 223.9 259.3 260.9 247.9 241.2 235.1 227.5 220.2 182.5 182.6 155.1 152.6 170.8 199 206.2 206.7 213.7 223.2 227.5 223.9 207.7 207.1 195.5 191.2 186.4 186.3 185.3 181.4 174.9 176.3 187.1 197 203.8 210.1 215.5 221.9 226.6 228.1 228.5 230.9 228.4 234.3 237.8 241.1 245.2 249 253.9 260.5 267.3 272.9 278.8 282.1 283 284.7 290.3 295.5 299.3 303.3 308 313.1 319.3 327.3 338.9 355.6 372.3 396.8 412 422.6 428.9 440.3 452.5 468.4 485 505.4 525.7 530 538.7 512.2 498.1 500.5 528.7 506.4 519.9 533.1 551 545.6 513.1 489.7 484.7 456.8 440.1 430 425.6 421.2 414.9 408.1 398.6 384.8 374 362.1 354.6 346.5 339.5 336.7 322.3 309.8 294.2 285 282.6 282.1 282.8 277.9 270.3 264 261 262 262.1 253 238.5 226.8 220 208.5 197.9 187.5 178.8 171.7 147.9 143.3 142.3 141.7 141.8 142.3 143.6 144.3 144.5 144.4 145.6 148.3 148.6 151 156.5 165.4 179.4 187 195.4 204.8 214.5 223 236.8 255.7 264.2 270.8 277.9 288 286.4 293 293.6 284.1 276.5 284.3 298.6 331.6 344.7 352.7 360 363.6 369 376.5 383.4 389.6 397.8 405.9 418.1 435.9 458.1 477.9 494.7 505.7 515.7 529.1 558.1 578.3 596.3 608.8 620.8 608 580.5 566.2 559.7 566.7 572.7 578.3 585.2 586.5 574.6 561.6
258.2 270.2 265.4 224.2 235.3 258.1 253.1 241.5 235.5 218.8 204.4 169.1 154.3 157.1 166.9 158.3 193 203.3 203.9 202.6 213.3 219.7 224.3 219.5 203.5 187.2 181.9 175.7 173.8 173.4 171 166.5 169.7 176.2 188.4 195.9 203.5 212.6 216.2 219 221.4 221.4 222.9 224.1 227.6 233.1 236.1 239.2 242.4 245.9 249.8 255.1 260.6 266.4 272.4 274.8 281.1 284.9 289.4 295.1 299.6 304.1 309.5 315 322.3 330.5 340.7 356.1 375.2 396.7 417.5 433.5 448.8 462.4 471.2 482.3 500.5 515.1 483.6 472.7 458.1 461.5 459.9 458.1 467.2 461 467.5 473 472.3 503.3 471.6 456 442.5 413.6 404.6 395.3 393.2 389.3 382.8 376.2 366 357.8 349 338.5 332.6 329.8 325.4 312.8 306.4 290 276.9 266.9 262.7 260 262.6 258.3 250.7 245.9 246.4 250.1 260 260.2 247.8 241.2 236.9 229.7 220.1 200.3 190 180.4 162.6 151 148.2 143.6 141.6 141.9 143 143.3 143.6 146.7 147.8 147.6 148.8 150.5 159.2 169 176.3 184.2 195.3 203.6 214 223.7 238.2 247.4 246.4 255.1 265.7 271.5 271.5 280.7 283.3 257.1 236.1 267.7 302.6 333.6 344.7 353.7 361.6 368.7 376.4 385.3 394.6 401.3 408.6 420.5 435 450.5 476.2 493.7 503.9 509.7 513.3 533.4 560.7 578 601.8 624.3 643.8 650.5 619.1 583.2 570.5 570.9 575.2 584.8 592.5 596.3 594.2 576.5
265.4 271.1 266.1 256.8 259.8 247.6 239.3 233.2 227.8 196.8 171.2 155.6 159.1 156.6 166.9 186.5 198.7 202.3 202.6 201.4 201.1 211.4 202.4 197.8 192.7 190.9 182.6 188.1 195.6 194.7 166.1 164.6 169 179.4 186.5 193.8 203.4 214.1 217.6 217.4 209.6 209.9 211.5 221 227.6 230.9 234 237 239.2 241.3 244.4 249.6 255.7 262.6 268.7 274.6 280.5 285.1 289.6 295.1 300.5 306.9 313.6 320.2 327.7 335.2 343.5 357.3 374.5 392.1 412.4 432.9 448 453.8 461.7 459.3 466.7 450.7 430.2 417.8 411.5 413.6 417.1 418.2 421.1 423.2 431.3 423.9 425.8 428.1 431.2 413.2 395 377.9 369.1 364.1 363.5 358.2 350.9 345 337.7 330.8 324.3 314.6 311.1 309.9 302.8 289.1 281 274.3 261.5 248.9 244.8 242.2 241.1 238.3 235.1 234.8 237.4 242.6 250.4 257.8 252.1 249 249.1 254.7 250.9 224.7 205.8 188.8 180 173.2 165.5 154.8 143.9 142.9 143.6 143.8 144 145.1 147.1 146.9 147.4 149.5 156.1 162.3 172.8 180 192.8 202.1 213.2 228.1 236.8 248.2 257.3 263.2 265.7 266 266.8 272.1 281.3 256.4 236.4 289.7 313.1 333.7 342.4 352.5 362.2 370.2 380.7 392.9 403 411.4 425.9 437.7 451 470 484.4 501.9 509.8 514.3 521.4 534.4 554.7 578 618.9 646.1 663.1 669.8 650.2 607.1 582.8 578.9 579.2 587.5 598.8 604 603.9 596.7
265.2 267.2 262.3 257.1 252.6 231.9 226.6 221.9 220 182.7 162.8 158.9 181.4 186.1 195.7 186.4 190.3 201.1 200.9 201.7 201.3 198.5 192.1 201.2 199.2 200.6 198.4 193.9 198.6 192.4 161.2 160.3 169.7 176.3 182.4 187.9 195.6 207 213.7 205.1 198.1 198.5 215.2 222.4 226.4 228.9 231.7 233.3 234 235 241.8 249.9 258.7 265 269.2 275.1 280.5 285.3 290.9 296.7 302.9 309.2 315.6 321.8 328.9 336.8 344.9 355.3 372.5 388.2 404.7 413.5 417.5 420.6 422 415.6 408.2 398.8 381.9 375.9 373.5 377.1 380 375.4 375.6 385.8 384.1 388.1 385.5 383 377.7 367.5 360.2 347.2 339.6 339.5 333.1 327 321.4 316.2 309.5 306 296.4 288.4 284.5 281.1 275.5 268 266.1 257.8 243.9 232.1 232.8 231.9 231.8 231.6 232 232.6 233.2 235.4 241.3 244.5 247.3 252.3 265 268.5 263.4 251.2 227.7 209.2 195.7 191.7 179 164.5 149.2 145 143.9 143.8 143.1 143.4 144 145.4 146.6 148 150.4 156.7 168.6 181.1 190.4 215.9 230.8 258.1 263.2 260.6 260.4 257.8 255.3 261.7 266.4 271.6 282.3 264.5 259.7 312.5 322 332.5 341.5 351.7 361.2 372.3 386.4 399.6 409.2 424.6 437 454.2 471.8 485.9 497.5 507.7 514.3 522.1 529.8 544.4 561.6 596.9 626.4 660.1 673.8 680.5 685.4 656.3 617.3 606.2 601.6 599.7 600.7 607.9 612.3 610.8
260.7 261.7 253.4 254.5 229.2 222.3 216.9 189.4 211.5 204.2 171.2 174.9 187.4 187.1 184.6 183.9 180.6 181.7 180.9 179.1 177.4 178.1 168.7 174.8 194.5 201.3 200.3 197.6 196.1 182.5 156 159.2 166.9 171.6 175.5 182.4 187.8 193.3 196.2 182.8 189.9 204.8 211.9 217.5 222.3 226.6 226.3 226.6 226.7 233.1 243.6 252.8 261.9 267 271.1 275.5 280.2 284.9 290.3 295.7 301.5 308.3 314.5 320.8 328.6 336.3 346 358.8 373.3 386.3 387.7 390.5 390.7 390.5 388.6 381.5 369.9 359.8 349.8 339.6 336.8 342.6 344.1 339.3 342.2 349.6 350.1 351.5 351.6 350.7 345.2 333.5 326.5 319.4 318.3 309.6 302.6 296.8 292.7 286 278.2 275 262.6 261.3 261 255.5 251.2 252.1 255.6 242.7 229.1 229 232.9 235.9 250.4 243.5 233.3 231.9 231.7 232.3 234 237.9 241.8 249.7 264.4 267.3 266.6 258.3 241.4 229.4 217.6 209 199.5 175.3 160.6 152.8 147.2 144.3 144.8 149.9 149.5 149.2 146.1 147.3 148.8 152.5 168.6 178.3 189 202.4 227.9 242.1 247.3 244.2 239.3 246.8 252.5 258.2 264.3 273.2 282.9 292.7 302.8 313.4 323.2 331.7 342.5 352.4 363.2 375.4 394 406.7 418.6 433.4 450.8 465.2 482 492 501 508.1 514.4 521.6 533.3 547 570 603 638.6 664.8 675.4 686.5 699 705.3 678.9 641.1 616.8 609.8 605.4 610 618.7 626.2
255.8 256.9 256 239.7 216 211.4 210.7 169.7 137.6 155.9 191.5 185.2 175.2 166.3 173.5 176.5 169.6 161.6 161.2 160.7 162.7 177.9 178.5 163.9 182 195.8 200.9 192.7 170.2 152.3 153.9 158.7 161.4 163.5 166 168.5 174 180.1 177.5 182.2 192.8 201.9 207.2 212.3 216.4 218.1 218.1 217.6 221 230.6 245.9 257.3 266.5 268.9 272.5 275 279.3 283.8 289.1 294.3 299.5 306.1 312.7 321.6 331 342 352.4 362.5 371.6 370.2 377.1 379.7 377.6 371.1 366.8 357.1 346.2 333 319.9 311.9 307 308.4 309.9 305.4 308.7 314.2 315.8 316.3 316.8 319.5 316.6 306.9 304.9 295.2 287.8 284.8 275.8 268.4 265.1 257.3 250.2 243.8 239.5 237.8 237 234.3 233.9 235.2 232.9 225.9 219.3 228.9 235.5 247.7 267.1 280.5 258.5 240.4 235.2 233.5 232.8 232.5 237.1 243.4 250.6 259.5 263.5 262.5 252.8 242.9 233.1 220.4 210.7 188.4 168.8 160.4 152.3 145.6 144.4 153.1 157.8 152 144.9 146.8 148.9 152.6 161.4 176.1 190.1 210.1 225.4 225.8 229.1 228.3 235.5 241.9 249.7 256.7 264.6 273.5 282.2 295 304.8 315.7 323.5 332 343 353.5 368.2 383.4 399 411.7 421.2 436.8 459.2 471.4 483.7 495.7 502.3 509.5 517 525.2 535.6 547.2 575.1 611.2 642.3 666.3 677.9 689.7 701.4 715.5 726.3 702.1 651.9 623.9 614.9 616.8 623.3 636.6
252.1 253.2 248 220.6 202.6 204.7 203.9 186.9 170.1 186.2 185.6 183.1 166.2 165 161.7 159.3 160 160.8 160.7 160.5 162.1 170.7 161.1 161.4 180 180.6 183.3 182.6 150.9 148.7 152.6 156.6 155.1 153.8 155.8 160.1 165.1 168.3 167 182.2 191.3 197.5 202.7 204.8 208.1 208.8 208.5 206.9 214.8 223.6 238.5 256.5 266.3 269.6 269.6 273.1 277 281.7 286.6 291.8 297.2 303.9 311.2 319.6 330.4 340 351.6 360.8 358.2 352.5 359.3 365.1 366.8 361.5 360 345.2 331 324.5 314.5 308.1 295.8 288.8 287.3 282 280.4 280.7 281.8 281.7 280 280.4 280.1 275.3 270.8 262.6 256.1 254 244.5 240 238.8 232.9 228.5 224.3 218.6 216.5 217.8 219.1 224.8 221.2 212.2 210.1 219.1 228.1 244.3 278 286.7 295.7 287.9 263.1 248.8 239.8 232.7 233 233.7 238.9 245.8 254.9 262.6 263.8 260.6 252.8 243.9 226.2 212.7 198.9 182.5 167.9 157.6 149.4 147.3 150.5 153.8 150.9 145.5 147.4 149.4 155.1 165.2 173.4 184.5 193 201.9 208.9 216.5 225 231.9 238.3 247 254.7 261.6 269.8 282.1 295.4 307.9 316.8 324.4 333.1 343 356.2 371.3 386.4 400.7 413.6 425.6 442 456.8 470.3 483.4 493.4 501.1 508 517 525.4 535.4 555.2 583.2 617.8 644.3 663 676.7 688.2 701.5 714.5 727.3 734.2 702.7 658.4 631.6 627.1 631 644.5
251.1 241.8 218.7 195.9 195.2 197.2 191.9 187.1 186.5 182.7 174.4 182.5 174.3 179 153.9 152.4 152.6 143.9 147.3 159.7 160.3 160.2 159.5 158.8 174.6 167.6 161 150 145.5 151 155.9 154.1 146.8 146.8 148.4 153.5 158.1 159.6 165.1 176.5 183.6 187 189.3 192 194.2 196 193.6 194.3 207 218 230.7 247.6 258.3 263.4 266.3 269.7 274.7 278.1 283.3 289.5 294.7 301.9 310 318.4 327.8 338.2 351.6 351.2 326.4 324.7 325.3 324.7 328 323.4 317.5 315.3 297.2 291.4 285.5 278.5 267.7 265.8 260.4 256.5 251.9 249 248 248.1 245 238.9 237.2 236.4 235.9 228 224 225.5 220.3 218.1 215.9 215.8 212.1 204.3 196.8 198.1 202 210.3 211.9 201.9 197.1 205.5 222.9 240.1 255.2 285 302.9 314.3 312.1 286 260.6 247.9 237.6 233.3 233.5 235.6 241.9 252.8 259.1 262.9 263.6 259.7 247.7 231.9 217.4 205.5 192 177.5 166.9 160.9 149.8 149.5 149.1 150.2 146.2 148.4 149 156 167.3 175.8 183.4 189.6 197.4 204.4 212.3 220.1 228.5 235.1 242.4 251.9 258.6 267 282.4 296.2 307.5 318.4 326.9 335.7 345.5 357.3 374.3 388.6 406.6 416.4 427.8 441.6 454.9 466.1 478.5 489.9 497.6 505.7 514.2 526.1 537.4 556.8 587 619.7 642.7 658.5 673.2 686.3 700.6 713.1 724.7 734.9 730.6 696.6 661.4 645.9 645 651.8
219.1 210 189.3 184.8 189.4 188.3 180.2 166.5 167.4 164.3 163.1 175.8 160.2 150.4 133.4 140.8 141.7 140.8 152.1 159 159.6 162.5 158.6 157.3 164.6 138.7 129.9 138.2 145.8 155.7 156.7 144.4 141.3 140.4 141.5 144.8 150 153.3 159.6 167.6 173.2 174.4 175.9 181.4 180.8 177.7 170.4 187.9 200.4 213.8 226.6 241.9 251.5 254.2 257.8 261.2 267.5 272.9 278.6 284.2 291.6 299.9 306.8 315.5 327.3 327.7 323.5 309.5 295.3 295 298.9 298.1 294.3 286.1 279.3 274 263.5 257 252.9 247.6 242.5 233.3 227.2 222.8 219.2 217.5 215.5 218.1 212.4 207 205.1 203.6 203 198.3 198.7 205.3 205 199.7 200.6 200.4 187.8 181.6 179.6 180.6 184.2 184.2 184.3 185.9 190.6 203 219.8 240.8 265 305.7 325.6 320.3 315 297.3 270.6 255 243.2 235.3 233 236 245.4 256.1 257.9 260.8 265.4 266.7 253.3 242.1 219.8 208.3 200.1 187.5 181.9 174.6 158.9 150 149.2 149.5 147.8 147.6 148.8 151 164.9 170.3 175.7 183.7 192.1 199.4 205.8 213 222.6 231.8 242 252.2 261.7 275.8 287.4 299.3 310.5 320.7 329.5 339.1 352.6 366 380.8 395.1 407.2 417.1 427.4 439.3 451 461.8 473.9 485.6 492.6 502.8 512 523.9 539.8 570 595.7 618.8 635.5 653.4 669.9 683 698.9 711 723.1 733.3 745.1 753.2 719.7 687.3 664.1 667.9
191.2 177.3 172.6 178.2 180.5 177 170 163.5 162.1 156.6 160.1 167 171 139 121.3 130 137.1 140.2 152.8 141 158.7 158.3 157.2 137.6 131.2 123.6 130 139.9 149 153.8 141.9 134.3 132.6 131.6 133.7 137.7 142.5 149 156.1 163.6 159.3 155.4 159.3 161.9 161 158.6 158.1 175.2 190.1 204.3 214.4 222.5 228.3 237.7 249.2 256.6 260.8 266.6 274.1 282 287.8 297.4 308.7 311 298.1 284.9 283.2 282.3 266.6 266.5 273 272.3 264 255.7 248 240.7 231.7 223.8 217.9 215.3 209.4 200.6 194.3 194 194.6 190.2 188.6 188.4 182.8 177.6 176.4 177.9 179.1 174.9 178.5 179 180.6 178.6 175 170.4 165.3 164.9 165.5 163.8 164.5 168.5 172.3 179.1 191.2 207 225.2 235.5 259.2 288.2 318.1 317.2 290.8 281.9 269.7 251.4 242.3 238.2 234.5 234.2 248 260.4 259.7 258.9 264.4 268 263.6 250.1 227.7 215.2 204.1 193.8 184.7 180.6 169 152.8 151.8 151.9 150 147.5 148.7 150.1 152.8 159 167.5 174.8 182.2 191.8 198.3 209.2 219.1 230.6 248.1 260.1 276.1 286.3 296.7 309 323.7 330.8 337.8 346.9 358.5 369 382.4 393.8 405.8 416.5 426.1 434.3 443.5 454 463.3 476.8 485.8 496.4 515.2 526.4 546.2 570 592.8 610.3 628.7 647.9 665.1 679.6 693.8 706.5 717.7 728.5 739.6 749.8 761.2 752.5 730.9 704.8
166.3 157.5 163.3 170.1 171.7 163.6 158 160 153.5 146.6 144.3 158.6 168.5 139.4 121.7 125.1 126.9 137.8 140.2 143 156.7 155.4 149 138.8 120.5 126.7 137.9 145.5 148.7 138.3 128.5 127 126.2 125.9 129.3 136.3 137.5 142 148.8 145.9 140.2 136.7 138.7 141 142.3 141.3 153.5 164.1 182 194.3 205.9 216 223.3 231.8 245.9 253.5 254.7 259.5 267.9 276.2 287.1 280.8 269 260.2 251.3 246.3 243.1 238 233.7 235.2 238.9 240.1 233.4 227.8 221.2 212.3 203.5 194.9 185.1 181.7 176.8 168 171.9 179.2 172.7 165.1 166.3 165.5 161 156.3 152.4 156.6 163.2 165.4 166.8 164 161.3 160.1 157.4 154.7 153.6 153.6 155.4 159.5 163.9 169.4 173.2 183.7 200.7 214.1 230.4 243.9 254.7 262.5 275.4 275.5 265.2 258.8 257 254.1 240.7 238.1 234.8 235 251.1 258 258.8 259.2 263 264.3 264.1 253.1 233.6 220.5 206.9 196.2 185.9 180.2 175.6 159.4 152.3 152.2 151 148.4 148.7 150 151.3 153.2 157.2 167.1 177.1 186.9 196.3 207.6 216 230.3 253.3 271.5 276.4 286.6 304.8 318.3 330.3 338.5 348.7 355.1 361.7 371.5 383.4 393.9 404.3 414.2 422.6 430.4 437.2 443.8 450.8 462.2 474.6 495.4 513.1 526.8 554.9 574.8 594.2 604.4 620.6 638.5 658.4 675.2 687.7 697.1 707.9 717.4 728 738.2 748.3 760 771.2 761.7
151.6 153.1 160.9 158.1 156.2 152.9 145.9 143.6 142.3 137.4 132.1 130.8 130.9 119.9 122.2 121.4 121.4 138.8 139.8 138.5 150.2 153.9 148.7 120.3 128.2 134.5 142.8 146.1 135.9 124.9 120.6 119.8 119.6 121 126 130.4 129.1 131.6 131.4 128.9 123.1 122.6 122.9 124.8 126.4 132.4 149.1 169.5 185.8 193.8 204.6 220.5 224.3 227.7 237.5 244.7 242.6 248.4 266.8 262.1 250.6 240 231.9 224.1 219.3 218 213.7 211.4 206 208.5 213 212.2 206.3 200.8 195.4 187.7 178.8 170 159.4 153.3 149.5 153.4 158.7 157.7 152.7 153.4 156.4 155.2 152.5 140.2 141.1 144.8 153.7 157.6 161.4 154.9 150 149.8 149.7 150.8 153 156.4 163.2 169.4 174.3 179.7 186.8 195.7 204 212.3 233.8 251.7 261.7 261 254.5 245.8 243.7 243.9 248.9 252.5 238.9 235.3 235.3 238.3 247.2 249.3 254.5 260.9 264.5 264.3 261.1 254.9 236.4 221.6 211.7 201.7 191.1 181.8 174.9 166.2 160.2 156 152.3 149.3 148.4 149.8 151.4 152.8 155.6 161.5 173.8 187.2 195.4 204.9 220 231.7 250.8 264.5 277.9 293.8 309 321.4 331.1 340.7 348.9 356.5 367.4 380 385.7 393.6 402.3 410.6 418.3 424.4 429.7 433.9 439.5 447.5 462.6 486.2 504.8 522.4 552.5 571.9 584.3 594.2 606.3 625 644 662.8 677.6 688.3 695.6 704.7 714.3 723.9 733.3 743.2 753.2 761.9
144.9 153 152 142.7 115.8 113.2 137.8 135.4 133.6 112.2 96.5 110.5 116.9 123.8 123.8 115.2 117.7 137.8 138.5 137 138 138.8 136 122.9 131.7 138.9 140.8 135.5 123.9 115.6 114 114 114.7 118.8 127.2 121.9 121 122 120.1 113.6 112.7 114 115 118.1 120 127.6 150.1 168.8 182.6 191 198.5 208.4 210.9 216.2 222.2 228.2 231.4 234.3 225.1 222.1 220 210.5 206.3 208.4 207 197.5 193.1 193.8 192.7 193 194.8 191.9 186 177.7 171.8 163.5 153.5 145.9 139.7 138.7 140.7 144.4 142.2 138.9 137.1 137.2 138.7 140.4 138.5 138.9 139.1 139.5 141.8 151.7 147.2 146.7 147.6 150.4 153.1 155.4 157.6 168.6 178.8 184.9 190 195.4 201.4 209.1 217.4 225.9 237.5 249.6 263.5 270.8 260 237.3 234.9 234.9 236.6 241.3 236.2 234.9 234.9 237.9 241.1 243.1 247.5 259.3 267.3 266.8 262.4 253.7 238.3 221.4 213.5 206.9 196.4 185.3 176.9 170.9 166.3 162.1 154.3 150.7 149.5 150.5 151.6 152.8 154.7 164.4 182.1 193.8 204.1 227.1 221.9 229.4 247.8 268.8 282.3 298.5 311.5 322.6 332.1 341.2 349.5 357.9 368.3 378.2 385.5 392.3 398.9 406.7 412.4 417.5 422.2 426 430.5 436.7 452.3 473.5 493 516.3 546.2 564.4 576.9 584.5 593 606.9 626.2 647.3 661.9 671 678 686 692.7 704.4 710.1 718.7 727.4 738
142 144.9 143.1 142 131.5 129.4 132.6 130 128.7 96.5 96.5 96.5 120.9 123.6 122.3 111.3 110 117 129.6 125.7 127.9 118.2 111.8 122 128.8 128 123 118.9 110.9 107.3 107.9 109.7 111 112 110.2 113.7 117.6 117.6 114.8 110.5 109 110.3 112 114.1 114.5 123.8 145.1 156.5 166.3 174.1 181.6 191.5 196.9 201.7 207.5 209.3 205.2 198.2 192.9 191 187.2 184 184.6 182.4 177.8 173.7 174.7 178.2 180 178.3 177.2 174.4 165.1 158.3 148.6 142.3 136.7 136.5 134.4 133.9 135.2 137.1 137.7 137.7 137.2 137.6 138.5 139 140.2 140.5 140.3 140.7 139.7 141.9 146.3 149.7 157.8 166.7 163 161.8 165.9 175.9 184.5 195.7 208.6 216.1 219.1 225.3 230.5 235.3 242.2 253.4 274.3 282.6 260.5 240.7 234.9 234.9 234.9 234.9 234.9 234.9 234.9 236.4 237.2 238.5 242 253 262.8 265.8 264.2 254.5 239.3 225 215.3 208.7 200.1 189.7 183.1 174.8 170.1 165 157.4 151.8 150.3 150.6 151.7 152.9 159.8 173.6 191.2 203 210.5 222.6 225.5 247.5 259.8 281.6 297.5 306.1 315.2 323.8 332.7 341.4 349.9 357.7 366.5 374.5 382.6 389 395.3 400.9 406.5 410.5 414 417.5 422.4 428.2 441.9 457.3 480.7 513.8 537 559.8 570.4 575.8 584.7 591.7 604.4 621.2 634.1 643.4 651.4 657.6 663.2 668.7 676.2 686.5 696.6 709.8
114.5 135.4 134.2 131.9 127.2 130 128 127.3 120.4 96.5 96.5 96.5 121.2 112.2 106.7 106.6 105.6 105.2 106.9 107.2 107.2 107.9 108.3 114 112.2 110.5 107.3 104.6 103.1 101.9 104.8 106.8 106.8 105.8 106.2 110.4 112.7 107.3 106.7 106.3 107.1 109.1 109.1 110.1 112.5 117.7 123.4 131 145.5 157.6 165.7 174.3 181.6 184.1 181 181.9 180.6 173.5 167.5 162.6 156.7 155.3 156.4 159.4 158.4 162 165.4 169.4 171.1 159.4 157.2 153.1 147.4 138.9 136.9 134.7 134.1 133.4 133.8 134.6 136 139.4 139.9 140.5 139.3 142.7 150.3 151.7 150.9 146.7 145.3 144.6 144.9 144.1 152.7 166.5 165.1 163.3 165.7 169.6 176.9 182.2 193.9 203.7 214.7 227.1 231.7 241.4 240.4 242.6 247.1 266.7 286.6 283.6 258.4 240.3 234.9 234.9 234.9 234.9 234.9 234.9 234.9 234.9 235 235.9 238.6 248.3 258.2 264.2 268.5 255.8 242.1 226.9 215 208.2 204.7 197.9 188.5 178.8 171.8 168 159.9 154.7 150.5 151.1 152.3 162.5 174.4 187 209.6 224.8 215.2 221.5 244.9 266 279 288.9 298.9 306.2 314.8 324.1 332.8 341.5 348.5 356.1 363.2 371.1 377.7 384 390.2 395.6 400.4 403.7 406 409.3 414.8 421.8 436.7 453.1 473.8 498.5 524.6 551 558.4 567 574.6 581.5 588 601.1 613.8 619.2 620.5 625.6 627.1 629.9 638.7 649.4 664.5 684.6
114 102.9 115.5 126 126.9 127.9 123.5 98.9 98.9 104.3 101.6 117 107.7 101.6 102.1 102.4 102.9 103.4 104.6 104.9 105.8 106.5 105.7 104.9 104 101.8 99.5 99.2 98.5 99.5 102.2 103.4 102.9 102.7 103.5 102.2 101.7 102.9 104.1 103.7 107 107.4 107.4 107.7 112.5 117.8 122.2 125.2 128.1 137.9 144.6 150.9 152.8 154 157.7 160.6 155.8 148.1 141.3 137 134.3 136.2 144.3 146.9 152.5 154.5 160.5 150.4 143.3 142.2 139.1 136.1 134.8 134 132.9 133.3 134.3 135 135.2 138.5 143.3 149.9 163.7 173.3 180.8 185.3 181.8 176.7 171.6 168.4 166 164.7 156.8 155.1 158.4 156 159 164.1 172.8 179.8 189.4 191.6 195.8 210.5 222.6 227.1 239.6 251.8 257.9 252.4 245.9 252.3 257.7 253.4 252.7 241.8 234.9 234.9 234.9 234.9 234.9 234.9 234.9 234.9 234.9 234.9 236.3 247 261.7 265 266.1 257.1 242.4 228.3 216.7 208.4 206 203.6 195.8 187.5 173.3 167.9 160.4 153.6 151.4 152.3 159.5 182.1 187 193.7 206.5 213.7 215.9 228 241.5 268.6 285.1 292.2 297.7 305.5 314.4 323.7 331.7 338.9 346.1 353.5 359.5 366.1 372 378 383.9 389.5 393.7 397 400 403.3 407.2 415.8 436.1 456.1 472 490.5 509.5 527.3 543.4 554 562.1 567.7 578.9 585.1 587.1 590.8 593.5 598.5 595 600.9 611.9 623.2 637 657.8
96.4 96.4 101.9 121.2 123.1 124.3 110.5 98.7 97.8 102 117 118.3 107.7 100 100.6 101.1 101.6 102.2 102.7 103.6 104.7 104.5 104.4 103.1 102.4 100.6 98.4 97.1 97.1 97.6 98.9 100.7 100.5 100.1 100.4 100.6 100.8 101.5 101.3 105.6 107.3 104.9 105.3 108.1 115 118.2 121.9 123.2 123.6 123.2 125.1 128.1 132 136.5 138.2 137.1 130.7 123.2 118.9 120 122.8 127 131.7 138 139.5 134.4 127.4 124.6 123.5 129.1 134 133.7 134.6 135.3 135.5 135.7 137.8 146.8 158.9 165.8 174.9 192.1 212.1 214.4 218.4 221.5 216.2 210.8 205.2 202.3 200.9 192.2 179.1 173.7 165.3 164.5 170.9 179 188.2 191.7 198.1 204.5 211.8 220.9 232.4 241.5 251.2 262.3 268.5 272.3 258.1 239.7 237.2 239 242.1 238.7 234.1 232.3 235.7 238 234.9 234.9 234.9 234.9 234.9 234.9 235.4 244.8 264.3 268.9 267.6 255.9 241.7 230.4 219.8 210.9 207.3 200.1 195.3 188.7 179.3 167.7 159.9 154.7 152.3 154.1 163.8 183.6 190.4 193.6 201.3 209.1 229.1 239.3 251.6 266 279.6 288.5 296.8 305 313.1 321 328.9 336.1 342.7 348.6 354.4 360 365.9 371.6 377.2 382 386 389.5 393.4 397.9 404.8 412.3 434.6 461.9 473.8 488.5 498.7 512.2 521.4 533.2 543.8 553.3 556.6 561.9 563.1 564.3 569.3 567.1 573.3 585 590.5 599.1 617.7 634.6
96.4 96.4 114.8 123.6 125.5 114.7 111.4 110.3 112.1 111.9 111 116.5 106.9 99.4 100 100.1 100.6 101.2 101.7 102.5 103.3 102.6 101.9 101.6 101.2 99.6 97.4 97.1 97.1 97.1 97.6 98.3 98.9 99 99.5 100.1 100.5 99.8 100.2 100.3 101 103 103.5 104.8 113.4 115.5 119.6 120.1 118.8 116.1 116.7 119.8 120 122.5 121.5 115 109.7 109.4 111.3 114.8 115.2 116.6 119.9 114.2 115.4 120.2 123.3 129.7 133.4 136.5 139.6 141.6 147.8 152.1 158.7 167.2 179.8 182.9 181.4 188.9 205 223 242.9 268.3 277.7 277.7 267.5 263.1 249.2 240.3 233.9 223.7 208.4 202.7 197.2 193.9 195 204.6 207 207.8 209.1 220.6 232.2 239.1 249.6 258.1 267.8 276.6 284.5 287 264.6 243.6 235.6 233.6 234.2 233 232.1 231.3 235.4 239.6 237 234.9 236.8 236 235.1 234.9 235.1 244.2 261.7 268.1 266.5 256 243.9 233.3 224.3 216.1 209.6 201.2 194 187.6 176.4 168 159.9 155.4 153.3 163.5 172.1 181.2 188.3 191.9 200.9 216 238.5 256.2 265.4 271.5 277.5 285.7 295 302.5 309.6 317.6 324.9 330.2 336.3 342.6 348.5 353.8 359.4 365.1 370 374 378.1 382.3 386.3 396.8 406.3 413.7 433.5 455.2 474.2 486 496.5 507.9 518.2 522.6 524.2 530.5 533.8 537 543.3 545.1 550.2 544.5 553.2 570 578.8 595 605 620.2
96.4 97.1 128 126.9 125.6 117.6 114 113.1 113.6 114.7 116.2 116.8 104.7 98.8 98.9 99.2 99.7 100.2 100.8 101.4 101.4 100.7 100 100 99.6 98 97.1 97.1 97.1 97.1 97.1 97.1 97.7 99.6 102 100.6 98.9 98.9 99.4 99.6 100.6 101.3 102.1 102.5 102.5 107.5 112 112.3 110 109 108.8 109.1 110.9 107.6 105.1 103.8 104.8 105.4 106.5 107.7 108.2 109.3 112.1 117.2 121.2 124.9 129.1 133 139.5 148.4 155 169.6 180.7 191.5 195.4 196.1 196.1 200.4 203.7 207.3 221.9 235.8 260.5 290.9 307.5 316.4 316 307.4 286.4 269.3 260 247.3 237.5 231.1 225.7 222.7 219 223 225.9 226.7 227.2 233.9 245.3 257.6 275.7 282 289.4 294.8 297.2 288.8 272.8 251.9 237.7 233.4 232.9 232.4 232.3 231.5 231.4 234.1 238 234.8 236.1 241.9 237.3 234.9 236.5 250 255.8 260.1 261.4 254.2 243.2 236.5 230.7 219.3 209.9 205.2 196.5 187.1 176.4 167.7 160.4 155.5 155.8 169.8 186.7 179.5 184.4 191.3 205.3 231.3 239.5 252.7 263.8 270.8 276.4 283.2 292.3 299.7 306.4 313.9 319.3 323.6 329.9 336.3 342.1 347.5 352.9 357.7 362.1 366.6 370.3 375.6 382.1 393.9 405.6 421.2 434.5 453.5 469.5 480.8 493.1 503.7 512.3 513.4 516.8 520.1 525 528.2 528.6 530.2 530.5 531 536.7 547.2 563.9 580.6 593.3 602.9
96.4 96.4 120.2 122.4 125.2 117.2 113.7 118.7 113.9 111.1 116.3 115.1 97.4 97.4 97.8 98.2 98.7 99.2 99.8 99.9 99.5 99.3 98.5 98.1 97.2 97.1 97.1 97.1 97.1 97.1 97.1 97.1 97.1 99.9 98.6 97.1 97.4 98 98.7 99.1 99.7 100.1 100.6 100.6 100 100.8 103.6 101.9 102.2 102.7 102.8 101.9 102.1 103 103.3 104.3 105.5 106.3 107.4 109.1 110.1 110.8 114.1 118 121.2 125.2 130.1 137.2 149.7 166.9 180.1 188.3 187.4 189.4 198.2 205.3 208.3 210.4 216 221.2 226.7 239 266.2 308.7 334.6 344.5 334.1 320.5 299.4 291.6 284.3 273.3 266.7 262.6 254.3 248.6 247.3 245.4 249.4 251.4 248.2 251.8 260.6 278.3 299.3 308.5 307.5 308.7 304.9 296.5 284.3 262.6 243.2 233.9 233.6 233.1 232.5 236 231.5 230 231.5 231.6 234.7 240.7 244 235.6 235.7 250.4 252.8 256.2 259.2 254.2 242.6 235.9 229.3 219.1 209.5 204.9 195.6 186 175.1 167.5 157 157.8 160.7 167.6 174.6 180 187.1 199.6 209.6 222.3 236.4 249 258.9 267.3 273.6 281.6 289.6 296.1 303.1 309.8 314.7 319.1 323.6 329.1 335 340 345.1 349.1 353.8 358 363.4 372.7 379.9 387.9 401.9 424.5 451.8 458.2 467.4 477.8 485 492.1 494.5 495.9 502.4 505.3 505.1 516.3 517.2 519.6 518.1 516.4 521.1 529.7 544.6 559 574.6 588.4
96.4 113.9 123.8 127.3 124.4 124.7 126 125.1 109.2 113.9 116 101.6 96.9 97.3 97.5 97.8 98.1 98.4 99.2 98.3 98 97.5 97.1 97.1 97.1 97.1 97.1 97.1 97.1 97.1 97.1 97.1 97.1 97.1 97.1 97.1 97.1 97.2 97.8 98.1 98.4 98.4 98.6 97.9 98.4 100.1 100.5 100.5 101 101.5 102.1 102.3 103.3 103.8 104 104.9 106.1 107 108.2 109.2 110.2 111.9 113.7 116.7 120.2 122.6 126.9 134 151.1 164.9 165 167.2 180.9 183 189.5 192.8 196.4 206 210.3 222.9 231 244.8 266.4 293.5 324.7 337.5 341.9 327.7 318.4 314.2 305.4 298.3 297.2 294.3 286.5 281.9 275.5 275.5 276.5 277.7 276.6 279 283.1 308.2 319.5 324.2 325.8 323.1 316.7 313.5 306.1 286.4 255.9 240.4 235.3 234.7 234.3 233.6 232.5 230.9 228.9 229 231.6 242.8 247.2 241 236.2 247.6 248.2 249.8 259.2 255.2 243.9 234.3 224.7 216 206.6 200 193.5 184 173.9 164.5 159.7 164.4 174.2 171.9 176.3 181.9 191 203.1 213.7 223.8 235.6 244.9 253.5 263.1 271.6 280.3 286.3 291.8 299.3 304.7 309.7 312.2 317.2 321.9 327.7 332.3 336.2 339.7 344.3 349.7 356 365.9 378 382.6 406.9 434.3 449 458.2 466.2 474.5 481.3 485.4 486.3 485.2 481 487.3 490.3 489.9 496.3 501.4 503.3 503.7 515.6 521.8 534.8 549.4 565.7 585.5
113 113.3 120 122.8 124.8 126 125.9 119.7 113 113.9 114.9 112.1 97.3 97.5 97.6 97.9 97.8 97.6 98.1 98.2 98 97.1 97.1 97.1 97.1 97.1 97.1 97.1 97.1 97.1 97.1 97.1 97.1 97.1 97.1 97.1 97.1 97.1 97.8 98.6 97.5 98.3 98.4 98.6 99.3 100.6 101 101 101.9 102.3 102.5 102.6 103.2 103.9 104.7 105.6 106.4 107.2 108.5 109.5 110.6 111.9 113.3 115.2 117.1 121 125.3 128.5 133.7 146.4 153.3 160.5 175.3 185.4 187.7 191.7 199.2 205 223.5 229.8 242.1 257.5 283.4 304.8 317.8 327.2 328.2 325.9 328.7 330.6 328.1 328.5 329.8 334.4 326 314.8 309.7 308.4 308.2 308.5 308 310.1 316.5 325.9 338.3 339.9 341 343.9 338.4 339.6 323.8 287.2 263.6 248.7 239.6 237.4 238 234.4 233.6 233.6 235.7 230.8 228 244.9 250.6 244.1 236.7 238.3 242.6 248.6 258.8 259.2 244.6 233.1 222.9 213.8 206.3 199 190.5 180.4 173.1 165.8 165.5 174.5 175 174.9 176.9 186.3 196.5 207.8 219.4 224.3 234.3 241.2 249.1 258.7 269.4 275.8 282.8 289.5 295.3 300 303.5 306.2 307.6 312.2 316.4 322.1 325.7 330.2 335.1 344.3 349.6 359.1 379.1 394.6 407.2 436.8 449 456.2 462.3 468.5 474 477.7 479.2 479.4 478.3 477.3 476.8 476 479.7 483.1 490.4 500.7 508.4 521.8 532.3 550.9 558.1 577
114.1 113.2 120.7 120.3 115.4 125.8 112.6 111.8 107.2 100.1 104.7 98.6 96.8 97 97.1 96.6 96.6 96.6 97.2 98 97.3 97.1 97.1 97.1 97.1 97.1 97.1 97.1 97.1 97.1 97.1 97.1 97.1 97.1 97.1 97.1 97.1 97.1 97.1 97.8 97.3 97.8 98.9 99.6 100.1 100.6 101 101.5 101.7 102.3 102.9 103.8 104.6 104.6 105.2 106 106.6 108.2 108.8 110.1 111.5 112.7 119.3 124.1 132.2 137.8 140.7 142.5 140.7 144.6 148.4 153.8 162.7 167.1 176.5 180.1 184 196.9 204.8 215.2 231.6 247.7 272.1 292.7 303.4 312.7 318.3 323.4 332.7 338.2 344.7 348.3 353 356.3 361.5 356.3 351.6 340 335.9 336.7 339.5 341.5 348.7 349.7 350.9 356.3 361.8 364.3 365.8 336.4 312.3 282.5 266.4 253.5 244.3 245.4 240.1 236.3 234.6 235.9 236.6 234.6 233.2 231.6 249.5 243.9 238.3 237.5 240.6 245.3 254.5 258.6 242.7 230.5 222.7 212.8 202.1 193.5 186 178.2 167.4 167.5 168.3 174 173.7 175.3 178.2 185.7 192.4 209.9 217.6 232 236.5 239 244.4 242.5 264.6 271.8 279.9 287.5 292.6 295.8 296.1 296.7 301.1 308.9 307.5 309.1 315.2 321.3 327.1 338.5 357 360.5 379 399 407.4 422.1 441.7 450.6 455.6 460.5 465.2 467.6 469.1 470.6 470.7 470.1 472.3 476.3 479.2 478.5 483.1 493 501 510.1 524.5 533.3 544.2 561.1
123.1 118.1 124.9 121.2 111 111.3 108.3 98.5 97.5 97.3 97.3 96.8 96.2 96.5 96 95.6 96 97 99.3 97.7 97.1 97.1 97.1 97.1 97.1 97.1 97.1 97.1 97.1 97.1 97.1 97.1 97.1 97.1 97.1 97.1 97.1 97.1 97 97 97.8 98.7 99.6 100 100.5 100.9 101.4 102 102.3 102.4 103.2 104.2 104.9 105.7 106.2 106.9 107.7 109.2 110.6 113.5 118.7 125.9 131.2 145.4 155.2 156.1 153.8 152.8 152.5 145.2 149.6 154.1 158.3 163.5 167.4 176.1 183.2 190.3 200.8 221.2 240.9 253.2 275.9 290 301.3 310.1 316.1 322.7 328.6 336.7 348.2 357.2 367 379.8 393 398.7 390.3 378 365.1 364.4 366.9 368.6 375.7 380.8 365.2 377.2 376.2 380.9 363 324.5 296.1 281.1 269.1 259.6 254.4 250 242.8 240.4 239.2 233.7 232.2 231.6 233.8 224.8 232.6 237.6 234 234.3 236.9 242.7 249.4 255.3 243.3 231 222.3 211.4 196.5 189.2 182.8 170.5 171.7 170.1 170.5 172.3 173.9 176.1 179.7 186.4 195.4 205.6 217.3 224.6 236.3 238.6 246.6 253.5 260.8 268.1 277.1 284 289.4 293.2 292.4 291.7 297 306 305.4 307.8 311.5 316.5 325 333.1 357.1 366.3 370.7 392.5 408.8 421.1 433.4 441.3 446.6 451.4 455.1 456.4 458.1 458.1 458.7 462 463.5 472.3 476.9 476.3 482.4 488.8 495.9 505.6 521.6 530.2 542.7 559
136.3 121.4 119.3 126.8 115 110.2 101.3 98.5 98 97.4 96.7 96 95.6 96.1 95.6 95.5 97.1 97.5 98.1 98.5 98.3 97.1 97.1 97.1 97.1 97.1 97.1 97.1 97.1 97.1 97.1 97.1 97.1 97.1 97.1 97.1 97.1 97.1 97.1 97.6 98.6 99.5 100.1 100.4 100.8 101.4 102 102.6 102.9 103 103.9 105.9 107.1 107.5 108 109.7 110.1 113.3 116.3 118.3 122.4 130.7 141.9 144.2 154.3 154.3 154.4 155.4 155.1 154.8 156.5 158.9 161.3 170.7 174.9 184.5 192.2 201.6 213.8 226.6 242 260.7 271.8 283.8 291.7 299.8 305 311 318.8 334 348.2 364.2 391.3 406.1 426 438.5 423.6 406.9 396.3 391.8 393.4 393.3 391.4 395.9 383.6 387.4 394.4 382.3 345.5 311.1 295.6 286.6 278.4 270.7 262.3 254.4 245 242.3 239.6 236.2 231.9 229 227 221.6 223.1 226.9 228 228.8 231.4 236.4 243.4 250.5 242.5 234.5 221.8 207.7 194 185.5 174.1 176.5 174.7 179.1 180.8 176.8 178 179.6 183.3 188.5 196.2 206 216.4 221 228.5 237.6 245.3 252 258.4 264.6 273 280.5 285.8 290.2 290.2 290.3 296.4 298.9 301.8 305.4 309.2 317.9 330.1 349.1 351.3 366.5 379.9 386 401.2 413.6 424.2 430.8 435.8 439.4 440.7 442.9 447 449.4 455.3 458.5 458.5 461.2 465.7 472.8 478.2 483.9 497.6 503.2 518.1 535.1 554 568.4
137.2 136.2 136 135.1 113.9 101 99.8 98.6 98.3 97.9 96.9 95.9 95 95.8 97.1 97.6 97.8 98 98.8 98.9 100.3 98.9 97.1 97.1 97.1 97.1 97.1 97.1 97.1 97.1 97.1 97.1 97.1 97.1 97.1 97.1 97.1 97.1 97.1 98.2 98.8 99.5 100.3 100.8 101.2 102 102.6 103.2 103.5 103.6 105.4 109.1 109.3 109.1 111.2 112.8 113.5 116.2 119 124.1 133.6 139.3 141.7 147.5 150.5 153 156 157 158.4 159.9 160.8 162.6 165.1 178.3 200.8 201.5 208.7 217.3 226 234.2 251.2 256.3 257.5 267.9 277.5 287.4 292.8 300.7 312 333.7 359.6 382.5 411.4 433.5 444.2 462.9 465.6 445.8 432.2 420.3 422 419.1 416.7 409.2 401.8 407.9 401.3 371 338.8 318.1 304.2 299.6 291 286 269.3 258.8 253.3 247.7 242 239.3 234 230.6 225.8 222.8 214.7 216.6 220.8 222.5 224.1 231.5 236.3 242.5 242.8 231.2 218.1 202.4 191.3 181.6 176.8 185.6 183.2 184.9 187.4 192.9 190.9 184.3 185 188.7 196.5 202.8 209 216.2 224.9 235.3 242 247.9 253.8 260 267 275 280.7 281 286.9 289.1 290.9 293.6 298.3 302.1 311.4 324.8 351.9 354.4 359.8 373.2 380.5 392.5 401 409.5 415.6 421.9 424.6 426.9 430.2 438.6 442 446 456.8 456.7 461.9 466.5 466.7 469.9 474.1 475.8 485.5 494.3 514 537.9 555 579.7
113.8 129.6 133.5 121.4 102.8 99.2 98.2 98.3 98.4 97.7 96.2 96.9 96.8 97.6 97.6 97.8 98.1 98.4 100.2 101 102.8 102 100.4 97.1 97.1 97.1 97.1 97.1 97.1 97.1 97.1 97.3 97.1 97.1 97.1 97.1 97.1 97.8 98 99.2 99.8 99.7 100.5 101.9 103.1 102.1 102.8 103.6 104.5 105.7 111.1 111.4 112.3 113.3 113.9 115.5 119 123.8 129.5 140.6 149.8 149.4 150 148.3 149.9 154.3 155.7 158.1 160.2 162.9 166.2 170.8 176.7 189.5 213.2 223 226.5 228.2 234.4 237.9 246.6 269 266.2 266 269.8 279.7 286.2 293.1 305.8 336.9 365.4 389.2 412.2 436.2 454 467.9 481.2 479.6 466.4 453.7 452.6 449.2 447 436.6 431.4 421.4 394.7 372.6 349.9 330.5 326.3 316.6 307 299.8 280.3 267.7 266 255.1 248.4 242.6 236.7 231.3 227.9 223.4 217.4 211.5 215.1 217.3 220.9 224.7 227.3 234.3 232.8 223.3 211.3 196.3 187.4 175.9 179.3 188.3 188.1 188.8 191.2 199.3 200.7 189.1 188.8 190.1 196.3 198.8 202.9 212.2 224.7 232.8 237.5 244.6 252.4 258.9 266.7 273.5 279.1 287.3 289.6 289.4 290 291.4 296.7 308.3 316.8 344.8 357.1 357.7 368.8 369.5 377.3 392.7 401.8 410.8 414.5 416.8 424.1 431.5 433.1 434.9 436.3 443.4 444.4 451.3 454.5 462.9 463.1 462.3 465.3 471.5 482.1 494.8 522.4 546.4 562.6 581
100.2 102.3 110 104.6 99 97.8 96.7 97.2 97 96.3 96 97.3 98.2 98.1 98 98.1 98.2 98.8 101.5 103.6 105.3 105.5 104.8 100.9 100.7 100.1 98.6 100.5 102.5 101.7 102.7 105.9 105.1 103.4 103.3 102 102.8 105.8 105.1 103.1 102.9 101.9 101.5 103.1 104.8 104.1 104 106 109.1 111.5 111.7 116.2 121.8 123 121.7 123.7 126.3 141.8 147.3 153.2 159.5 158.6 158.8 159.9 157.9 160.5 162.4 161.8 163.9 168 173.5 180.5 188 199.1 211.1 224.9 231.7 234.1 238 242.7 247 268.4 268.3 268.9 270.5 276.7 286.4 299.7 316.6 330.6 354.1 380.5 405.1 425.7 446.5 464.9 482.1 495.8 503.9 493.6 487 484 481.1 465.6 459.6 437.6 416 391.7 364.8 342.7 343.8 337 324 308.6 293.3 283.3 271.2 263 251.9 245.6 240.1 231.9 226.4 222.8 216.9 212 209.8 214.1 216.3 219.8 214.9 218.5 226.4 216.3 202.9 192.1 182.6 177 180.4 185.9 188.9 192.2 195.6 203.7 199.9 194.1 194 191.9 194.6 198.3 202.2 213.6 221 231.6 237.6 246.5 255.1 266.3 270 280 289.4 291.5 295.2 291.5 292 293.5 301.5 321.4 329.1 350.4 361.7 373.1 377.3 374.6 380.4 388.8 398.6 407.8 410.5 418.4 423.2 433.2 434.8 435.7 433.9 431.3 429.2 431.4 434.3 442.5 447.2 451.4 458.2 469.7 481.8 500.9 532.8 542.9 565.1 575.4
98.7 102.2 100.3 98.1 97 96.3 95.8 95.7 95.7 96.2 96.8 97.6 98.5 98.5 98.5 98.5 98.6 100.6 102.9 107.7 108.6 111 111.1 111 110 111.6 113.8 116.9 121.8 124.8 122.8 124.4 124.2 122.7 122.6 120.4 122.9 124.2 121.2 113.9 111.2 109 106.5 111 114.5 114.7 114.2 115.1 120.1 121.9 118.8 123 127.9 132.7 138.2 140.6 147 156.6 162.9 169.9 171 168.5 167.7 168.8 168.1 168.2 174.2 171.9 170.1 176.4 184.2 190 198.1 207.7 218.4 229.9 237.4 242.7 248.8 253.6 259.5 267.3 274.7 273.8 277.8 282.5 288.5 298.8 314.7 334.5 359 379.8 401.4 423.2 438.5 454.2 471.5 491.5 519.8 539.6 534.2 523.7 517.7 507.3 488.8 465 440.3 416 387.1 363.9 358.9 353.5 333.9 316.5 310.5 304.1 284.7 271.1 256.6 249.8 241.8 233.1 226.4 220.8 218.1 214.3 204.4 216 211.6 209.7 206.7 209.7 214.2 205.1 195.5 187.1 177 178 183 185.4 191.7 193.8 194.9 199.8 198.7 197.9 196.6 194.8 194.8 198 201.5 206.9 218.7 231.3 241.2 249.5 259.7 265.8 273.8 287 300.5 300.6 298.8 298 294 299 306.1 322.2 353.2 347.7 354 363 369.7 371.3 375.7 381.7 396.5 398.8 407.9 415.1 423.9 423.9 426.2 428.4 429.2 426.3 425.9 428.3 431.8 437.2 443.2 449.8 461.6 473.9 482.7 508.8 526.2 556.7 564.4 570.1
100.9 100.3 97.1 96.5 96.9 97.4 96.9 97.4 96.9 97.3 97.7 98.5 99.3 98.9 99.5 100.8 101.5 106.2 118.3 119.4 118.2 117.3 124.8 127.2 130.7 128.6 133.1 138.2 140.3 142.7 146.5 150.9 151.3 147.4 150.3 146.9 144.1 142.5 137 126.7 123.4 124 126.9 130.7 132.8 140 140.3 137.2 133.4 133.6 136.3 139.6 139 144.9 149.8 158.3 171.3 177.5 185.9 186.2 184.8 183.5 182.2 176.5 179.1 180.4 182.4 181.3 181.5 192.7 199.1 205.3 213.4 222.5 229 239.6 250.4 258.8 265.1 272 277.5 280.4 282.9 293.1 289.4 296.9 302.8 308.4 316.6 337.5 360 376.2 391.3 419.5 429.8 440.7 461.2 489.6 523.9 565.9 580.1 572.7 581.6 578.9 533 499.3 479.4 447 410.9 382.6 366.3 363.1 343.4 335.3 331.7 310.1 297.4 283.6 270 254.4 246 235.2 235.4 227.7 217.8 211.7 201.3 211.9 206.1 202.5 199.1 198.9 199.8 198.2 189 178 177.5 182.4 185.8 184.9 188.6 191.2 194.1 195.7 197.5 203.8 203.8 198.3 199.9 203.5 207.2 213.5 225.9 238.3 247.4 250.7 256.9 265.1 272.8 283.5 292.7 306.6 305 305.4 298 309.8 318.6 329 343.2 347.3 352.4 355 361.1 365.7 372.4 382.1 389.2 395.3 403.7 413.6 417.9 419.6 420.1 422.3 423.5 423.1 425.2 429.5 434.9 438.8 443.8 453.3 465.9 473.5 503.7 520.5 530.6 545.4 549.6 559.4
103.6 103.6 102.6 103.7 105 103.5 101.1 99.1 98.7 98.5 98.9 99.3 99.5 100.4 101.7 104 108.1 121.5 132.8 134.3 131.4 135.5 142 145.2 147.7 147 151.5 149.3 153.7 164.7 174.9 180.1 182.3 180 179 172.6 164.7 156.3 150.4 142.2 143 144.5 152.6 152.8 154.5 165.6 166.3 165.1 158.2 155.9 158.1 162.8 161.3 173.2 179.2 188.4 193.7 201.9 210 207.9 205.5 205.1 197.8 196.2 197.9 196.8 196.4 198.9 208 207.2 216.9 225 233.7 241 248.6 258.2 266.3 272 278.4 286.3 294.5 302 302.8 308.3 311.2 312.7 316 319.8 325.4 332.9 348.9 363.5 384 406.2 413.7 431.1 454.8 484.3 522.8 564.9 604.9 627.9 633.6 625.5 587.5 554.7 514.4 465 427.6 399.8 382.1 371.4 358.8 354.7 343.6 322.9 309.4 301.3 289.8 265 251.7 249.6 242.7 235.4 220.5 212.2 198.2 199.7 198.6 194.8 193.3 192.5 191.7 190.2 185.4 181.1 178.3 185.6 186.1 185.9 186.7 189.8 193.2 195.5 198.9 209.4 218.4 209.2 204.9 213 220.1 223.3 232.1 243.2 248.3 251.4 260 261.8 270.1 279.8 289.4 298.7 304.8 308.6 303.8 318.8 328.6 331.7 336.1 344.6 349.3 351.7 355.4 357.3 367.3 372.6 388 398.1 408.4 409.6 410.5 414 413.8 414.9 415.5 414.9 423 430 437.4 441.1 445.3 453.3 467.1 479.6 519.1 531.4 543.1 548.7 558.5 562.9
106.5 106.3 109.9 111.4 116.3 112.1 104 100.7 100.2 101.2 101.2 101.5 102 103.5 106 111.3 122.8 136.6 147.9 148.4 148.6 147.6 153.5 162.5 163.9 166.4 170.7 176.7 182.2 191.8 195.1 200.3 202 204.7 199.8 195.4 189.8 183.8 174.1 166.4 164.4 167.4 172.6 171 168.8 178 182 186.4 187.2 185.2 187.5 185.2 195.7 203.8 212.2 225.1 223.9 230.3 234.2 235.1 238.3 232.2 225.4 226 219.3 218.9 216.6 227.7 229.5 229.4 237.3 243.8 250.3 259.3 266.1 273.2 279.6 286.5 291.3 301.6 310.2 318.3 320.5 323.9 325.1 325.4 333.7 330.5 335.6 343.3 348.3 355.4 369.5 385.9 409.4 431.6 453.3 478.9 508.6 544.1 586.6 626.4 628.6 623.1 613.7 599.2 571.9 499.1 447.9 408.7 393.3 382.4 374.5 369.4 352.1 332.1 322.4 320 302 278.5 264.1 263.1 253 235.8 221 208.8 200.2 191.1 191.5 188.5 187.1 186.8 186.1 185.7 186.7 186.3 180.4 183.9 184.6 186.7 187.4 189 192.8 197.5 202 206.5 222.9 221 213.5 218.1 227.7 231.4 237.6 249.9 251.4 257.9 266.3 274.1 275.2 276.3 285.7 294.5 302.8 307.8 307.3 311 320.5 326.6 331.7 340.8 344.3 350.1 352.3 354.1 357.4 368.8 383.5 396.7 402.6 400.2 401.5 400.9 405.2 408.3 407.5 411.4 423.5 433.9 444.7 447.5 454.3 467.6 470.5 481.8 509.8 527 535.8 545.8 547.6 556.5
101.6 121.6 127 122.7 126.3 120.9 107 102.6 102.2 103 104.2 105.8 106.9 109.3 114.8 123.5 136.5 153.4 161.9 165.2 167.2 167.3 169.4 180.3 186.5 193.4 196.9 203 208.5 214.4 217 219.1 222.9 220.6 216.9 209.2 204.5 198.7 192.4 192 190.4 193 187.8 184.5 186.1 189.7 193.5 203 209.5 210.2 210.6 212.8 226 243.5 249.3 258.3 259 258.8 258.6 260.2 263 262.1 261.6 252.9 247 246.3 246 250.9 249.5 247.3 254.5 260 267.5 273.6 280.4 285.4 290.9 296.5 303.8 315.8 325.8 337.3 344.8 351.1 351.4 344.1 345.6 347.9 351.3 357.2 357.3 362.5 367 385.8 402 421.9 444.7 473.8 497.7 528.1 569.9 617.4 621.6 616.3 609.6 598.5 576.6 525.5 489.3 442.6 416.6 401.5 390.7 377.6 360.3 344.7 340.5 333.2 305.8 287.3 272 269.7 253.5 235 219.8 208.1 198.6 192.4 187 186.6 186.2 186.1 184.6 186.9 186.5 187.9 182.1 184.3 184.8 186.6 187 188.4 192.2 199.6 204.4 207.7 215.3 222.3 220.3 222.2 233.7 237 241.7 248.9 257.2 266.8 276.1 282.1 284.2 282.3 288.7 297.7 304.4 311.2 319.3 318 317.1 322.8 328.7 332.7 335.2 339.2 347 351.9 349.8 358.6 372.5 386.8 387.3 387.4 388.5 388.9 394.8 400.4 400.5 409.7 419.3 426.7 434.8 445.5 456.6 472.3 480.6 489 500.5 512.1 522.8 533.6 542.8 551.1
133.8 141.9 140.8 136.7 136.6 122.5 111.8 108.4 107.9 108.5 111.7 118.2 116.4 120.8 129.5 139.3 152.7 173.4 186 185.7 181.8 180.3 185.3 192.5 199.6 206.9 214.1 220.9 229.1 231.9 233.2 235 235.4 233 229.5 222.4 219.3 213.8 213.7 213.9 210.5 207.5 202.9 196.3 201.1 203.5 209.6 219.5 224.9 231.9 234.6 238.9 249.5 263.8 277.1 283.6 286.9 288.2 289.2 289.1 286.9 286.5 282 277 273.2 270 267.1 268.8 269.1 262.3 267.6 274 278.3 284.1 291.7 299.5 304.2 308.6 320 329.5 341.7 357.3 367.5 373.8 374.9 366.5 365.3 367.8 371.6 371.6 369.1 373.9 379.2 387.9 403.5 418.7 434.1 455.7 487.7 522.4 575 613.5 614.5 610.8 604.5 593.3 580.5 559.3 526.3 475.8 457.9 430.8 408.3 385.8 369 356.7 352.5 334.9 315 292.8 278.4 264.4 248.5 232 220.5 210.8 198.4 192.5 186.8 185.7 185.9 185.4 185.4 186.2 188.9 184.3 182.3 183.3 184 185.7 186 188.2 191.2 195.3 202 207.9 215.9 217.9 221 227.7 236.6 242.3 245.1 252.7 268.9 276.4 283.2 288.4 290.9 287.8 294.9 300.1 310.3 314.6 322.8 323.9 321.2 322.9 325.7 328.7 333.7 335.4 336.9 342.6 340.6 354.8 364.6 374.2 375.1 376.3 375.8 380.5 383.8 385.1 399.6 412 407 414.4 428.9 449.4 468.2 482.4 492 495.9 504 511.8 516.3 520.8 536 543.5
152.4 155.8 153.2 148.7 141.4 129.1 122.9 119.2 117.2 118.8 126.6 129.6 124.5 133.1 143 151.3 163.1 185.2 191.5 192.5 192 195.7 196.5 201.8 210.5 216.2 223.8 232.5 240.8 242.5 246.7 247.3 246.6 241.8 238.4 235.8 233.2 229.8 227.6 226.1 223.4 220.4 212.8 213 214 216.4 223 231.3 239.7 246 248.9 260.6 279.5 293.8 312.7 313.7 313.8 315.8 318.2 318.3 314.8 310.9 304.2 299.6 294.8 288 281.6 281.7 279.6 268.1 278.3 282.6 288.7 295.2 302.6 308.8 315.4 322.7 333.2 343 356.1 372.6 386.3 384.2 385.3 378.7 386.8 392.8 391.4 387.2 382.5 387.7 390.9 401 410 429.2 434.6 450.6 479.4 516.2 580.9 612.6 610.6 606 598.7 588.5 575.8 557.8 534.5 506.5 474.4 448.3 421.4 394.4 377.2 366.1 358.7 346.1 317.9 298 282.5 262.6 245.3 230.9 220.7 214.7 202.9 193.4 186.7 185.5 185.1 184.7 184.8 186.1 186.6 182.7 181.9 182.6 182.9 183.7 186.8 189.8 189.7 193.5 198.7 205.7 218.2 220.5 221.1 228.3 233.3 239.4 246.9 256.2 264 275.8 284.7 287.5 290.6 294.9 298 306.4 311.7 324.7 320.6 319.8 319.5 320.3 322.5 324.9 326.2 328.3 331.2 331.9 339.5 355.1 361.4 360.1 360 363.4 367.5 371.4 373.8 379.1 395.9 395 401.3 412.8 423.1 439.2 466.8 484.5 491 500.8 503.2 504.6 509 517.5 525.5 531.6
165.2 168.7 166.8 159.2 147.4 140 139.3 134.6 131.2 135.4 139.4 138.4 137.3 142.7 152.8 162 170.9 191.4 194.2 197.2 198.9 202.5 205.3 209.7 221.3 226.4 232.2 243 246.1 251.5 256.6 255.7 255.2 252.2 248.2 245.5 245.4 243.8 240.1 236.1 232.3 230.3 220.7 225.5 228.3 229.8 234.7 245.5 256.3 263.8 270.1 285.2 307 325.3 344.9 347.8 349.2 350.5 349.3 344.2 338.6 335.4 324.4 315.6 309.3 300.7 290.3 290.8 288.4 275.7 286.1 289.5 299.2 306.8 314.2 320.5 327.6 336.3 347.4 360.6 374.1 389.9 407 394.1 386.3 383 392.4 406.7 403.6 396.3 399.5 408.8 413 421.3 429.9 441.6 440.8 449.2 472.9 508.7 577.7 613 606.2 598.2 589 578 565.8 549.1 530.8 508 477.2 452.1 427.3 406.1 388.5 373.9 363.3 346.5 320.9 298.1 275.7 256 241.7 229.4 220.3 211.2 200.6 191.3 186.5 185.5 185 184.6 184.4 184.6 184.6 182.6 182.7 181.8 184.3 186.8 188.5 189.8 187.6 191.7 197.2 204.5 211.7 217 222.7 235.3 234 243.6 255.2 259.4 262.8 276.2 279.8 285.1 291.1 308.5 302.9 313.5 318.6 317.2 317.6 317.6 317.2 317 318.6 320.1 321.7 323.7 325.8 328.3 331.9 340.1 343.8 349.2 350.8 355.5 359.5 361.4 367.6 373.2 379.1 383.4 395 412.3 423.3 428 439.1 451.8 471.1 479.2 487.9 490 492.5 502.1 513.7 520.1
175.4 179.2 179.8 166.2 155.7 151 151.2 147.9 148.3 150.2 151.6 150.6 151.5 148.9 162 171 176.4 185.1 197.5 202.3 205 210.5 213.7 218.6 225.2 229.7 239.7 246.3 252.1 260 262.3 265.5 268.5 265.5 260.6 257.7 256.8 256.4 255.1 249.5 243.7 240.4 232.3 237 241.2 244.6 250.1 258.5 268.2 274.8 287.8 306.4 328.7 352.9 374.2 378.2 386.2 385.1 381.2 371.4 360.6 347.9 335.6 325.3 318.4 310.5 303 301.5 296.6 284.1 294.4 301.4 307.6 315.1 322.6 329.8 341 352 364.6 377.2 394.2 411.1 430 426.7 396.9 385.9 390.4 408.3 417.5 412.7 421.7 435 445.5 440.1 444.1 444.8 449.7 460.2 485.1 517.1 581.2 609.9 597.5 587.1 574.7 561.5 550.8 537.1 523.9 500 476.4 453.8 432.6 413.4 397.9 383.8 356.3 335.4 315.3 295.1 270.2 250 237.3 228.9 218.4 208.1 197.6 190.4 187 186 185.3 184.4 183.9 183.9 183.4 182 181.8 181.8 181.8 184.2 185.5 186.5 185.8 189.1 194.1 200.1 207.4 217.4 224.7 232.1 237.3 250.3 257 260.3 267.2 274.7 278.9 284 297.8 299.4 303.7 306.3 309.7 312.4 314.4 314.3 314.1 313.7 315.3 317.3 319.8 321.1 323.5 326.3 329.1 330.7 332.4 338.3 343.3 345.6 355.5 362.5 367.1 369.1 373.3 376.5 391.6 406.3 414.9 425.8 439.4 448.1 457.1 465.9 472.8 480.3 484.4 492 512.2 522
187.9 190.2 184 171.2 156.1 160.7 161.3 161.2 161.2 162.2 162.3 158 159.2 156.7 171.2 175.4 181.7 189.9 204.1 208.7 214.6 216.1 224.6 230.2 232 236.9 240.3 250.1 258 263.6 269.2 274.5 278.2 278.6 276.3 274.1 270.8 271.9 269.1 263.8 254.9 250 243.7 249.4 251.4 254 261.7 269.7 280.3 290.8 300.4 319.4 337.3 359.1 378.7 390 396.5 401.2 400.2 386.6 370.4 354.8 343.4 332.4 324.9 315.8 314.5 310.6 304.2 293.4 301.1 307.1 313.5 321.1 329.9 339.9 353.8 366.7 383.3 398.3 415.2 434.7 452.6 453.2 414.3 392 393.1 411.3 429.3 437.2 440.8 441.9 446.6 446 452.4 455.6 463.1 473.1 498.7 534.7 596.3 601.4 584.8 569.4 554 539.1 528.3 517.3 503.5 491.2 475.2 457.3 439.4 417.1 402.3 382.7 353.7 333.6 308.6 287.4 266.2 247.5 233.7 227.2 213.8 203.9 196 189.7 188.1 186.8 185.7 184.3 183.7 182.3 182.1 181.9 181.8 181.8 181.8 181.8 181.8 182.2 183.7 186.7 190.9 195.7 203.8 213.6 222.1 230.3 242.5 254.1 255.9 261.4 267.3 271.9 275 285 293.6 298.6 302 302.5 303 305.4 307.6 309.2 309.2 309.2 311.3 315 318.5 318.7 321.8 324.6 327.5 327.9 329.8 332.7 336.9 344.9 349.5 357.6 359.8 364.4 367.7 372.4 381.8 391.8 415.2 428.8 438.5 445 453 458.4 462.5 468.2 472.5 480.1 483.9 489.5
197.7 191.9 181.4 173.7 165.8 171.5 173.6 173.1 176.7 173.8 174.7 171.5 174.6 174.4 166.9 178.5 183.3 195.9 212.4 216.6 220.3 224.8 232.4 235.6 240 246 250.4 256.4 262.2 267.7 272.4 279.6 284 286.3 289.2 295 295.2 290 282 273.7 263.6 258.6 254.8 250.1 258.8 263.2 268.1 277.2 287.2 297.6 309.7 324.2 340.5 362.2 385.4 397.7 406.6 412 412.5 399.3 375.9 356 344.1 335.7 328.2 323.1 320 315.2 309.1 302.1 301.5 306.8 314.8 323.8 335.4 346.7 364.2 386.2 400.5 415.3 432.4 448.7 462.1 468.1 443.1 407.2 397.2 409.2 427.2 444.9 456.5 452 450 457 459.9 470.4 477.4 493 515.6 567.8 613.7 594 571.9 549.1 531.5 508.9 499.7 496.9 490.9 483.2 469.1 457.3 439 419.3 402.7 383.1 357.6 335.9 308.5 284.7 265.4 243 230.8 220.2 211.8 204.4 195.8 190.3 187.7 186.8 185.2 184 181.9 181.8 181.8 181.8 181.8 181.8 181.8 181.8 181.8 181.8 181.8 185.1 188.9 192.5 200.6 209.4 220.5 227.6 233.2 241 251.2 258.2 265 268.4 271.2 278.4 290.2 295.8 301.7 300.1 299 300.9 302.8 303.8 304.1 304.1 306.1 308.2 310.8 315.9 319.6 322.9 324.2 325.8 328.9 332.1 334.1 335.9 346.7 347 353.3 357 362.7 373.2 377.4 386.8 397.5 412 426 431.5 441.1 452.5 457 459.6 464.4 467.5 475.5 487.7
