ncols 200
nrows 87
xllcorner 260000
yllcorner 334000
cellsize 50
21.5 23.8 26 28.3 30 31.9 34.4 31.7 36.1 37.5 33 27.8 13.6 9.4 6.2 2.1 3.3 2.8 1.2 1.2 1.8 1.8 1.2 2 1.2 1.6 1.2 1.3 1.5 2.1 2.4 2.7 2.7 2.3 1.2 1.2 1.2 1.2 1.2 1.2 1.6 2.7 6.9 10.9 17.2 20.9 19.3 25 16.3 21.4 3.7 6.4 21.8 26.8 25.3 48.5 71.3 93.3 106.3 109.9 113.2 108.8 111.2 127.6 131.5 139.6 148.8 145.5 156.7 167.1 178.2 191.2 196.4 220.4 234.6 243.9 241.1 212.4 186.5 171.5 154.2 154.2 154.2 154.2 154.2 154.2 162.5 177.8 185.8 191.4 194.6 198.1 199.4 199.7 202.6 206.3 205 210.5 211.4 208.1 197.8 194.5 188.5 187 191.5 189.5 190.2 186.6 185.2 185.5 188.5 189.4 189.4 187.4 186.4 188 186.5 186.3 187.3 187.7 182.1 179.7 179.2 185.1 190.6 191.3 191.8 189.5 191.9 195.6 195.3 198.7 191.6 180 161 138.4 138.4 143 145 120.1 157.4 158.8 153.2 162.6 169.9 176.8 178.2 185 193.9 192 193.1 196.8 203.8 211.2 220.3 219.8 219.2 225.3 232.5 237.4 239.6 242.5 246.6 250.3 257.2 262.4 268.4 270 268.1 259.6 248.4 241.7 231.1 219.3 212 204.1 199.5 198.1 195.2 195.9 191.2 187.1 183 182.2 183 183.8 184.7 186.6 189 191.1 194.2 196.4 195.5 196.8 197.7 196.9 200.4 202.9 207.6 210.5
20.7 22.8 24.9 28.5 32.5 34.8 37.8 33.4 29.3 26.5 17.1 11.7 7.8 4.5 1.2 1.2 1.2 2.1 1.2 1.8 1.8 1.8 1.2 0.6 1.5 1.8 2.2 1.7 1.5 1.5 1.7 2 2.2 1.2 1.2 1.2 1.2 1.2 1.2 1.5 2.3 12.3 15.8 26.3 25.9 25.4 28.1 25.1 25.2 24.1 9.4 13.2 7.1 16.4 29.6 63.3 92.5 112.1 116 114.6 117.3 107.1 105.8 119 132.8 145.7 142.3 145.9 151.7 163.2 177.3 185.9 199.7 221.2 234.5 242.3 214.1 181.1 161 154.2 154.2 154.2 154.2 154.2 154.2 158.1 170.2 178.3 189.6 196.7 201 200.5 199.3 198.1 195.7 196.6 198.6 213.7 216 205.6 197.1 183.1 185 190.4 187.6 184.5 183.1 183.4 183.5 185 185 186.8 186.6 186.8 185.7 191.1 188.1 187.9 190.6 189.4 190 187.4 186.4 188.9 193.6 194.3 196.5 198.1 200.9 202.1 200.9 197.9 190.3 179.7 167.7 149.3 140.3 147.1 146.7 137.3 122.4 139.7 152.9 168.9 179.4 182.2 185.7 200.1 200.4 195.6 194.1 201.9 207.2 213.2 223.1 230.7 223.7 227.5 232.8 239.8 240.1 243.6 247.8 249.3 252.2 258.8 267.5 270.9 268.4 260.2 249.5 239.6 229.3 221.6 213 206.6 205.3 197.7 196 194.8 193.2 190.2 186.2 184 183.7 184.6 185.4 187.4 189.1 192.4 194.1 195.9 196 196 196 196 196.2 199.1 203.9 207.6
19.4 21.2 25.8 29.7 35.8 38.7 40.3 29.2 19.4 16.2 11.6 4.5 1.7 1.2 1.2 1.2 1.2 1.2 1.2 1.2 1.2 1.2 1.2 1.2 1.8 1.7 1.2 1.2 1.7 1.8 1.8 1.8 1.2 1.2 1.2 1.2 1.2 1.2 1.2 4.8 18.8 22.6 26.1 36.9 32.9 36 35.5 31.1 31.9 29.5 12.2 4.9 12.6 24.2 47.6 79.9 116.2 119.4 122.2 123.5 113.1 103.1 113.2 128.5 143.5 145.3 139.1 142.6 148.3 155.3 169.3 179.1 192.3 203.4 204.8 187.3 165.6 154.2 154.2 154.2 154.2 154.2 154.2 154.2 154.2 165.7 171.4 182.8 189.9 193.8 200.2 199.9 198.2 196.3 194.1 193.1 197.7 197.8 195.8 189.9 182.6 182.3 183.9 182.8 185.7 187.8 188.2 185 183.7 184.2 185.1 186 184.8 188.6 188.5 191.4 191.3 195.8 196.7 194 194.6 195.2 193.7 196.1 195.5 197.2 198.4 200.2 199.6 199.5 198.5 194.5 187 182.8 174.5 164.9 148.2 140.2 146.1 131.1 125.6 134.1 161.2 174.5 183.1 187.8 190.3 197.4 199.5 198.4 197.9 202.4 206.6 214.8 224.2 231.2 231 229.1 231.7 236.6 241 245.2 248.5 249.1 248.7 262.3 270.8 270.6 265.6 260.3 253.6 243.1 226.9 220.2 213.2 208.3 207.5 201.1 195.9 194.1 193.8 193.4 189.3 186.7 185 185.3 186.2 188.2 191 197.4 199.9 197 196 196 196 196 196 196.9 200.1 205
17 24.2 27.1 33.8 39 38.3 26.4 16.5 15 8.3 7.4 1.8 1.2 1.2 1.7 1.8 1.8 1.8 1.8 1.8 2 1.8 1.8 1.2 1.2 1.2 1.2 1.2 1.8 1.8 1.8 1.8 1.2 1.2 1.2 1.2 1.2 1.2 1.2 17.8 34.5 31 32.5 42.4 43.3 44.5 44.9 41.8 43.7 39.8 5.6 4.7 25 38.8 68.1 99.3 111.8 128 130.9 117.5 106.6 102.3 129.2 146.6 149.9 144.9 136.5 138.2 141.8 145.6 155.1 160.1 164.6 169.4 170.3 154.2 154.2 154.2 154.2 154.2 154.2 154.2 154.2 154.2 154.2 172.1 179 182.3 185.7 190.1 190.8 196 189.3 188.9 189.7 187.4 186.5 182.4 181 181.7 184.6 181.8 182.8 183.6 182.8 181.9 182.9 183.5 186.9 187.9 191.6 197.5 200.1 188.4 197.9 197.3 203.4 208.4 209.2 199.3 198.5 198.6 200.3 199.1 198.3 199 198.3 198.4 198.5 195.1 193.7 192.3 182.9 178.1 176.3 170.2 157.2 139.6 135.1 139.2 137.1 129.9 164.2 186.5 191 191.5 191 194.7 200.1 200 200.7 202.9 208.1 213.3 220.4 224.5 229.9 230.2 230.5 234.3 238.7 247.8 254.9 249.9 251.9 267.6 270.8 269.1 270.9 266.5 256.8 239.6 226.8 223.1 215.9 211 206.7 203 195.4 194.7 194.5 194.3 192.5 189.5 187.8 186.1 186.9 189 193.3 200.3 204.3 196 196 196 196 196 196 196 199.2 203.4
14.9 19.7 25.8 28.3 22.1 21 16.3 11.1 1.2 1.2 1.2 1.2 1.2 1.4 1.6 1.7 1.7 1.7 1.7 1.2 1.2 1.2 1.2 1.4 1.2 1.7 1.8 1.2 1.8 1.8 1.8 1.2 1.2 1.2 1.2 1.2 1.2 1.2 11.8 27.6 36.2 33.7 41.4 48.5 54.9 60.3 57.3 51.6 47.3 38.9 13.2 4 27.2 56.2 88.5 99.6 110.9 126.1 109.4 104.1 98 102 141.1 156.2 146.2 131.5 131.1 123.5 119.3 121.4 135.1 139.6 148.6 161.8 157.9 154.2 154.2 154.2 154.2 154.2 154.2 154.2 154.2 154.2 160.1 175 180.3 184.4 187.5 193.3 194.3 191.8 183 181.4 181 178.4 179.7 182.1 184.2 183.1 187.8 184.8 182.8 183 183.4 196.1 203.2 199.7 199.8 203.8 205.9 207.8 193.5 189.6 196.6 201.8 208.9 207.3 203.8 201.3 204 203.3 205.8 204.4 208.7 205.3 203.3 202.4 200 196 190.4 184.5 180.8 179.6 176.7 171.3 154.1 138.8 150.2 154.8 163.7 146 156.4 187.2 189.6 192.8 193.5 196.7 199.3 200.9 201 204.9 208.9 211.9 215.5 218.3 222.4 229.5 229.9 233.7 243.2 258.5 260.5 251.8 253.4 263.4 268.1 268.4 270.1 267.1 252.1 235.1 226.7 221 215.3 211.2 208.9 206.5 202.5 195.3 195.1 194.9 194.7 192.2 190.5 188.8 187.7 196.1 196 196 196 196 196 196 196 196 196 198.7 198.9 201.6
10.5 15 21.3 22.7 20.9 13.4 7.6 1.2 1.2 1.2 1.2 1.2 1.2 1.2 1.3 1.5 1.5 1.4 1.2 1.2 1.2 1.2 1.2 1.2 1.2 1.2 1.2 1.2 1.2 1.2 1.6 1.2 1.2 1.2 1.2 1.2 1.2 1.2 19.7 38 38.6 42.2 51.1 54.3 64.6 66.6 61.8 56.5 48.3 27.4 7.5 5 27.8 66 87.1 102.5 112.1 86.8 86.1 80.4 81.9 95.3 128.1 136.1 124.7 106.6 108.2 111.4 122.7 132.5 140.8 151.5 161.1 168 173.3 165.6 154.3 155.8 154.2 154.2 154.2 154.2 154.2 154.2 170.8 184.7 185.9 187.4 186.5 179.3 189.3 188.6 188.7 179 180.9 185.7 187.2 186.7 189 185.4 185.5 186.8 189.9 193.6 198.9 202.9 209.3 203.9 207.7 205.9 205 201.9 195.4 197.9 202.5 202.5 203.3 202.6 206.1 206 209.7 211.3 213.6 216.4 216.1 209.8 206.7 202.6 198.5 194.4 188.7 182.9 179.5 179.6 172.4 160.8 147.1 152.2 160.3 167.3 173 164.4 140 173.1 186.9 191.2 197.9 196.7 201.3 201.6 202.5 206.4 210.4 210.3 213.3 217 220.9 226 230.1 236.4 250.8 251.1 248.1 248.9 249.4 248.5 256.7 262.9 267.6 259.5 245 232.6 223.5 219.9 214.3 212.8 211.5 210.9 205.1 194.9 194.9 195 195.1 195.4 197.5 199.4 196 196 196 196 196 196 196 196 196 196 199.7 198.5 199.3 202.2
8.4 13.5 19.4 17.5 8.9 1.2 1.2 1.2 1.2 1.2 1.2 1.2 1.2 1.2 1.2 1.2 1.3 1.2 1.2 1.2 1.2 1.3 1.3 1.3 1.2 1.2 1.2 1.2 1.2 1.2 1.2 1.2 1.2 1.2 1.2 1.2 1.2 4.4 32.7 42 43.1 48.7 58.6 66.2 70.8 71.1 63.9 57.8 33.9 13.9 4 4 22.5 45 67.9 71.8 71.4 67.9 63.9 65.2 72.8 81.1 97.5 96.7 95.6 100.8 109.3 119.5 132.3 142.1 156.3 164.7 174.1 184.5 191.1 184.1 174 166.3 154.9 154.2 155.7 159.5 154.4 155.6 179 187.3 181.8 184.3 181.6 177.3 175.2 178 173.6 181.8 188.3 190.8 192 194.6 197.1 192.4 191.5 192.4 200.3 205 209.1 212.2 211.9 210.4 210.8 208.7 206 202.8 200.1 201.3 205.4 205 206.4 209 211.5 211.9 215.2 218.1 221.3 224.4 218.6 213 208.2 203.3 197.5 194.9 190.3 185.9 183.1 177.3 164.5 149.5 158.8 164.9 176.2 180.9 177 173.3 154.3 152.4 183 190.8 196.7 201.4 202.3 202.2 202.9 207.2 209.8 210.5 211.7 215.9 218.9 223.8 229.2 232.9 233.2 235.3 239.4 246 239.5 239.3 247.7 252.8 257.2 252.1 233.9 227.5 222 216.6 214.3 212.8 211.2 210.9 204.9 201.6 194.6 195.5 198.3 200.2 198.6 196 196 196 196 196 196 196 196 196 198.9 196 196 196 196 199.8
7.6 11.6 12 1.2 1.2 1.2 1.2 1.2 1.2 1.2 1.2 1.2 1.2 1.2 1.2 1.2 1.2 1.2 1.2 1.2 1.3 1.3 1.4 1.4 1.3 1.3 1.2 1.2 1.2 1.2 1.2 1.2 1.2 1.2 1.2 1.2 1.2 14 39.6 46.3 46.9 53.6 62 72.6 69.8 69.9 60.5 50.1 14.2 2.2 4 9.6 19.3 34.3 39 45.4 44 52.3 70.8 78.7 82.5 90.9 105.6 111.8 115 116.5 121.1 134.5 145.8 153.7 168 179.1 187 199.4 201.8 190.9 180.3 168.5 164.2 160.9 169.7 175.1 168.1 161 167.5 178.9 180.5 178.1 164.1 159.8 155.6 159.4 166.4 176.7 187 194.1 196.2 198.3 198.3 198.3 201.9 205.6 204.9 210.3 215.9 219.1 219.3 216.4 213.2 209.5 205.6 201.8 199.9 204.4 207.6 208.8 211.6 214.4 215 217.7 220.2 222.8 224.4 224.7 220.5 216.6 210.2 203.6 199.9 193.7 188.1 181.5 178.7 166.4 160.9 168.3 172.6 182.1 186 185.4 180.5 176.2 173.3 165.4 149 180.5 191.7 198.8 202.4 202.5 202.2 205.6 208.8 210.2 210.7 215.4 220.8 218 221 226.5 224.9 226.6 232.5 226.5 228.8 227.9 225.7 236.9 241.4 235.1 228.7 219.7 219.3 214.2 213.4 212.2 210.7 209.9 206.7 202.4 201.1 200.9 200.4 197.8 196.3 196 196 196 196 196 196 196 196 196 197.2 196 196 196 196 196.9
5.9 1.2 1.2 1.2 1.2 1.2 1.2 1.2 1.2 1.2 1.2 1.2 1.2 1.2 1.2 1.2 1.2 1.2 1.2 1.3 1.3 1.4 1.4 1.5 1.4 1.4 1.3 1.2 1.2 1.2 1.2 1.2 1.2 1.2 1.2 1.2 1.2 14.6 45.5 35.5 49.4 57.5 68.7 64.7 62.9 53.8 38.7 16.2 2.7 1.8 3.6 10.5 20.5 19.7 25 35.8 51 69.8 81.9 83.7 96.4 115.5 131.9 133.7 137.5 136.3 140.6 153.1 166.1 169.3 175.1 184.5 195.7 205.3 202.4 194.2 174.2 177.4 164.2 164.5 169.3 172.7 164.9 166.1 164.4 159.4 156.9 147.3 151 153.7 160.4 167.6 172.1 181.4 191.7 200.9 205.8 207.9 207.6 208.9 211.8 215.4 216.2 214.2 217.6 219 219.5 217.8 214.7 209.7 204.9 201.8 202.9 209.9 210.8 214.4 215.5 217.3 220.7 223.2 223.6 224.9 225 223.7 218.6 214.8 209.7 202.8 198.7 192.3 185.5 179.2 169.7 164.5 179.3 179.6 183.1 186.8 187.8 187.4 187.7 182.9 179.8 180.4 169.6 160.9 187.7 199.2 203.8 201.8 199.5 201.9 208.5 209.2 210.2 209.1 211.3 211.8 214 218 216.5 219.5 220.4 220.8 219.2 219.6 220.1 223.1 225.9 225.7 220.5 217.7 217.5 214.2 212.3 211.2 211.3 208.7 205.7 202.7 202.9 201.9 201.3 199.8 196 196 196 196 196 196 196 196 196 196 196 196 196 196 196 196
1.2 1.2 1.2 1.2 1.2 1.2 1.2 1.2 1.2 1.2 1.2 1.2 1.2 1.2 1.2 1.2 1.2 1.2 1.3 1.3 1.4 1.4 1.5 1.5 1.5 1.5 1.4 1.4 1.2 1.2 1.2 1.2 1.2 1.2 1.2 1.2 1.2 3.4 17 22.3 40.1 45.2 44.2 52 59.7 26.8 4.3 1.7 2.6 3.8 4.4 9.2 18.5 26.7 34.6 46.6 64.9 80.3 86.7 96.7 116.3 134.6 141.2 145.3 148.3 147.1 155.6 169.7 177.5 180.9 186.3 194.5 209.2 210.9 207.5 188.5 171 167.7 157.5 156.1 160.2 160.1 159.7 157.4 157.7 155.9 144.6 150.5 159 165.4 173.1 178.1 182.4 186.8 196.3 206.6 212 217.5 217.6 219.8 219.1 218 218.9 218.8 218.9 219.1 217.3 217.9 215.8 212.2 209.9 206.9 211 214.3 218.7 220.1 217.2 220.9 222.3 224.3 225.4 226.3 225.6 222.5 216.1 211.6 206.5 206.3 201.3 198.7 183.6 177.9 167.6 185 183.2 183.7 185.5 187.7 189 190.9 188 186.1 183.5 181 179.8 162 173 198.9 205.7 200.6 196.8 199.5 206.7 207 208.2 208.4 212.3 215.9 207.5 208.3 208 209.5 206.8 208.6 207.8 207.3 207.1 211.8 218 216.9 213.5 214.2 213.7 213.6 213.3 212.7 210.4 208 204.8 203.9 202 201.3 201 199.3 196 196 196 196 196 196 196 196 196 196 196 196 196 196 196 196
1.2 1.2 1.2 1.2 1.2 1.2 1.2 1.2 1.2 1.2 1.2 1.2 1.2 1.2 1.2 1.2 1.2 1.2 1.3 1.4 1.4 1.5 1.5 1.6 1.6 1.6 1.6 1.5 1.2 1.2 1.2 1.2 1.2 1.7 1.8 1.2 1 1.2 1.4 1.4 1.8 2 3.8 6.4 2.8 2.7 2.2 2.8 7.3 13.4 21.2 28.5 40.8 51 57.2 62.6 76.3 88.4 97.8 111.4 126.4 138.8 145.2 151.7 151.4 153.2 164.6 176.7 179 184.6 189.8 204.6 206.3 211.5 197.7 174.8 163.4 157 150.4 147.9 150.7 158.6 156.6 138.8 139.4 144.1 158.5 168.9 172.9 178.1 185.8 188.5 192.8 197.1 201.4 211.3 218.6 223.4 223.6 222 220.9 219 216.9 217.5 219.6 218 218.9 219.4 218.4 217.3 213 212.4 213.3 216 218.7 220 221.2 220.8 221.2 225 224.9 224.4 222 217.7 213 210.1 209.1 208.6 200.5 190.3 178.2 174.3 186.7 186.2 185.3 186.3 189.5 190.8 195.4 194.3 191.7 189.4 187.6 182.3 182.4 181.1 172.4 190.9 202.4 197.4 196 196.8 200.9 202 204.4 208.9 212.6 207.5 203.8 200.2 198.7 196.5 196.5 196.5 196.8 196.5 196.5 201.4 204.2 202.9 203.1 207.5 211 211 211.2 209.1 205.3 206 203.8 200.3 199.6 199.6 199.5 196.5 196 196 196 196 196 196 196 196 196 196 196 196 196 196 196 196
1.2 1.2 1.2 1.2 1.2 1.2 1.2 1.2 1.2 1.2 1.2 1.2 1.2 1.2 1.2 1.2 1.2 1.2 1.2 1.3 1.4 1.5 1.6 1.6 1.7 1.7 1.7 1.5 1.2 1.3 1.4 1.5 1.6 1.9 2 2.1 1 1.5 1.9 1.8 1.9 2 1.7 1.7 1.8 2.7 3.1 8.1 13.6 24.7 40 55.7 63 69.7 71.1 76.6 88.3 95.1 109.2 116.8 135.1 141.7 148 152.7 151 158.1 165.4 169.5 172.6 182.4 192.6 190.1 200.9 200.1 178.2 170.7 161 149.2 148.4 151.6 155.1 161.6 145.2 132.9 153.5 165.3 177.1 179.5 189.4 190.7 198.5 198.9 203.2 207.5 211.8 216.1 224.9 225.7 224.4 223.3 222.9 218.9 218.3 218.4 219.7 221.7 222.5 222.8 223.1 218.7 210.3 209.9 211.4 214 216.1 217.3 219.3 219.3 219.9 216.7 216.8 215.2 213.9 213.5 209.3 209.8 207.6 201.1 195.3 178.9 179.2 189.9 193.2 190.5 190.3 192.6 195.2 198.2 200.7 197.2 196.1 194.4 190.5 186.6 183.3 183.2 182.3 166.8 182.4 196 196 196 196 201.3 207.3 210.9 204 208 200.9 196.5 196.5 196.5 196.5 196.5 196.6 196.5 196.5 196.5 196.5 196.5 196.5 199 204.8 209 209.1 204.7 198.6 202 201.4 198.5 196.5 196.5 196.5 196.5 196 196 196 196 196 196 196 196 196 196 196 196 196 196 196 196
1.2 1.2 1.2 1.2 1.2 1.2 1.2 1.2 1.2 1.2 1.2 1.2 1.2 1.2 1.2 1.2 1.2 1.2 1.2 1.2 1.3 1.4 1.5 1.7 1.7 1.8 1.8 1.5 1.2 1.4 1.6 1.7 1.8 2.2 2.4 3.7 1.3 1.9 2.4 2.4 2.6 2.8 3.5 2.8 3.3 4.2 4.1 10.7 21.5 38.7 54.8 68 72.4 86.2 86.1 89.3 95.8 105 113.5 125.3 135.9 143.8 148.4 150 150 156.1 160 164.8 166.7 171.3 172.3 189.6 192.1 177.4 168.1 163.5 153.3 146.1 149.8 154.8 149.8 133.9 131.7 150.3 160.7 169.9 185.5 185.4 197.6 198.3 203.2 208.6 213.6 217.9 222.2 226.5 232.1 228.9 226.3 224.9 223.4 220.4 221.1 221.4 223.9 223.6 223.9 226.3 228 213.1 209.7 209.7 210.6 212.7 213.4 215.8 217 217.4 214.4 210.9 209.5 209.7 208.7 208.5 205.2 205.4 202.6 198.1 184.5 182.8 192.9 194.5 194.7 193 193.8 196.9 200.2 201.4 201.3 200.8 198.1 195.9 193.5 191.1 187.2 184.2 185.7 186.7 196 196 196 196 196 204.2 208.6 210.1 204.3 203.8 196.5 196.5 196 196 196 196 196 196 196 196 196 197.5 196.5 196.5 196.5 201.7 204 197.2 196.8 202.2 197.8 196.5 196.5 196.5 196.5 196.5 196 196 196 196 196 196 196 196 196 196 196 196 196 196 196 196
1.2 1.2 1.2 1.2 1.2 1.2 1.2 1.2 1.2 1.2 1.2 1.2 1.2 1.2 1.2 1.2 1.2 1.2 1.2 1.2 1.3 1.4 1.5 1.6 1.7 1.8 1.8 1.8 1.2 1.2 1.7 1.8 1.8 2.4 2.3 1.5 1.6 2.3 2.8 4 5.5 4.3 3 5.1 6.8 7.6 9.6 22.8 39.5 55 65.8 69.9 82.6 99.9 104.4 100.7 105.2 116.7 118.6 127 134.8 142.1 144.8 145.5 150.4 156.3 160.2 161.2 159.3 163.1 169.6 178.1 168.1 163.4 163.2 156.1 148 139.8 140.5 140.2 123.3 129.9 136 144.6 153.1 173.9 181.9 190.3 191.3 194 200.7 206.7 211.4 216.7 221.9 227.8 230.9 228.5 225.5 224.1 223.2 222 223 226.7 227 224.4 222 217.3 210.3 209.7 209.7 209.7 210.5 213.2 215.2 215.7 217.2 216 213.8 213 210.3 206.8 205.7 205.2 206.4 205.9 198.5 184.6 180.1 191.1 193.1 195.5 195.3 194.8 195.8 199 203.9 206.1 204.9 202.4 200.8 198.3 197.6 193.4 193.6 186.5 189 190.3 196 196 196 196 196.4 200.7 197.9 197.8 198.2 196.5 196.5 196 196 196 196 196 196 196 196 196 196 196 196 196 196.5 196.5 196.5 196.5 197.5 196.5 196.5 196.5 196.5 196.5 196.2 196 198.4 196 196 196 196 196 196 196 196 196 196 196 196 196 196 196
1.2 1.2 1.2 1.2 1.2 1.2 1.2 1.2 1.2 1.2 1.2 1.2 1.2 1.2 1.2 1.2 1.2 1.2 1.2 1.2 1.2 1.3 1.4 1.5 1.6 1.8 1.8 1.2 1.2 1.2 1.2 1.2 1.2 1.2 2 0.8 2 5.9 9.7 9.1 9.7 6.2 6.2 7.7 10.7 12.1 16 39.1 57.1 62.9 74.5 80.7 95.1 110.2 113.6 102.9 108 114.8 118.1 123.6 130.8 137.2 140.7 144.8 151 157.2 158.9 155.8 152.8 158.6 165 160.6 162.8 153.8 153.3 139.4 131.4 125.4 117.9 120.9 118.1 117.7 122.9 134.3 150.4 163.3 176 177.4 185.6 189.2 199.6 205.5 210 216.5 222.5 228.8 231.9 232.6 228.7 226.4 224.2 224.5 225.8 227.6 226.3 222.8 218.4 213.7 209.7 209.7 209.7 209.7 211.1 214.8 215.2 218.1 221.2 221.5 216.8 214.3 209.4 205 203.9 204.1 204.1 198.4 183.1 184.6 188 190.9 192.6 197 196.3 196.7 198 201.2 205.4 208.8 206.1 204 202.7 202.9 199.4 196.3 194.8 191.9 192.3 195.8 196 196 196 196 196.2 197.5 196 196 196 196.5 196 196 196 196 196 196 196 196 196 196 196 196 196 196 196 196 196.5 196.5 196.5 196.5 197.8 196 196 196 196 196 196 196 196 196 196 196 196 196 196 196 196 196 196 196 196 196
1.2 1.2 1.2 1.2 1.2 1.2 1.2 1.2 1.2 1.2 1.2 1.2 1.2 1.2 1.2 1.2 1.2 1.2 1.2 1.2 1.2 1.2 1.3 1.4 1.6 1.8 1.8 1.2 1.2 1.2 1 1.5 1.2 1.2 1.8 1.7 7 13.1 19 14.2 11.6 8.6 9.3 10 12.6 16.9 29.5 42.1 53 65.5 78.8 89 99.2 110.1 106.5 101.1 105.9 110.4 115 120.3 127.2 133.1 137.4 144.4 149.8 155.7 153.6 151.4 148.2 153.1 153.4 156.8 149.7 154 137.1 121.9 113.6 116.2 120.1 114.9 109.5 116 126.4 145.9 151.3 158.1 165.4 178.8 187.3 194.4 200.8 206.3 217.9 224.8 231 235.9 235.4 234.9 231.7 229.1 225.7 226.4 228.9 228.2 225.2 220.8 217.7 215.5 213 211.3 209.7 209.7 209.7 218.8 221 222.2 221.8 221.8 219.7 216.7 210.1 206.9 205.6 200.2 200.3 188.3 187.4 191.7 191.1 192.8 197 201.2 200.1 200.2 200.6 201.8 206.3 209.9 207.2 205.3 205.8 205.6 201.9 199.8 198.1 196.2 195.8 196 196 196 196 196 196 196 196 196 196 196 196 196 196 196 196 196 196 196 196 196 196 196 196 196 196 196 196 196 196 196 196 196 196 196 196 196 196 196 196 196 196 196 196 196 196 196 196 196 196 196 196 196
1.2 1.2 1.2 1.2 1.2 1.2 1.2 1.2 1.2 1.2 1.2 1.2 1.2 1.2 1.2 1.2 1.2 1.2 1.2 1.2 1.2 1.2 1.2 1.2 1.7 1.8 1.8 1.2 1.6 1.3 1.2 1 1.3 1.2 3.9 7.7 12.8 18.7 28.8 9.1 12.9 9.9 10.1 11.4 13.6 25.6 48.6 52.8 59 66.1 80.9 88.8 95.2 101.6 99.1 99.2 102.8 99.5 111.2 116.4 123.7 129.5 134.9 141.8 147.2 150.4 148.1 144.1 141.9 144.8 145.3 140.9 143.7 139.7 123.7 108.7 102.3 112.6 99.4 102.6 114.9 128.3 141.6 148.7 155.3 167.2 183.5 197.8 205.2 205.6 208.9 217.9 226.6 233.8 237.7 238.3 236.1 235.2 234.3 231 228.8 228.8 230.7 229.6 225.7 220.3 218.3 219 218 216.5 217.4 213.8 211.4 218.3 220.9 219.5 219.9 219.8 218.2 217 213.5 210.4 208.8 202.1 193.6 187.1 191 193.9 194.6 196.1 199.5 201.2 201.7 201.8 201.7 202.4 204.1 206.2 206 206.6 208.2 206.4 205.2 201.8 201 201.1 202.4 206 197.1 196 196 196 196 196 196 196 196 196 196 196 196 196 196 196 196 196 196 196 196 196 196 196 196 196 196 196 196 196 196 196 196 196 196 196 196 196 196 196 196 196 196 196 196 196 196 196 196 196 196 196
1.2 1.2 1.2 1.2 1.2 1.2 1.2 1.2 1.2 1.2 1.2 1.2 1.2 1.2 1.2 1.2 1.2 1.2 1.2 1.2 1.2 1.2 1.2 1.2 1.8 1.8 1.8 1.2 1.8 1.8 1.4 1.2 1.4 1.2 2.2 11.5 20.5 25.2 12.1 1.5 15.2 10.3 10.6 11.3 18.3 32.2 50 55 61.3 71 80.7 84.7 90.2 93.5 92.4 95.9 95.9 98.9 106.1 112.4 120.7 125.5 131.5 138 143 142.3 142.2 135.2 134.4 131.5 130 128.5 125.8 115.8 110.4 97.1 93.8 107.7 112.8 114.9 124.6 144.3 151.2 154.8 161.4 181.9 199.6 212.7 217.9 220.3 220.6 225.4 233.9 239.1 239.6 238.9 239.2 238.6 236.9 236 235.8 234.6 234 229 225.7 218.8 219.8 220.5 221.2 220.6 223.2 222.8 218.2 218.4 222.1 222.7 218.9 215.8 213.2 212.4 207.7 206.3 204.9 199.6 191.3 190.9 194.9 198.4 199.7 201.2 202.8 202.8 203.3 203.2 203 202.7 203.2 203.7 204.9 205.8 208.7 206.5 206.6 207.2 204.5 203.8 202.1 198.8 198.3 196.5 196 196 196 196 196 196 196 196 196 196 196 196 196 196 196 196 196 196 196 196 196 196 196 196 196 196 196 196 196 196 196 196 196 196 196 196 196 196 196 196 196 196 196 196 201.5 206.4 205 199.1 196 196
1.2 1.2 1.2 1.2 1.2 1.2 1.2 1.2 1.2 1.2 1.2 1.2 1.2 1.2 1.2 1.2 1.2 1.2 1.2 1.2 1.2 1.2 1.8 1.2 1 0.9 1.3 1.2 1.9 1.3 1.2 1.4 1.8 1.2 1.6 19.8 23 19.1 1.8 1.9 10.9 7.6 11.5 12.2 20.5 31.2 50.9 57.6 60.9 66.7 74.2 77.8 83.8 85.3 86.4 89 89.4 98.4 105.3 112.7 117.1 121.3 126.3 133.9 130 137.1 131.3 123.8 130.7 116 112.6 108.9 100.4 106.6 91.3 93.2 112.7 123.7 126.7 129.3 138.6 153.9 158.3 160 174.4 201.9 218.8 229.1 235.9 236.5 230.9 233 238.2 239.5 241 241.2 242.9 241.1 240 240.8 239.2 237.7 234.6 230.2 224.2 218.5 220.9 222.2 224 223.7 225.6 222.7 221 219.3 220.8 219.1 214.9 211.2 210 207.2 203.8 202.4 198.7 193.7 194.3 198.4 200.1 202.9 204.4 207.3 208.7 205.9 206.3 205.2 204.9 204 204 204.7 204.8 206.4 208.5 208.2 211.8 211.4 210 206.6 205.9 207.1 201.7 199.3 196 196 196 196 196 196 196 196 196 196 196 196 196 196 196 196 196 196 196 196 196 196 196 196 196 196 196 196 196 196 196 196 196 196 196 196 196 196 196 196 196 196 196 201.6 205.2 202.7 199.3 196 196 196
1.3 1.3 1.3 1.3 1.3 1.3 1.2 1.2 1.2 1.2 1.2 1.2 1.2 1.2 1.2 1.2 1.2 1.2 1.2 1.2 1.3 1.4 1.2 1.2 0.6 0.9 1 1.9 2.4 1.9 1.5 1.7 2.3 2.7 6.4 9.9 12.8 3.3 1.4 4.5 4.9 4.8 10.4 16.1 21.3 33 49.6 56 57.2 58.3 70.2 73.4 76.1 75 75.3 77.4 79.1 89.3 104.7 110.7 112 112.2 117.1 121.6 122.3 128 116 119.2 120.2 109.4 96.2 87.6 83.3 88.5 93.9 113.7 130.2 130.7 130.8 139.5 152.8 158.6 162.2 167.4 193.7 220.4 232.1 241 247.1 240.6 242.8 243 242.8 243.6 244.9 245.5 247.4 243.7 244.5 241.6 239.2 237.1 233.1 227.6 220.6 220 222.3 225 226.1 224.8 222.1 221 220.6 220.8 217.7 217 212.5 210.2 208.8 204.3 204.9 198.1 194.2 197.2 201.2 203.7 207.9 210.5 216 212.9 212.7 210.6 211.5 210.7 212.2 206.7 206.8 207.1 208 208.7 209 211.9 214.5 213.3 208.3 208.9 209.7 209.6 203.9 201.5 196 196 196 196 196 196 196 196 196 196 196 196 196 196 196 196 196 196 196 196 196 196 196 196 196 196 196 196 196 196 196 196 196 196 196 196 196 196 196 196 196 196 196 196.3 196.2 196 197 196 196 196
1.5 1.5 1.5 1.5 1.4 1.4 1.2 1.2 1.2 1.2 1.2 1.2 1.2 1.2 1.2 1.7 0.8 1.6 1.2 1.2 0.9 1.2 1.2 1.3 0.5 0.6 0.9 2 2.8 2.4 1.9 2 2.3 3.3 1.7 3.2 3.9 2.6 1 1.1 1.4 1.5 5.4 18.2 23.4 35 44.7 49.3 49.4 56.3 64.1 65.7 62.8 61 63.2 68.8 80.2 86.3 106.2 107.6 107.3 108.2 106 108.2 113.3 115.9 110.3 110.7 101.8 90.9 79.4 79.9 96.2 103 106.3 129.8 132.8 132 130.9 150.1 155.3 166.8 168.5 185.5 213.1 233.7 241.3 250.3 253.6 247.5 251.9 249.2 247.2 247.3 249.8 249.9 250.5 248.1 247.8 242.6 240.1 236.9 233.4 223.5 213.9 219.3 221 224.2 225.7 224.5 221 223.4 223.2 222.2 217.5 215.3 211.6 209.4 205.3 201.8 199.1 194.8 198.5 206.1 208.8 210 214.3 219.8 224.4 221 215.4 217.3 216.6 217 214.9 212.7 213 211.5 210.9 211.4 213.4 217.3 217.5 209.8 210.1 210.6 211.3 209.2 205.8 204 196 196 196 196 196 196 196 196 196 196 196 196 196 196 196 196 196 196 196 196 196 196 196 196 196 196 196 196 196 196 196 196 196 196 196 196 196 196 196 196 196 196 196 196 196 196 196 196 196 196
1.6 1.6 1.6 1.6 1.6 1.4 1.2 1.2 1.2 1.2 1.2 1.2 1.2 1.2 0.5 1.2 1.1 0.4 1.2 1.2 0.9 1.2 1.2 1 0.9 0.7 0.8 1.8 2.6 2.7 2.3 2.2 1 2.2 2.6 3.4 2.1 0.8 1.2 1.5 2.3 2.3 10.8 15.6 22.6 33.4 35.5 43.9 41.3 53 53.2 55.5 54.4 56.9 62.2 72.2 81.5 86.6 98.8 100.4 104.9 102.3 99.1 101.5 99.5 105.3 110 98.9 86 80.9 74.2 82.7 100.1 112.1 117.7 127.1 135.5 133.9 132.3 148.2 166 176.6 187.4 206.7 224.2 237.5 249.6 259.7 259.4 254.7 252.7 250 248.6 248.7 253.1 254 254.1 252 245.5 242.4 237.9 236.4 231.1 216.9 212.6 216.3 223.1 223.9 224.3 224.3 225.2 224 220.9 219.2 216.2 210.2 208.9 206.6 202.2 199 196.7 199.2 209.1 218.3 221.6 220.9 220.7 223.9 229.3 231.3 221.9 221.7 219.5 220 219.4 218 216 214.9 214 215.2 217.1 220 215.7 212 214.1 214.7 215.2 211.4 213.3 208 196 196 196 196 196 196 196 196 196 196 196 196 196 196 196 196 196 196 196 196 196 196 196 196 196 196 196 196 196 196 196 196 196 196 196 196 196 196 196 196 196 196 196 196 196 196 196 196 196 196
1.7 1.8 1.8 1.8 1.7 1.5 1.2 1.2 1.2 1.2 1.2 1.2 1.4 0.9 0.5 0.8 0.9 1.5 2.6 1.2 1.2 0.9 1.2 1.1 1.2 1.3 1.3 1.4 1.4 2.1 1 1.4 2.4 3.3 3.2 2.5 1 1 1.7 2 2.6 2.1 15.6 16.5 19 25.6 30.4 32.8 33.2 42.2 42.2 47.8 51.7 58.9 63.3 75.5 80.5 81.4 92.2 97.9 104.9 99.3 97.7 96.3 99.6 107 105.5 84.9 70.7 69.2 74.2 93.4 108 116.3 121.9 126.2 131.6 130.2 133.2 155.1 182 187.1 198.6 215.4 228 243.5 253.3 258.5 257.2 256.4 253.9 251.4 254.3 251 254.8 255.6 256 252.2 245.1 239.8 238.4 235.4 227.4 212.9 213.9 219.1 223.3 223.9 226.2 224.3 223.4 223.3 221.7 219.7 215.6 213.3 210.5 206.6 204.7 198 198.1 211.4 223.7 230.5 233.8 232.6 231.4 232.7 236.6 240.7 231.3 224.7 220.8 220.3 222 221.9 218.5 218.6 220.3 221.3 226.7 223.6 217.8 217.5 218 218.3 219.1 217.2 219.2 210.3 196 196 196 196 196 196 196 196 196 196 196 196 196 196 196 196 196 196 196 196 196 196 196 196 196 196 196 196 196 196 196 196 196 196 196 196 196 196 196 196 196 196 196 196 196 196 196 196 196 196
6.9 7.7 4.4 1.8 1.7 1.5 1.2 1.2 1.2 1.2 1.8 1.6 1.1 0.6 0.5 0.8 1 1.3 1.2 1.2 1.2 1.1 1.2 1.2 1.2 0.8 1.1 0.7 1 1.4 2.1 2.4 3.1 2.8 2.5 2.3 1.2 1.2 2.1 2.6 2.4 2 15 10.8 13.6 21.9 24.8 20.9 32.4 32.3 38.2 45 54.1 58.7 67 73.1 77.7 80.6 91.2 95.6 99.7 94.7 91.4 91 99.6 103 93.7 72.3 67.2 79.6 89.4 77.9 94.6 109.9 119.4 121.7 126.3 128.7 145.8 167.3 179.7 185.6 203.5 222.8 242.5 252.5 261.4 261.9 261.6 261.9 258.4 254.3 260.2 259.4 257.9 257.7 256.1 249.9 242.7 239.4 235.8 229.1 213 211.1 215.8 220 221.1 222.5 224.2 222.4 223.1 223.8 222.6 219 215.4 214 210.6 203.8 199.9 197.7 203.7 214.7 232.8 237.2 242.2 243.6 241.5 239.1 245.7 255.4 239.8 229.4 222.8 223.2 228.1 228.1 225.4 227.7 226.5 227.3 225.9 225.2 222 222.3 221.2 221.1 222.6 222 220.1 216.5 200.8 196 196 196 196 196 196.4 196.4 196 196 196 196 196 196 196.4 196 196 196 196 196 196 196 196 196 196 196 196 196 196 196 196 196 196 196 196 196 196 196 196 196 196 196 196 196 196 196 196 196 196 198.1
14.2 10.7 7.2 3.7 1.8 1.5 1.2 1.2 1.2 1.2 1.7 1.3 1 0.5 1.8 1.1 1 1.1 1.2 1 1.2 1.2 1.3 1.3 1.4 1.4 2.7 1 1.5 2.1 2.5 2.9 2.8 2.2 2 1.6 1.4 1.4 1.9 2.6 1.9 1.9 9.6 4.4 5.7 12.6 14.1 17.1 27.5 30.2 43.2 54.1 61.7 67.5 71.7 74.7 78.6 78.1 78.1 76.4 79.8 90.5 88.9 90.7 93.7 92.3 75.4 66 78.4 95 100.1 105.6 105.2 88.7 107.8 116.5 119.7 115.3 120.7 146 165.3 175.9 200.7 225 248.6 254.8 259.3 262.9 267.6 269.6 265 260.2 262 265.3 261.7 261.2 256.7 246 240.9 240.4 234.1 217.1 207.3 214.1 216.1 215.6 215.2 219.4 223.6 223.6 222.7 221.5 218.1 214.4 212.3 210.7 205.6 199.4 197.9 201.1 206.7 220.7 226.1 232.6 234.7 247.4 250 250.5 255.1 259.6 249.4 238.1 229.8 225.6 231.2 235.6 235.8 233.7 226.3 226.3 229 230.5 225.8 229.2 226.4 227.4 229.8 227.1 224.5 223.9 214.5 200.1 197.5 196.5 197 200.8 203.1 200.2 196.3 196.1 197.5 202.7 203.5 199.4 203.8 199.5 196 196 196 196 196 196 196 196 196 196 196 196 196 196 196 196 196 196 196 196 196 196 196 196 196 196 196 196 196 196 196 196 196 199.2
16.9 12.7 8.8 5.1 1.8 1.2 1.2 1.2 1.2 1.2 1.6 1.2 0.8 0.5 0.6 0.8 1 1 1 1 1 1.2 1.8 1.8 1.8 1.6 0.6 1.2 1.7 2.2 2.8 3.2 2.1 0.9 1.1 1.3 1.5 1.5 1.8 1.8 2.5 1.8 2.7 3.4 9.7 13.7 10 19.1 33.5 41.6 57.9 64.2 69.5 72.9 74.6 77.7 78.7 76.4 76.4 76.4 76.4 92.1 91 89.3 86.7 74.1 67 72.5 92.8 101.4 112.9 115.8 118.2 115.4 114.6 112.7 113.7 122.6 130.7 120.7 139.7 164.6 184.9 214.1 236.9 247.9 256.1 264.2 271.5 276.5 271.6 267.7 264.9 266.5 263.9 260.2 249.8 243 240.1 236 213.7 204 211.2 214.6 212.8 212.2 215.2 217.6 222.2 220 220 218.5 215.1 211.3 209.7 210.9 204.4 200.2 200.9 208.2 210.3 219.3 224.9 228.3 240.5 257.1 255.5 261.4 268.1 267.3 254.5 245.7 237.6 230.6 234.9 238.3 235.6 229.9 226.7 229.1 234.1 234.2 232.5 234.4 232.2 233.6 238.9 237.2 234.6 226.8 222.6 215.7 206.3 202.6 205.5 208.7 209.3 208 208.4 208.6 205.7 212 216.1 214.6 216.2 216.4 209.1 196 196 196 196 196 196 196 196 196 196 196 196 196 196 196 196 196 196 196 196 196 196 196 196 196 196 196 196 196 196 196 196 196
15 11.5 8.1 4.6 1.8 1.2 1.2 1.2 1.2 1.2 1.5 1.1 0.7 1.2 0.8 0.9 1.1 1.1 1.7 1.1 1 1.4 2.6 0.7 0.8 0.8 0.9 1.1 1.5 2.2 2.9 3.1 2.2 1.3 1 1.4 1.8 2.2 2.4 2.2 2 2.3 2.4 3.2 10.4 20.7 26.4 44.4 51.6 58.4 71.7 73.7 76.2 77.2 78.7 80.5 78.3 76.4 76.4 76.4 80 90.7 90.9 84.6 75.1 67.1 62.9 79.9 95.3 109.1 118.8 122.8 125.9 129.1 132.8 136.7 136.2 136.9 145 144 129 139.8 170.7 202 223.9 238.1 252.8 265.2 271.9 272.5 270.3 270.6 271.1 268.7 262.5 253.9 245.6 236.7 234.5 222.6 205.5 205.2 209.2 208.7 210.2 211.8 214.6 216.4 217.8 218.4 214.6 212.1 210.9 211.8 215.2 214.3 208.9 207.7 214.4 224 223.5 221.7 224.7 229.1 238.9 248.8 252 271.1 277.9 273.8 258.1 251.1 245.4 238.4 236.4 236.6 237.2 232.7 233.7 237.5 240.1 235.3 235.2 242.7 243.1 243.4 248.9 249 243.6 234.4 236.3 228.8 220.8 217.3 215.8 215.2 216 216.9 218.6 217.1 213.8 220.3 226.8 225.4 229.1 229.3 222.1 215.7 196 196 196 196 196 196 196 196 196 196 196 196 196 196 196 196 196 196 196 196 196 196 196 196 196 196 196 196 196 196 196 196
10.8 9.8 7.6 4.2 1.2 1.2 1.2 1.2 1.2 1.2 1.2 1.4 1.2 1.2 1.2 0.8 1.1 1.8 2.7 2.3 1.2 2.5 1.3 2.3 2.3 1.5 1.4 0.9 1.5 2.3 3 2.9 2.3 1.9 1.5 1.7 2 2.6 2.7 2.4 2.3 2.7 3.1 3.5 14.6 28.9 43.2 53.3 59.6 68.8 76.7 80 87 85.4 82.7 82.4 81.6 77.4 76.4 76.4 80.8 84.6 89.7 81.6 67.3 60.9 71 84.8 98.7 112.1 121.3 128.1 136.2 140.6 144.9 147.6 148 154.4 157.9 156.3 143 130.5 147.3 184.1 214.4 231.2 240.2 249.2 257.2 260.5 265.6 269 267 264.2 256.8 247.2 238.5 230.8 221 206.7 202.3 205.1 207.2 209.4 211.1 212 213.9 216.6 217.1 214.8 211.5 212.5 213.2 219.5 220.3 217.1 216 217 235.6 241.8 233.1 232.1 229.5 227.4 234.7 246 253.3 254.6 259 265.5 260.7 255.8 251.2 245 236.7 236.5 235.4 243.3 243.5 248 249.2 246.4 245.6 252.3 256.1 258.4 267.5 275.5 262.3 250.1 248.5 241.8 236.7 231 226.5 223.1 224.6 228.1 225.9 225.8 225.6 227.2 233.7 236.7 239.9 235.7 238 228.6 210.8 196 196 196 196 196 196 196 196 196 196 196 196 196 196 196 196 196 196 196 196 196 196 196 196 196 196 196 196 196 196 196
1.2 5.4 4.2 3 1.2 1.2 1.2 1.2 1.2 1.7 1.2 1.2 1.2 0.5 0.8 0.8 1 1.4 2 2.1 1.2 0.8 1.7 2.6 2.2 2.6 2.2 1 1 1.9 2.7 2.6 2.2 1.7 1.6 1.9 2.2 2.4 2.8 2.6 2.7 3.1 3.6 6.5 24.1 42 52.5 59.7 68.3 77.1 83.5 90.1 96 97.2 92.7 90.4 79.7 76.4 76.4 76.4 80.7 78.3 78.5 73.8 60.7 69.8 77 86.9 98.6 116.9 129.4 138.8 147.8 152.1 155 156.7 156.9 163.1 165 159.4 153.2 138.5 137 163.7 188.1 203 219.7 231 244.1 254.5 261.6 263.8 264.9 261.2 251 240.3 231.1 218.8 203.6 206.9 203.8 205.7 206.4 209.9 212.3 213.8 214.8 214.3 214 212.5 211.4 212.4 215.8 214.5 215 216.1 216.8 230.8 246.4 252 247.1 241.1 239.8 235.9 235.4 246.1 252.1 256 260 263.5 259.9 254.8 252.9 251.5 238.7 237.1 244 252.2 255 256.9 259.3 262.6 261.8 263.5 268.6 271.7 280.3 292.6 280.7 269 264.4 260.6 255.4 246.4 237.9 235.7 235.1 235.6 234.5 234.2 235.8 237.2 239.3 248 252.4 248 250 240.9 219 199.5 196 196 196 196 196 196 196 196 196 196 196 196 196 196 196 196 196 196 196 196 196 196 196 196 196 196 196 196 196 196
1.2 1.8 1.8 1.2 1.2 1.2 1.2 1.2 1.1 1.3 1.2 1.2 1.2 0.5 0.6 1.2 1.2 1.1 1.4 1.2 1.2 1 2 2.7 2 1.7 2.4 1.5 2.1 1.9 2.1 1.8 1.7 1.7 2 2.3 2.6 2.8 3.4 3.2 3.3 3.7 4.6 16.4 33.2 47.7 58 64.7 74.2 84.6 91.1 98.6 102 100.8 98.8 97.3 81.7 76.7 76.4 77 79.6 77.3 76.1 68.7 58 74.9 80.9 85.3 104.2 123 137.5 148.7 158.6 161.6 163.7 163.9 164.9 172.2 173.5 169.5 155.7 146.5 139.8 143.9 166 186.2 198.4 213.2 234.7 250.3 258.4 264.9 266.9 258.8 250 234.5 223.4 207.7 204.9 207.7 211 211.1 209.9 212.9 215 214 213.2 213 212.9 212.9 213.1 211.7 212.3 213.5 215.2 216.1 221.9 245.2 257.3 260.5 258.7 252.4 248.5 242.3 235.8 241.2 251.9 257.7 264.6 262.4 258.1 259.3 254.8 253.9 239.3 237.5 249.9 263.7 265 272.3 275.9 279.3 281.5 281.7 287.2 289.2 292.8 302 300.5 288.9 280.3 278.7 274.9 259.2 250 249.2 248.6 248.3 248.9 248.7 244 244.6 248.3 257.6 259.3 256.1 254.4 241.5 224.8 220.5 198.6 196.4 196 196 196 196 196 196 196 196 196 196 196 196 196 196 196 196 196 196 196 196 196 196 196 196 196 196 196 196
1.2 1.2 1.2 1.2 1.2 1.2 1.2 1.8 1.8 1.8 1.2 1.2 1.2 0.8 0.8 1.2 1.2 1.1 1.2 1.2 1.2 1.3 2.3 2.5 1.7 1 0.6 2 2.9 1.7 1.5 1.6 1.8 2.3 2.6 2.9 2.9 2.9 3.8 4.7 11.7 13.8 13.5 25.3 43.8 54.1 63 73.7 83.7 92.5 98.4 102.8 105.7 101.8 101.3 103.8 85.2 80.2 78.1 77.1 79 89.4 87.1 62.5 70.4 78.2 80.1 94.9 105.7 125.8 142.8 156.4 164.4 164.4 170 171.9 178.4 181.5 180.4 179.1 166.9 162.6 161 149.6 147.3 168.4 180.8 200.3 228 245.8 258.1 266.6 261.7 252.9 242.1 225.3 212.3 198 209 205.9 212.6 215.1 214.4 211.7 215.4 214.5 213.1 213 212.9 213.7 216.2 215.1 213.1 215.1 216.3 219.9 240.3 256.2 267.7 268.9 268.7 264.9 250.3 248.6 242.3 242.4 247 253.5 260.2 254 254 252.6 249.5 247 242.8 245.5 258.7 272.6 283.5 299 307.4 301.5 303.3 303.6 306.2 306.6 305.8 312.4 313.1 308.9 293.4 294 292.1 276.5 264.2 262.6 260.1 261.6 259 259 254.2 254.8 254.1 262.2 265.7 263.9 255.9 245.3 235 226.8 214.2 203.6 199.1 196 196 196 196 196 196 196 196 196 196 196 196 196 196 196 196 196 196 196 196 196 196 196 196 196 196 196
1.2 1.2 1.2 1.2 1.2 1.2 1.8 1.8 1.8 1.8 1.2 1.2 1.2 1.2 1.2 1.2 1.3 1.5 1.7 1.2 1.2 1.5 2.6 2.2 1.5 0.7 0.8 1.8 2.2 2.3 2.4 2.5 2.6 2.9 3 3 2.9 2.9 3.9 6.2 13.3 20.7 16.6 33.6 47.4 65.7 74.3 83.4 92.6 97.8 102.4 110.6 108.8 102.1 110.8 104.9 87.4 83.5 81.1 82.5 89.6 91.6 72.5 63.3 73.2 77.7 84.8 103 111.3 129.1 146.2 160.9 175.6 180.7 181.7 182.3 187.5 189.1 186.3 187.4 187.1 181.8 177.6 162.1 160.9 155.2 169.3 193.2 225.4 241.9 254.6 260.3 255.2 244.6 230.5 216.2 193.2 210 210 209.1 213.4 215.5 217.6 214.1 214.4 213 213.1 214.2 215.3 215.3 218.4 212.9 214 215.8 220.9 228.2 251.5 267.9 278.4 276.8 273.1 268.2 257.4 257.4 255.4 246.1 249.4 254.6 257.2 257.8 259.1 256.9 253.2 255.4 254.6 251.5 273.9 288.8 310.9 319 323.9 328.7 322.9 323.4 322.9 323.3 321.9 317.6 323.4 322.8 310.2 302.6 299.9 288.4 280.8 272.9 272.1 268.1 266.2 265.7 266.6 264.6 260.2 264.5 267.9 269.1 259.6 248.7 241.2 231.5 219.9 209.4 203.7 196 196 196 196 196 196 196 196 196 196 196 196 196 196 196 196 196 196 196 196 196 196 196 196 196 196 196
1.2 1.2 1.2 1.2 1.2 1.2 1.2 1.8 1.8 1.7 1.2 1.2 1.2 1.1 1.3 1.6 1.8 1.9 2.4 2 3.4 1.9 2.8 1.9 1.1 0.3 2.1 2.2 2.3 2.4 2.5 2.6 2.8 2.9 3 3 3 3 4 7.2 15.5 26.5 23.4 41.6 65.8 74.7 81.7 89.9 97.4 102.4 108 112.6 109.6 97.6 110.4 100.4 90.1 88.9 83.7 90.2 84.4 79.9 54.6 69.9 73.6 78.9 89.8 110.1 122.8 132.2 146.8 168.4 181.7 186.4 186.4 191.3 196.5 190.6 189.5 192.4 196.9 192.3 198.8 184.3 175.8 181.7 170.5 174.6 198.9 228 241 254.6 244.8 231 218.4 195.9 194.5 214.6 211.3 211.7 215.7 215.5 214 213 211.3 212.2 215.1 216.2 218.7 216.2 218.4 213.5 214.5 219.5 229.1 238.7 263.5 278.1 288.7 287.5 284 276.4 269.7 261.8 267.6 258.2 259.3 261.7 262.1 259.1 258.4 260.4 266.5 267.8 270.6 270 296.4 312.3 329.7 332.3 333.9 339.1 338.2 342.7 339.3 340.5 338.3 326.6 333.5 340.7 327 316.8 308.4 303.7 294.1 285.6 281.5 276.2 278.1 274.1 273.8 273.3 265.1 266.5 271.8 266.4 260.3 253 243.9 236.3 222.3 211.3 203.9 197.4 196 196 196 196 196 196 196 196 196 196 196 196 196 196 196 196 196 196 196 196 196 196 196 196 196 196
1.2 1.2 1.2 1.2 1.2 1.2 1.2 1.2 1.2 1.2 1.2 1.5 1.4 1.4 1.7 2 2.2 2.5 2.6 1.2 2.1 1.8 1.8 2.1 1 2.1 2.3 2.2 2.3 2.3 2.4 2.4 2.6 2.7 2.9 3 3 3 5.3 13.3 20.6 28.1 36 58.4 73.5 80.9 86.5 94.6 100.8 108.6 113.9 116.2 113.3 96.4 102.3 99.7 90.7 88.8 86.6 89.4 78.6 56.7 67.4 74.4 79.4 82.6 92.9 113.9 132.3 140.9 156.5 174.3 181 185.4 189.5 191.2 191.8 191.6 192.8 196.7 199.5 202.7 207.4 202.4 204.3 202.5 194.1 180.3 172.6 195.6 217.4 229.6 226.8 211.9 189.8 186 193.8 209.5 210.6 208.2 210.1 211.1 211.6 210.8 212.9 219.1 221.4 219 223.1 221.5 213.2 213.7 218.2 227.2 238.7 251.1 272.6 286 293.3 293.1 289.1 288.8 285.4 273.3 274.2 271.5 265.1 262.5 263.6 262.5 265.6 270.7 275.8 280.2 283.7 286.4 301.2 327.4 341.5 344.7 344.9 349.4 359 365.2 358.4 356.5 361.6 347.6 343.8 352 342.4 326.1 320.2 314.7 312.5 304.9 292.6 290.4 287 283.6 280.5 282.4 268 261.9 270.3 265.9 258.5 253.4 246 237.6 227.1 213.3 206.3 198.7 196 196 196 196 196 196 196 196 196 196 196 196 196 196 196 196 196 196 196 196 196 196 196 196 196 196
1.2 1.2 1.2 1.2 0.7 2.1 1.3 1.2 1.2 1.2 1.6 1.3 1.3 1.5 1.8 2.1 2.4 2.7 2.5 2.1 1.2 0.6 1 1.4 0.9 1.3 2.1 2.2 2.2 2.3 2.3 2.4 2.4 2.5 2.7 2.9 3 4.5 8.2 26.1 21.8 27.6 47.1 69.3 78.4 82.8 88.4 97 105.8 114.2 120.2 119.3 109 91.8 93.5 96.4 90.6 83 88.4 90.5 67.8 54.3 72.7 78.3 85 86 99.5 122.9 139.1 152.3 166.9 181.7 184.3 186.7 188.7 192.2 198.5 199.5 200.1 202.3 203.5 204.8 210.2 214.7 218.4 219.4 214 205.8 192.7 176.3 186.2 194.8 196.5 189.6 182.5 182.6 195.6 203 207.4 209.2 208.9 211.4 209 211.5 217.7 219.7 221.8 222.5 224.1 216.3 213.9 216 220.3 232.4 246.9 266.4 284.1 294.7 299.8 299.3 297.2 299.4 295.9 287.4 280.6 281.6 269.7 265.6 272 276.6 282.4 285.1 290.1 291.6 297.9 303.6 312.6 334.1 351.8 354.4 358.6 361.9 368.3 374.4 369.7 373.9 377 368.9 354.3 361 357.2 340.3 330.2 327.8 326.3 319.8 304.4 295.3 295.5 291.2 285.4 282.5 273.9 262.7 262 259.3 255.8 251 244.6 238.3 229.2 215.6 205.4 199.4 196 196.5 196 196 196 196 196 196 196 196 196 196 196 196 196 196 196 196 196 196 196 196 196 196 196 196
1.2 1.2 1.2 1.2 1.3 2.3 2.1 1.5 1.5 1 1.4 1.2 1.2 1.5 1.7 2 2.3 2.5 2.4 1.2 1.2 0.2 0.2 0.2 0.2 1.9 1.6 2.1 2.2 2.2 2.3 2.3 2.5 2.6 4.2 2.9 4.1 15 29.8 37.4 27.3 37.7 60.4 72.8 80 84.5 90.8 105.2 114.5 122.2 123.2 115.8 94.6 86.4 90.5 91 89.8 85.8 89.2 75.9 52.8 67.7 74.8 81.7 82.8 88.8 107.9 132 149.5 165.3 177.6 184.6 187.4 193.5 196.4 199.3 206.8 208.7 211.9 214.8 215.5 216.1 224.4 227.7 231.9 234.9 230.7 224.6 216.3 204.3 182.3 180 183 181 181.4 187.9 203.4 201.4 204.1 208.4 207.1 209.9 209.4 215.9 219 220.6 224 227.9 219.5 214.9 216.9 219.9 221.1 231.3 254.5 276.4 293.4 305 306.4 306.4 310.1 308 307 304.1 289.7 277.8 272.6 270.2 282.7 287.8 293.2 295.2 300.3 302.6 310.6 316.1 322 345.2 362 368.8 372.4 371.8 376.8 385.2 379.3 386 395.9 387.9 371.5 369 367.6 350.2 334.4 335.6 331.4 324.6 312.3 298.5 297 292.7 288.2 284.1 278.3 264.4 254.7 254.7 249.8 244.9 239.7 232.6 226.3 217 206.7 202.1 200.3 196 196 196 196 196 196 196 196 196 196 196 196 196 196 196 196 196 196 196 196 196 196 196 196 196
1.2 1.2 1.2 1.8 2.1 1.2 1.2 1.7 1.6 1.3 1.2 1.2 1.1 1.3 1.2 1.9 2.2 2.2 2.2 1.2 3 0.6 0.8 0.2 1.2 1.6 0.9 2.1 2.1 2.2 2.3 2.5 2.7 2.8 3.3 4.5 4.4 18.2 36.8 36.7 27.7 45.2 67.8 74.8 80.6 85.6 98.6 112.6 122.4 127.8 119 101.3 88.4 87 87.3 91 88.4 88 78.1 59 64.1 72.5 77.3 79.6 85.4 94.8 114.3 132.2 155.1 167.7 175.1 184.3 192.2 199.9 205.7 208.9 215.2 217.6 225 228 230.9 230.7 237 248.3 249.8 252 248.8 245.2 241 232.7 213 196.7 182.5 180.8 183 194 194.5 199.7 202.1 203.4 206.3 207.5 213.4 217 216.7 219.3 231.8 230 218 218 228.8 228.7 224.2 232 253.2 280.1 301.7 309.1 311.4 315 315.9 316 313.1 307.6 307.9 287 274.2 272.1 280 295.7 304.3 303.7 308.6 312.7 319.5 330.1 336.5 351.9 369.4 380.8 383.5 381.1 387.4 394.9 390.3 394.7 403.4 400.2 386.4 375.5 372.1 355 341.6 339.7 335 327.8 317.4 305.3 294.5 293.3 287.8 278.5 271.4 261.2 253.9 246.7 244.5 238.8 233.1 227.3 221.6 215.3 204.3 201.4 198 196 196 196 196 196 196 196 196 196 196 196 196 196 196 196 196 196 196 196 196 196 196 196 196 196
1.2 1.2 1.2 1.8 1.2 1.2 1.2 1.2 1.6 1.2 1 1.1 1 1.2 1.2 1.2 1.8 1.9 1.2 1.2 0.8 1.5 1.6 0.6 2.3 1.7 1.1 1.9 2.2 2.3 2.5 2.7 2.8 3 4.5 9.2 11.1 28.2 38.5 40.3 34.9 49.1 72.9 77.1 80.3 92.3 106.9 120.4 131.1 130.3 113.8 95.4 89.5 87.6 81.2 84.5 83.1 76.4 55.9 55.9 70.7 76.4 77.7 81.3 93.5 102.6 108.7 145.9 159.2 161.4 175.7 187.5 200.7 206.1 212.4 220.1 223 228.6 238.6 243.5 242.3 249.4 250.8 268.2 269.5 262.3 267.9 269.7 263.5 250.7 229.7 213.7 195 192.9 186.7 191.2 194.1 203.4 204.6 206.2 208.1 209.1 211.1 213.3 217.3 227.4 229.1 221.5 217.6 226.7 233.3 233.6 232.4 242.4 258.2 282 298.3 307.6 315.6 320.1 319.5 316.8 312.2 314.2 313.5 299 285.8 278.3 281.8 303.6 311.6 313.4 313.2 321.9 332.3 341.5 352.5 350.7 367.5 391.1 393 391.7 398 404.6 397.7 402.7 409.8 406.8 393.6 383.6 380.4 363.5 343.7 338.5 336.5 324.9 314.5 305.8 296.6 290.8 284.3 276.6 268.2 264.4 250.5 239.3 238 232.6 226.3 221.4 216.4 209.9 201.6 198.5 196 196 196 196 196 196 196 196 196 196 196 196 196 196 196 196 196 196 196 196 196 196 196 196 196 199.7
1.2 1.2 1.2 1.2 1.2 1.8 1.5 1.2 1.8 1.2 1 1 1.2 1.2 1.2 1.2 1.2 1.2 1.2 1.1 1.6 2.2 1.9 1.6 2.4 2 2.2 2.4 2.6 2.5 2.7 2.9 3 3.4 9.7 12 22.9 38.2 40 39.6 42.3 54.1 70.8 73.6 84.9 99.4 112.1 129.3 138.3 122.1 108 91.4 86.9 82.9 81.4 77.4 70.2 53.4 52.6 62.9 68.8 72.5 80.7 84.2 100.6 105.7 118 149 159.4 165.4 178.3 193.7 210.8 215 219.7 229.1 234.2 242.4 251.7 258.4 262.8 267.6 272.1 285.5 290.2 283.3 283.8 288.3 276.2 258.2 234.7 217.9 213.5 212.3 200.2 193.6 202.2 208.9 208.9 211.4 211.1 212.7 213.5 216 223.8 234.7 223.8 218.5 224 234.7 237 240.2 244 259.7 277.4 282.1 291.6 298 307.9 315.8 318.3 317.5 318.2 317.8 319.9 306.5 293.1 285.6 284.3 300.6 319.3 319 322.2 330.1 337.6 346.8 357.7 358.3 364.8 395.3 405 403.2 407.8 410.6 403.6 407.2 409.8 412.1 401.7 397.3 382.6 368.9 341.3 330.5 329.3 317.3 308.5 304 297.9 289.9 277 270.7 265.3 260.4 246.5 237.4 230.9 225.9 222.6 215.7 210.7 205.6 202.5 199.9 196 196 196 196 196 196 196 196 196 196 196 196 196 196 196 196 196 196 196 196 196 196 196 196 196 200.4
1.2 1.2 1.9 2.2 2.4 2 1.2 1.2 1.2 1.2 1 1 1.2 1.8 1.8 1.7 1.2 1.2 1.1 1.4 1.8 2.2 2.7 1.7 3.1 2.5 2.6 2.8 3 3.3 2.2 3.1 3.2 9.3 17.1 19.3 30.2 40.9 46.2 49.5 52 56.2 59.7 67 80.1 101.5 120 119.4 122 119 100.2 87.2 83.8 84.2 74.8 64.8 58.5 48.8 60.3 66.1 70.3 79.9 87.3 97.6 109.1 112.4 128.7 153.4 160.9 170.7 189 202.7 217 223.8 229 238.3 248.5 261.9 270 275.9 286.3 291.4 303.9 306.2 310.1 298.7 296.4 297.9 276.9 258.9 237.7 226.1 226.2 222 216.3 210.6 206.8 217.8 216.4 221.2 218.5 216.3 216.3 221 228.6 224.5 219.9 221.4 229.2 238.7 245.4 256.9 268.5 278.5 289.9 293.9 298.9 307.6 316.2 321.8 324.8 323.3 322.4 324.4 321.8 314.3 301.2 290.7 287.5 297.6 309.4 324.6 333.5 338.8 344.3 349.4 355.9 371.8 368.5 382.8 407.1 415.1 416.3 414.2 412.6 414.8 415.3 420.2 410.7 403.8 380.5 356.5 335.2 324.4 315.3 307.9 302.6 299.8 298 287.7 275 268.8 260.9 254 248.2 234.4 225.7 222.4 220.3 213.9 207.2 201.9 198.5 196.2 196 196 196 196 196 196 196 196 196 196 196 196 196 196 196 196 196 196 196 196 196 196 196 196 196 196
1.2 1.2 2.1 2.4 2.4 2.2 1.2 1.4 1.3 0.8 0.8 0.9 1.2 1.5 1.8 1.8 2.2 1.5 1.5 1.7 2.1 2.5 2.9 2.2 3.3 2.7 2.8 3.1 3.3 3.5 2.2 2.5 7.7 14.8 23 29 38.9 45.5 50.6 52.4 54.3 55.5 61.2 71.4 88.4 104.5 114.9 123.5 131.6 115.9 95 78.6 71.6 74.6 68.5 61.6 47.5 63.5 65 73 80.1 91.6 100.5 111.5 118.5 129.7 140.1 150.4 159.9 174.1 197.9 209.3 216.7 230.8 233.8 243.5 264.3 279.3 290.5 294.5 305.5 311.6 318.8 321.3 321.4 309.3 298.5 291.5 273.1 254.6 235.5 239.8 235.2 232.5 226.8 224.4 222.1 218.3 222.3 229.5 225.6 223.6 224.7 229.5 223.7 221.7 223 226.8 236.3 249.7 262.3 275.4 288.3 291.9 299 305.5 309.9 320.1 328.2 331.9 334.4 332.3 332.1 331.3 326.6 320.9 314 300.5 295 295.9 303.2 315.6 340.5 346.3 352.1 357.4 361 378.7 374.7 384.5 395.1 408.2 414.2 414.5 418.2 425.6 424.4 419.6 411.6 390.6 368.5 346.7 331.5 319 310.3 304.2 298.7 296.5 291.1 282 273.6 266.5 258.3 252.3 244.8 232.2 223.3 219.6 216.7 212 207.6 202.6 197 196 196 196 196 196 196 196 196 196 196 196 196 196 196 196 196 196 196 196 196 196 196 196 196 196 196 196
1.2 1.2 2 2.2 2.3 1.2 1.2 1.5 1.2 1.2 1.2 1.2 1.2 1.5 1.8 4.7 1.4 2.2 2.1 2.7 2.4 2.8 1.4 2.7 3.1 3 2.8 3.1 3.4 3.9 3 6.2 15 23.2 30.4 37.6 44.3 50.6 55.1 56.2 56.5 60.9 68.4 79.7 96.2 113.8 125.1 132.8 135.7 103.2 85.1 67.9 63.2 68.5 66.7 48.2 57.6 66.3 73.6 80.8 92.9 101.6 115.2 123.7 132.9 135.3 145.6 155.2 164.9 181.3 199 216.5 224.5 232.9 237.1 256.4 276.9 295.2 308.5 309.5 316.2 322.2 327.2 325.7 315.1 312.3 301.2 293.2 271.7 257.2 242.7 247 243.8 233.5 236.2 238.7 235.5 235.4 231 239.9 233.1 232.9 237.1 234.7 224.6 223.8 226.5 236 252 268 279.9 291 302.7 305.8 310.8 319.1 325.3 334 343.1 345.5 344.4 348.7 343.4 334.7 335.1 328.6 319.2 309.6 302.3 298.8 299.8 309.4 326.6 343.6 351.2 360.1 369.1 385.2 388.7 380.6 389 403.9 412.4 419.1 423.7 428.9 425.4 414.8 401.1 380 361.8 342.7 326 313.4 307.3 301.4 294.6 291.7 286.7 279.7 273.6 267.1 258.5 249 240.1 229.4 222.2 218.8 212.9 208.9 205.2 201.2 196 196 196 196 196 196 196 196 196 196 196 196 196 196 196 196 196 196 196 196 196 196 196 196 196 196 196 196
1.2 1.2 1.2 1.9 1.2 1.2 2.6 1.8 1.2 1.8 1.2 1.2 1.8 1.8 3.1 2.1 1.7 1.7 2.9 2.8 2.8 2.4 2 3.1 3.5 3.3 3.1 3.1 3.3 3.9 8 13.5 20.6 32.6 39.1 43.2 49.2 55.2 58.7 61.4 62.6 69.5 76 87.9 101.7 121.8 135.9 140.6 130.1 93 76.4 62.2 67.5 70.5 58.1 45 61.3 72.3 81.8 92.7 113 111.6 122.4 134.4 139.6 130.8 144.5 158.8 169.7 185.7 199.5 217.6 228.7 231.7 246.7 272.3 292.1 307.5 321.3 322.8 325.7 329.2 330.2 324.5 317.6 316.7 302.3 286.3 273.4 264.1 250.2 253.4 249.7 240.5 249.2 250.8 248.7 250.6 252.6 241.3 244.2 247.3 246.9 236.1 231.1 236.5 242.7 245.3 258.8 279.6 292.8 305.8 315.2 318.5 324.3 335.9 346 353.5 362 361.3 361.5 364.1 360.3 343 345.3 334.5 322.5 314.7 308.7 302.4 299 303.5 320 334.1 346.8 365 376.7 387.3 390.4 383.2 390 408.2 420.3 424.8 425.4 426.6 419.2 407.6 390.1 371 355.5 333.9 318.9 309.7 304.7 300 293.3 289.8 288.8 283.5 275.9 267.6 259.2 250.9 240 231.5 223.8 218.8 214.8 205.3 202.3 198.8 196 196 196 196 196 196 196 196 196 196 196 196 196 196 196 196 196 196 196 196 196 196 196 196 196 196 196 196
2.3 2.2 1.2 1.2 1.2 2.6 2.5 1.8 1.2 1.2 2 1.8 2.9 1.1 1.5 2.6 1.7 2.8 3.3 3 3 1 3.2 3.3 3.5 3.4 3.3 3.2 6.5 9.9 16.1 19.7 27.4 38.2 47.1 49.6 53.8 59.9 62.1 64.7 66.3 74.6 84.1 94.9 112.4 132.4 141.7 145.3 101 84 61.3 65.4 72 61.2 43.6 52.5 68.3 80.1 91.6 103.9 117.8 120.5 131.8 144 143.7 140.2 153.7 158.5 172.8 186.6 198.7 213.5 226.8 235.4 249.4 280 303.3 319.5 329.9 331.5 332.9 332.4 332.2 327.9 323.3 321.7 304.2 288.7 276.1 264 259.2 256.5 255.1 254.7 259.7 262.7 265.1 266.9 275.1 266 254.4 260 253 248.2 244.1 249.2 256.7 261.7 264 280.6 290.3 310.2 323.7 325.3 334.7 346.5 363.6 373.7 383.4 381.1 379.8 381.4 375.7 359.8 352.2 340.4 328.1 321.4 311.7 302.7 300.2 299.1 312.1 330.2 340.2 356.7 369.6 384.7 389.9 392.1 391.5 403.6 417.6 421.2 423.2 420 409.2 395 376.7 360.5 346.8 329 318.1 309.6 303.5 300.1 293.5 288.9 287 285.5 280.8 274.2 263.7 254.6 242.3 232.2 225 218.2 211.7 205.4 201.9 197.2 196 196 196 196 196 196 196 196 196 196 196 196 196 196 196 196 196 196 196 196 196 196 196 196 196 196 196 196
2.3 2.4 1.5 0.8 2.4 2 2 1.2 1.2 1.2 1.7 2.9 1.1 1 1.1 1.3 2.3 3.8 3.6 3.2 2.2 1.9 2.3 3.1 3.3 3.6 6.6 9.6 14.3 18.1 23.3 26.9 37.2 48.6 55.6 58.1 60.5 64.2 63.6 66.7 69.4 77.6 89 107.4 124.9 141.9 148.7 118.4 88.5 67.9 58.5 68.9 65.8 43.9 50 62.7 77.4 91.7 101.7 113.1 122.4 129.9 141.4 148.8 147.5 147 162.7 166 179.1 186.5 201 213.5 228.1 243.7 266 278.4 308.2 327.6 337.8 335.8 333.6 332.6 336.2 330.8 328.6 321.3 308.9 290.1 279.1 268.2 266.7 259.8 262.5 263.9 268.9 272 275.7 280.7 293.1 284.3 274.7 263 260.9 264 261.3 263.5 268.7 275.2 277.4 278.7 291.8 304.4 320.5 331.3 342.3 356 374.6 382.7 390.7 387.8 388 389.2 385.7 375.3 358.5 345.9 337.3 328.2 317 305.8 303.9 300.8 303.5 323.5 331.9 344.1 361 374.1 384.8 393.3 396.7 400.1 405.7 410.7 413.5 411.3 395.1 380.4 367.1 351.8 338 326.9 320.3 309.3 303.3 298.5 294 291.8 287.3 286.4 283.2 277.1 266.4 257.9 247.5 236.1 227.1 220.1 210.7 205.2 203.7 197.9 196 196 196 196 196 196 196 196 196 196 196 196 196 196 196 196 196 196 196 196 196 196 196 196 196 196 196 196
2.3 2.4 2.1 1.2 1.2 1.2 1.2 1.2 1.7 3.1 1.5 1.4 0.8 1.3 1.3 2.2 3.6 4.1 3.3 2.9 1.8 2.3 2.6 3.7 7.3 10.3 13.3 16.3 21.9 25.7 33.3 35.6 46.5 58.9 66.6 66.9 67 65.9 65.2 67.5 70.1 85.6 99 124.5 133.5 141 123.8 93.7 69.2 49.1 60.5 59.2 47.3 48 61.2 73.9 86.5 103.4 109.2 121.4 132.5 141.6 152.8 160.1 157.5 157.8 166 173.5 185.6 196.2 208.8 218.4 231.5 245 258.5 293 311.7 326.7 337.1 340.6 332.7 332.7 340.7 336.9 332.7 322.2 303.9 292.5 278.8 274.8 272 261.1 269.3 274.4 277.2 280.8 286.3 292.3 302.6 300.1 289.5 278.6 281 282.3 279.8 276.8 286.4 291.7 291.1 288.8 297.6 316.8 324.2 337.9 347.1 363.6 378.8 389.7 396.2 395 395.2 395.6 391.6 377.8 360.9 352 344 335.4 326.2 315.3 308 305.1 304.1 312.3 327.6 333.4 344.9 360.9 373.9 384.9 390.8 392 392.2 395.6 399.1 397.3 381.7 372.3 366.8 354.7 341.3 331.6 322.8 312 301.9 299.3 297.7 295.5 288.7 286.6 284.7 280.1 272.9 258.9 250.5 238.5 229.5 219.8 208.9 203.9 201.4 197.4 196 196 196 196 196 196 196 196 196 196 196 196 196 196 196 196 196 196 196 196 196 196 196 196 196 196 196 196
2.3 2.1 1.8 1.2 2.4 2.7 1.9 1.7 2.4 1.5 1.4 1.5 1.8 1.8 2.2 2.7 3.2 3.3 3 1.6 3.1 4.3 5.6 6.8 10.5 16.9 19.9 23.3 29.5 34.5 43.4 44.3 54.9 65.3 70.9 71.5 69.1 68.1 69.4 74.4 81 93.5 113.6 137.1 137.2 127.7 96.8 66.7 47.2 49.1 58.6 49.1 40.6 58.9 70.6 87.4 102.9 113.9 118.4 133.8 141.9 153.7 163 169.8 168.7 165.4 179.1 180.1 194.2 206.2 215.8 224.7 228.8 244.2 255.5 286.6 308.5 322.6 340.3 338.4 332.7 333.1 342.6 342.1 332 320 305.9 298.9 284.8 279.9 276.8 270 278 281.6 285.6 290.7 295 302.1 307.5 308.3 286.7 302.5 303.9 297.6 292 296.9 305.8 309.3 307.4 306.7 316.5 333.4 338.5 347.7 359.6 376.4 384.2 397 401.2 401.8 402.2 402.3 398.9 380.9 363.7 356 349.5 343.8 336.7 324.2 314.7 309.8 308 307.6 318.6 326.9 336 353.2 365.6 375 384.3 387.2 387.1 390.7 394.6 392.6 380.9 373.4 367.2 356.7 344.4 335.7 325.4 312.5 302.3 304.2 300.6 298.5 291.1 287.3 284.2 281.5 277.5 260.7 251.2 241.1 231.7 221.7 211.2 204.5 200.8 196.3 196 196 196 196 196 196 196 196 196 196 196 196 196 196 196 196 196 196 196 196 196 196 196 196 196 196 196 196
1.2 1.8 1.8 1.2 1.2 1.8 1.8 1.6 1.3 1.6 1.8 2 2.5 2.7 2.7 2.7 3.3 3.2 2 2.6 4.7 7.4 8.6 9.9 12.6 19.1 25.5 30.5 37.3 43.7 49.9 53.9 64.5 70.9 76.4 75.8 73 72.3 75.9 81.4 88.4 102 122.4 130.9 129.1 101.6 75.6 48.1 38.4 44.8 45.6 37.2 57.4 66.6 83.6 102.4 118 128.2 137.4 149.6 154.4 166 172.6 178.6 175.4 177.4 183 189.2 203.8 216 225.1 233.1 237 246.6 260.2 270.9 286.6 305.2 320.8 323.1 321.3 327.6 341.1 347.1 335.2 321.5 323.2 310.4 297.7 286.9 281.2 284.3 286.8 289.3 293.9 298.6 303.3 311.3 316.8 304.3 301.9 314.9 320 311.7 306.6 307.4 324.1 327.4 318.9 323.7 333.6 348.9 354.9 365.3 388.8 397.3 399.9 404.9 415.9 415.9 412.7 410.2 408.2 383.9 369.8 365.9 363.7 355.5 345.6 334.2 320.1 313.8 314.2 310.9 313.8 321.9 327.8 339.1 353.7 363.8 374.9 383.7 388.9 389.4 393.4 388.7 381.2 375.1 367.9 357.3 344.3 335.8 327.7 316 304 311 303.9 304.6 301.8 290.3 285.7 280.3 273.5 264.8 252 242.3 232.3 219.7 209.5 204.6 200.8 196.4 196 196 196 196 196 196 196 196 196 196 196 196 196 196 196 196 196 196 196 196 196 196 196 196 196 196 196 196
1.2 1.8 1.8 1.8 1.2 1.8 2.1 3.6 1.3 2 2.5 2 3.4 3.1 2.9 2.9 3 3.2 2.2 3.6 5.7 7.7 11.7 12.9 14.8 21.2 27.7 39.1 46.5 53 57.5 62.2 71.2 75.3 81 80.1 77.1 78.8 82.6 86.8 103.5 109.2 142.1 123.2 99.1 69.4 47.2 33.6 39.2 38.8 36 59.2 67 75.5 99 121.1 135 146.3 153.8 163.1 166.3 173.4 178.5 184.2 181.9 184.1 190.8 199.7 211.9 228.5 235.2 240.6 244.2 252.5 268.4 278.3 288.7 298.8 305.4 307.1 311.3 319.8 326.8 335.4 333.4 330.9 330.5 316.4 303.1 296.2 291.2 293.9 296.3 297.2 302.5 306 310 323.3 316.4 308 316 322.2 324.9 322 323.4 319.8 337 330.2 330.4 341 349.9 360.7 366.8 389.2 411.5 414.5 412.3 412 422.3 425 422.2 420.6 412.3 392.2 383.3 383 372.6 364.7 351.9 340.7 325.7 321.8 320.4 319.4 316.5 314 317.2 331 343.7 358.6 373.8 389.5 398.2 396.4 395.6 389.5 383.2 377 366.9 356.6 343.3 335.4 328.8 320 309.7 312.6 311 309 305 295.9 287.6 279.3 269.9 258.3 252.4 238.8 229.3 219.1 210.3 203.8 200.8 196.4 196 196 196 196 196 196 196 196 196 196 196 196 196 196 196 196 196 196 196 196 196 196 196 196 196 196 196 196
1.2 1.8 1.8 1.8 1.2 1.2 1.3 1.2 1.3 1.9 3.1 4.6 6.6 3 3.1 3.1 3.2 2.2 3.1 3.7 6.7 8.7 10.8 16 17.2 23.3 38.9 49.2 53.7 58.9 63.7 68.2 75.5 80.2 83.5 81.4 81.7 81.6 88.1 103.8 114 131.9 130.4 93.7 66.1 44.6 32.3 33.3 33.7 37.6 54.3 71.6 76.1 89.9 117.9 139.6 152.8 163.5 172.1 176.3 176.2 184.1 189.1 191.4 187.9 191.1 195.6 208.4 220.9 233.5 244.5 248 249.9 259.6 274.3 286.8 299 304.5 313.3 315.2 318.2 321 321.9 326.5 326.9 335.3 333.5 317.3 305.1 303.2 302.3 302.7 307.6 306.1 311.6 311.4 315.5 323.3 310.8 332.5 337.1 337.3 333.2 351.6 350.4 335.1 334.8 336.1 343 355.1 362.4 371.4 376.4 400.2 431.3 434.9 433.4 427 426.8 431.5 433.3 428.7 415.5 406.1 401.3 394.7 387.7 373.3 361.9 348.3 335.5 328 325.1 327.1 323.2 323.1 328.2 328.3 340.1 363.3 375.8 391.2 406.4 404.2 399.7 392.2 384.8 378.6 369.9 354.8 343.1 336.3 329.1 325.6 320 315 315.6 312.1 304.7 298.4 288.7 278.7 270.2 261.2 252 244.4 234.4 223.6 213.2 205.7 200 196 196 196 196 196.1 196 197.5 196 196 196 196 196 196 196 196 196 196 196 196 196 196 196 196 196 196 196 196 196 196
1.2 1.2 1.2 1.2 1.2 0.8 2.4 1 1 2.6 4.8 6.9 6.2 2.9 3.1 3.2 2 2.1 2.5 2.8 3.8 4.8 10.1 13.8 20.3 31.7 46.2 51.4 57.8 62.9 69.1 73.7 76.4 81.8 83.5 83.5 84.3 92.1 93.4 116.5 119.3 122.7 104 70.8 42.2 30.8 31.5 30.3 43.4 59.2 69.3 85.6 86.1 100.7 130.5 153.7 167.1 176.3 183.9 184.5 186.5 189.3 196.4 193.7 192.8 199.4 201.3 217.1 229 238.4 247.6 251.5 257.9 268 282 292.6 308.9 314.3 325 326.2 324.6 323 327.5 323.4 327.1 336.1 334.3 318.3 313.7 309.9 309.6 311.2 314.1 313.8 316.3 320.2 321.9 310.2 327.4 340.5 346.1 346.7 351.1 361.7 353 344.9 340.9 342.8 355 365.1 374.3 380.7 393.4 414.2 431.1 439.8 439.6 438.4 434.7 437.8 442 432.6 430.9 427.5 419.8 409.5 399.2 389.2 374.2 359.2 340.7 336.3 333.2 330.2 331.9 331.2 333.3 330.9 337.3 359.3 381.5 396.2 407.9 411.9 405.1 394.1 387.8 380.4 361.7 351.1 340.8 334.7 331.7 330.2 328.1 320.2 321.9 320.8 311.5 304.7 291.2 277 268.1 258.5 250 243.3 236.8 228.1 217.8 211.8 204.8 196 196 196 196 196 196 196.5 196 196 196 196 196 196 196 196 196 196 196 196 196 196 196 196 196 196 196 196 196 196
1.2 1.2 1.2 1.1 0.9 1.4 1.1 2.2 1.3 4.5 6.3 6.5 3.8 3.2 2.8 3.1 2 2.8 2.6 2.6 3.1 4.2 5.2 6.2 18.5 30.4 41 49.4 53.4 55.7 69.8 71 74.9 85.8 84.5 84.8 86.5 90 118.9 113.9 107.4 103.5 57.8 38.5 28.6 29.7 31.7 37.6 51.2 68.7 85.6 97.2 98.4 110 142.5 166.8 179.7 186.8 193 191.5 195.1 195 201.4 193.5 198.7 204.9 208.2 221.4 231.2 240.6 247.6 255.9 265.1 272.9 290 300.5 313.9 328.8 332.9 330.7 328.5 334.1 327.5 325.1 327.3 336.1 329.9 324.1 322.1 317 319.6 321.8 329.9 325.3 324.7 328.7 324 323.6 339.4 350.4 357.9 355.8 358.2 360 360.1 358.2 353.1 352.4 365.8 374.3 387.2 389.1 403.1 423.3 431.9 443.3 444.6 446.6 447.1 443.6 447 455.6 452.7 447.4 443.9 427.7 414.3 401.9 388.4 367.9 355.4 345.6 339.7 336.5 338 334.5 335.7 338 340.3 373 389.6 401 413.2 419.2 412.3 396.9 388.2 367.2 357.4 353.8 351.5 342.7 346.5 344.5 338.9 334.9 329.5 330.4 316.9 309.7 298 278.1 266.4 256.7 247.8 241.1 235.2 229.5 220.1 210.1 200.7 196 196 196 196 196 196 198.2 196.7 196 196 196 196 196 196 196 196 196 196 196 196 196 196 196 196 196 196 196 196 196
1.2 2 1.2 1.7 1.6 1.6 0.5 0.7 2.6 5.5 4.8 4.4 2.6 2.3 3.2 1.2 2.6 2.9 2.9 2.7 2.6 3.5 5.5 15.4 33.3 38.4 43.6 50 54.4 53 53.4 61.4 77.2 85.5 86.1 84.9 89.8 99.1 101.1 95.1 77.3 51.1 32.4 25.8 24.8 27.2 37 56.2 64 81 97.7 110.6 110.2 114.2 141.7 170.1 187.8 194.6 199.9 199.4 198.7 203.1 203.4 201.1 203 211.7 213.4 227.3 236.4 241.5 249.7 260.6 274.4 280.1 295.5 310.2 322.8 336.7 338.1 339.4 329.9 328.7 327.1 325.6 327.9 330.9 329.2 333.1 334.6 326.4 326.6 331.9 338.1 335.7 334.5 332.3 324 341.3 352.7 360.8 361.9 363.9 364.1 367 370.4 368.3 369.9 359.4 372.8 386.3 396.9 395.9 413.4 433.4 435.4 444.8 451.7 453.9 453.6 454.8 457.4 465.7 468.2 469.6 459.2 444.2 431.1 413.8 402.4 384.3 370.1 359.3 348.4 344.5 342.4 340.9 339.5 347.4 355.7 377.6 386.2 394.3 402.5 410.9 410.9 401.4 386.9 380.5 380.8 384.7 378.2 366.4 358.6 361.5 354.5 353.3 334.7 333.3 318.2 311.7 295.2 281.8 266.3 255.7 251.3 240.5 233.8 224.6 215.6 206.5 198.3 196.2 196 196 196 196 198 201 198.2 196 196 196 196 196 196 196 196 196 196 196 196 196 196 196 196 196 196 196 196 196
3 2.4 2.3 1.8 1.6 0.6 0.7 1.4 3.6 3.6 3.1 2.3 1.9 2.5 2.9 1.7 2.3 2.8 2.7 2.6 2.9 5.2 7.2 25.5 44.5 52.4 53 58.8 56.8 55 53 56.7 62.4 82.5 88.8 89.5 95 103 105.5 90 50.8 29.4 24.3 25.8 25.4 31.1 53.1 64.5 78.9 96 115.4 122 116.5 121 136.2 161.6 191.9 202.1 198.5 202.2 200.3 209.4 208.5 210 207.9 218.3 218.8 231.2 240.1 245.1 253.7 265 280.1 289.1 299.8 320.3 330.2 342 347.6 344.7 333.3 329 326.8 326.5 333.3 331.5 330 343.4 344.8 336 335.5 342 345.3 344.7 344.8 335.4 338.2 350.8 360.9 364.6 366.2 368.8 366.4 375.3 380.7 384.2 383.8 383.3 379.4 395 402.3 410.9 424.1 437.7 439.7 446.2 455.4 459.7 463.4 459.4 462.4 474.4 478.1 480.6 471.9 455.1 442.9 428.1 417.6 393.3 382.5 373.6 360.1 350.6 345.7 344.7 344 351.6 361.4 370.4 376.8 382 389.4 401.7 413.5 409.3 408.7 418.8 413 402.6 400 385.5 378.1 374.8 364.5 366.9 347 330.2 318.3 313.5 296.4 282.1 270.9 255.3 246.4 240.8 231.3 223.5 216.2 208.4 202.9 199.3 196 196 197.2 201.4 203.5 203.9 202.8 197.4 197.5 198.7 197.5 196 196 196 196 196 196 196 196 196 196 196 196 196 196 196 196 196
1.2 1.2 1.1 1.6 2.3 0.7 0.8 3.6 3.5 2.7 2.3 2 1.8 2.9 1.4 1.4 2.1 2.6 2.5 2.4 4.2 6.4 12.5 45 56 66.8 68.1 59.6 59.6 57.7 55.6 51.1 62.9 83.1 89.2 93.6 98.2 106.6 87.5 47 27.2 22.4 23.3 24.1 25 47 63.2 72.7 94.7 108.5 124 128.6 122.8 130 145.1 160.9 189.3 197.3 196.4 200.9 200.9 212.9 216.6 217.7 218.6 222.4 222.5 237.5 242.4 247.6 258 268.4 282.1 295.3 304.7 318.4 332.5 348.3 354.8 351.4 344.8 333.6 327.4 331.5 339.3 339.6 342.7 353.8 355.2 347.4 343.5 351 349.6 351.3 348.9 340.8 359.3 361.4 369.2 368.4 370.2 371.4 371.9 380.6 390.4 396 402.7 398.5 392.4 395.6 409.5 422.9 431.2 443.2 443.9 451 459.9 465.4 468.4 470.8 482.3 481.5 485.7 488.6 482.6 467.1 452.9 437.3 424.9 403.7 392.1 380.4 368.2 360.1 352.3 347.4 352.2 356.4 360.4 365.7 371.6 381.8 393.3 416.3 425 425.8 425 447.1 436.9 429.1 415.6 406.6 394.9 385 378.7 369.5 349.1 335.8 324.9 314 300.6 292.5 284.5 259 247.2 239.4 233.5 225.2 218.1 211.9 207.8 204 200.9 198.8 200.6 204.9 204.4 202.4 199.9 198.6 202.3 202.5 198.8 196 196 196 196 196 196 196 196 196 196 196 196 196 196 196 196 196
1.2 1.2 1.2 1.2 2.2 3.5 1.4 7.6 0.7 1.5 1.9 1.6 1.2 1.6 1.9 1.5 1.8 2.4 2.3 3.2 5.5 14.5 33 51.6 60.3 67.9 69.9 63.4 62.5 60.4 56.1 53.4 63.8 75 82.2 88.8 101.4 78.7 40.2 22.3 21.1 22.1 22.3 25.4 36 54.7 66.5 74.2 98.1 116.8 125 134.6 130.6 140.8 151.4 169.6 178.2 184.4 196.5 202.8 207.8 216.7 221.2 226.2 224.9 233.7 229.5 243.4 247.4 253.6 264.2 274 286.1 300.5 306.7 319.3 334.2 348.6 354 359 363.5 350.4 334.3 336.3 338.9 350.3 357.3 372.4 366.1 358.7 349.3 359.9 353.6 356.7 354.1 351.6 370.7 375.6 371.4 374.8 374.3 377.7 378.6 384 395.2 406.1 414.3 415 410.4 401.9 416.5 428.9 443.2 446.1 448.4 456.4 463.4 468.8 468.5 487.5 493.5 492.6 490.6 496.8 492.2 482.7 467.4 450.2 435.3 415.7 400.4 389.6 380.8 371.9 366.5 358.8 359.4 359.2 359 367.5 377 385.2 403.1 423.6 440.3 445 429.9 448.3 452.1 437.3 428.1 422.3 406.6 391.6 381.9 367.8 354.4 336.4 329.9 316.4 309.6 305.3 299.4 271 251 242.9 235.5 228.8 223.4 216.8 211.8 207.9 204.8 202.7 202.5 205.9 205.7 203.6 208.1 202.3 201.1 201.8 197.4 196 196 196 196 196 196 196 196 196 196 196 196 196 196 196 196 196
1.8 1.2 1.2 1.2 1.9 1.2 1.1 3.2 0.8 1 1.5 1.7 3 2.4 2.3 2.5 1.7 2.2 2.3 5.8 16.6 27.4 46 58.4 63.4 67.5 72.9 71.5 68.9 61.6 59.4 57.2 53.8 66.4 78.3 86.2 72.4 36.8 19.7 19.4 20.8 21.3 23.3 32.5 41.2 61.5 78.9 87 97.2 113.2 123.1 133.9 137.9 153.1 165.7 178.1 188.7 191.7 198.9 203 215.1 220.9 228.3 234.4 234.2 239 242 250.1 255.2 261.9 272.1 281.5 296.5 304 307.7 318.6 331.5 342.9 356.5 369.8 374.8 366.4 348.8 338.4 345.3 363 369.3 383.2 378.5 369.2 360.9 365.7 359.3 355.9 354.5 367.3 374.7 375.6 373.4 379.8 378.7 383.2 386.4 390.8 395.2 415.3 424.4 429.6 423.9 417.2 423.7 432.4 446.8 451.1 454.8 456.9 464.1 460.7 480.9 498 503.4 502.8 498.5 502.4 499.9 497.3 484.4 464.3 449 431.2 413.5 405.7 398.7 386.7 377.7 374.9 366.6 361.7 364.8 372.8 384.7 396.7 429 446.2 463.3 460.5 444.6 440.6 451 442.2 434.1 430.3 417.3 398.9 382 377 372.4 349 344 328.9 319.2 315.5 296.9 273.2 255.7 247.2 240.2 238.9 230.3 220.3 216.7 212 208.2 205.7 205.2 209.6 211.1 207.9 207.7 205.1 205.6 204.1 203.1 199.3 196 196 196 196 196 196 196 196 196 196 196 196 196 196 196 196
1.6 0.3 1.2 1.2 1.2 1.2 4.1 1.2 1.8 1 1.8 2.6 2.9 2.7 2.5 2.2 2.7 2 7.8 18.6 29.6 40.6 56.1 65.4 66.2 70.5 75 77 73 69.7 65.1 59.9 55.7 56.4 70.7 64.3 31.8 16.8 19 18.2 19.6 21.4 34.4 34.1 60.8 69.5 88.8 96.5 110.1 115.6 125 131.2 147.5 162.7 176.1 188.3 199.4 204.7 209.7 206.9 220.2 229.3 238.4 242.8 241 248 254.1 259.6 264.4 273.9 280.5 290.2 300.2 305.9 310.6 320 328.9 347.4 364.7 380.6 383.1 376.4 357.8 347.5 361.1 372.8 375.6 384.9 379.8 380.3 371.3 372.7 364.1 357.6 363.6 375.5 380.3 375.4 375.5 385 387.9 390.9 393.9 400.1 406.5 422 432.2 437.1 437 431.7 425.8 432.5 443.5 454.4 458.8 461.9 457.4 467.1 490.7 505.2 507.5 508.2 506 511.7 512.9 504 492.3 479.1 468.3 458.3 447.8 436.8 420.3 402.5 395 386.7 386.3 380.3 379.1 381.7 401.9 418.1 453.7 480.7 491.9 485.2 462.5 446.8 452.8 446.5 441.1 436 423.3 411 394.5 388.3 381.2 372.9 361.1 353.2 331 319.4 293.1 274.3 268.3 252.8 246 245.5 239.6 228.7 224 217.4 211.9 207.8 209.2 210 208.8 208.9 207.5 210.1 209.8 208.8 208.2 206.6 200.1 196 196 196 196 196 196 196 196 196 196 196 196 196 196 196
0.1 2.5 1.9 2.1 1.2 1.2 4.1 0.7 0.8 1.4 2.3 2.9 2.7 2.6 2.4 2.2 3.3 4.9 10 21.9 33.8 45.7 65.4 73.4 71.5 72.9 77.1 79.2 72.6 70.8 69.6 63.6 59.9 51.5 40.5 24.3 15.9 18.4 19.6 20.5 20.8 25.5 30.7 58.9 71.4 85.4 94.3 105.6 118.6 127.6 135.2 138.8 154.7 171.7 185.5 197.8 206.2 214.4 217.7 219.3 226.9 239.3 247.8 249.1 245 258.1 264 266.8 273.1 280.3 285.4 295 304.2 307.3 316.1 322.6 336.7 356.9 373.6 393.3 389.1 383.8 365.7 365.4 378.3 382.7 381 386.7 386.4 381.8 373.4 372.6 370.1 362.7 377 380.4 385.4 381.9 377.6 390.1 392.1 399.6 405.7 411.9 417.7 427.7 438 447.8 450.2 444.4 437.2 435.9 443.6 453.9 457.8 454.4 463.9 482.8 503.8 510.7 513.5 512 511.6 515.4 520.5 513.9 499.2 494.8 484.1 473.1 466.1 459.8 448.1 443.1 444 442.4 426.9 416.4 411.5 406.4 433.8 454.1 490.4 509.5 514.1 509.5 483.2 465.3 456.1 449.8 446.4 439 432.6 425 412.8 405.6 402.8 389.3 367.6 359.3 338.8 317.7 303.1 286.7 278.3 261.4 254.3 251.1 243.4 234.9 229.9 222.9 219 212.5 212.8 212.8 210.4 210.2 214.8 215.3 213.5 213.9 213.2 208 201.3 196.4 196 196.6 196.9 196 196 197.2 196 196 196 196 196 196 196 196
0.1 0.1 2 3.2 1.2 1.2 1.2 1.2 2 2.3 2.8 2.9 2.8 2.6 2.4 2.3 2.5 7.6 10.5 18.3 31.6 52.8 78.4 78.8 76.6 79.5 85.1 79.3 71.9 68.2 67.5 67.7 61.7 41.1 16.9 14.5 17.4 19 19.7 21 29.8 35.4 45.6 63.5 83.4 93.5 102.8 118.8 127 139.4 146.2 148.1 165.7 180.9 195.3 207.3 213.3 221.2 225.7 228.5 234.5 245 250.3 255.5 260.6 268.6 273.4 277.5 283.6 286.9 292.5 302.3 309.5 312.3 322.1 336 351.8 367.1 384.2 403.7 398.5 388.9 376.5 386 392 389.1 385.8 392.6 390.3 376.6 379.3 375.2 368.1 370.4 382.4 387.9 392.2 388.9 382.5 393.8 398 405.7 414 421 428.4 432.9 443.2 454.5 457.3 453 446.3 447.1 441.8 449.8 453.5 454.4 473.7 496.9 506.2 515.5 517.1 514 516.9 520.1 520.8 515.3 507.3 502.2 495.4 500.4 510.2 505 500 500.2 503.5 495.1 477.3 464.5 449.1 443 463 493.4 511.4 518.9 528.8 525.3 503 478.8 462.4 452.3 446.7 441.5 440.8 432.3 421 413.1 415.9 399 367.6 361.1 350.1 330.3 310 295.7 283.2 274.7 266.2 255.6 250 239.7 233.4 227.5 222.8 218.7 218.1 218.6 211.6 212.2 215.9 217.8 218.8 218.9 216.1 212 204.3 201.4 198.9 200.4 200.4 199.5 201.1 202.9 197.2 196 196 196 196 196 196 196
0.1 0.3 0.8 2.2 3.5 1.2 1.2 1.2 3.4 3.1 2.9 2.8 2.8 2.6 2.4 2.6 2.7 5.3 11.8 28.2 35.8 67.5 80.4 80.9 81.7 87.4 87.5 77 65.3 64.7 66.3 68.1 53 19.5 13.9 15 18.1 22.9 24.2 39.8 52.5 56.9 50.4 70.9 92.2 106.5 113.8 126.1 137 151.2 157.1 167 180 193 206.3 219.1 220.8 227.1 232.4 236.3 247.1 258.4 262.3 265.5 270 283.7 285.9 291.4 296.7 300.7 303.9 310.1 317.3 323.9 333.5 351.5 361.8 380.5 396.9 409.4 408.3 392.5 389.8 399.2 402.4 396.6 394 396.1 394 387.4 384.9 376.7 367.2 372.4 384.7 390.8 396 386.8 387.1 397.7 402 407.5 417.5 432.5 440.8 444.3 448.7 458.7 459.8 455.7 451.2 454.9 446.4 449.2 453.1 459.9 478.9 500.1 510.4 516.5 518.1 518.8 527.1 528.2 520.2 517.9 509.9 513.5 528.5 528 523.1 528 528.7 524.4 525.6 518.7 514 507.1 485.9 470.3 484.2 511 517.3 526.5 533.8 529.8 507.7 482.9 468.6 448.7 442.5 442.8 446.1 435.2 428.8 421.9 418.4 403.4 371.2 369.4 358.9 337.4 320.5 307.3 294.5 286.1 277.4 265.2 254.7 247 239.2 233.1 229.6 221.1 220.8 219.7 214.8 214.8 217.2 222.4 224.1 220.2 218.2 214 209.4 207.1 202.8 202.3 202.6 203.7 206.9 207.4 198.1 196 196 196 196 196 196 196
0.6 1 1.5 1.9 2.4 3.4 3.3 1.2 1.2 3.2 2.9 2.9 2.8 2.6 2.7 2.9 3 3.2 20.5 37.7 51.7 74.6 80.1 85.2 91.3 95.3 85.7 67.3 64.1 63 66.3 56.2 17.8 12.3 17.5 25.4 27.5 28.2 44 57.1 69.1 73.5 82.1 73.9 97.1 115.6 125.5 137.1 150.1 160.4 161.9 179 195.3 207.9 217.8 224.9 230.7 235.6 239.6 241.9 261.9 275.3 282 282.5 288.8 297 300.8 305.6 308.9 312.7 316.9 323.7 328.3 333.2 339.7 359.9 371.6 393.2 409.8 417 408.6 395.1 400.2 409.4 411.6 398.8 397.3 404.7 395.2 392.8 388.9 377.2 372.3 379.9 387.2 390 387.7 384.8 393.1 400.2 404.9 410.9 420 433.8 446.5 457.8 461 457.7 456.6 454 453 454.9 456.4 453.3 455.8 464.6 481.2 501.8 513.3 516.5 521.1 526.4 534.2 534.5 522.3 517 528.1 540.7 544.8 544.1 535.3 542.6 540.5 539.5 535.8 531.7 527.9 521.3 516.6 495.4 492.7 519.7 520.9 531.9 534.9 527.3 507.6 484.4 465.7 455.4 449.7 444.2 443.1 438 434.5 430.7 420.7 406.9 391.2 377.6 358.3 339.4 331.9 317.9 303.3 292.6 290.1 278 256.5 249.8 244.2 241.2 234.7 224 220.6 217.1 217.1 219 221.3 226.8 224.1 220.7 219.7 216.7 213.1 209.6 205.6 203.8 203.4 207.9 213.8 207.3 196.8 196 196 196 196 196 196 196
1.3 1.8 2.1 2.3 2.6 3.4 3.4 3.4 1.2 1.2 3.2 2.6 2.6 2.8 3 3.1 3.2 3.4 26.7 44.5 62.7 83.2 87.2 92.8 100.6 96.1 76.9 63.8 62.3 60.9 53.5 22.6 10.3 15.1 20.8 37.7 41.2 43.5 60.6 71.3 83.6 91.1 99.9 97.2 112.5 121.5 134.6 148.1 164.3 169.9 175.4 193.2 212 220.2 224.9 231.3 239.3 247.2 246.4 250.9 275.6 289.5 300.2 298.4 302.3 308.8 313.3 319.4 321.7 325.3 330.1 337.3 341.5 346.7 354.5 366.9 381.9 402 415.3 417.2 403 396.3 408.9 416.4 413.5 400.5 407.2 406.5 397.1 392.2 385.6 379.5 377.5 381.1 385.5 382.1 381.3 381.8 398.4 401.6 409.4 415.5 423.2 431.6 444.5 461.6 467.5 457.3 454.5 454.3 460.3 464.1 467.4 468.7 465.1 465 479.7 500.9 511.3 514.7 524.8 530.9 535.5 533.9 535.5 532.3 544.8 556 556.3 561.4 561.4 552.9 550.3 548.4 543.2 541.3 537.4 529.4 526.7 527.3 508.5 519 522.8 528.5 526.2 515.5 500.2 478.4 469.1 455.3 450.1 445 444.1 442.7 440.7 431.3 425.7 411.5 408.2 385.9 365.7 349 341.8 328.9 310 299.3 298.8 284.3 264.9 254.5 249.9 246 240.9 228.9 223.3 223.9 221.9 222.5 224 226.8 225.1 224.3 221.4 218.6 213.9 210 207.3 205.4 207 208 207.4 203.1 198.1 196.1 196 196 196 196 196 196
1.8 2.1 2.4 2.5 2.7 3.3 3.4 3.7 4.1 1.2 3.3 3.2 2.4 2.5 3.3 4.2 4.4 9.7 33 49.8 66 85.3 94.8 102.4 105.5 89.9 71.6 64.3 61.4 44.7 15.3 10.6 14.8 22.6 41.9 47.8 50.4 53.2 74.8 87.8 99.5 109 115.1 116.9 112 134.3 145.1 159.6 178.6 184.1 188.3 204.9 221.8 234.4 236.3 240.9 250.7 258.7 257.5 259.5 283.6 299.7 311 311.4 315.9 321.9 327.2 331.5 332.7 336.5 347.1 354.8 361.7 368.2 372.2 378.3 393.2 405.2 415.6 410 405.4 400.2 412.6 415.1 403.7 401.1 401 399.3 399.2 392.3 386.9 379.7 378.9 381.9 379.5 377.4 378 387.4 401.5 405.1 416.3 421 428.2 437.4 442.3 451.4 461.2 468 468.4 459.1 460.8 461 476.5 484.1 477.7 478.7 476.4 491.5 505.6 517.5 524.5 528 528.1 538.7 550.4 546.6 558.1 565 566.5 568.1 565 562.5 556.5 554.3 551 551.4 545.6 533.4 532.8 537.3 524.4 507.4 514.3 512.3 513.6 508 490.3 475.2 466.2 459.6 450.8 446.6 446.6 447.6 437.8 433.5 428 415.3 410.4 384 373.4 354.8 342.7 335.4 315.9 306.5 303.1 291.4 270.8 260.8 255.5 255.7 245.6 231.6 227.7 226.9 226.9 226 224.5 224.6 226.1 224.4 223.2 220.1 212.8 211.4 209.8 210.8 210.8 205.9 203.4 200.4 199.8 197.4 196 196 196 196 196 196
2.1 2.4 2.6 2.7 2.9 3.3 3.3 3.6 3.4 1.2 1.2 3.4 3 3.3 5.9 8.4 11 20.5 37.9 53.4 71.8 88 100.5 109.3 98.7 82 71.8 66.1 46.2 14.1 10.7 16.8 31.3 42.2 49.3 52.2 57.9 69.8 87.9 100.6 112.9 121 126.7 127.3 129.7 142.6 155.8 169.7 188.1 185.9 201.8 216.2 231.1 247 249.9 254.4 260.9 268.2 266.9 270.5 290.3 307.4 325 326.3 329.9 337.2 343.4 347.9 350.4 350.7 359.1 370.9 374.9 387.2 392.5 392.9 408 415.8 417.8 407.1 400.4 396.2 402.1 404.6 405.7 402.8 400.3 399 398.1 397.7 388.3 381.1 379.1 380.9 378 376.7 376.3 389.7 402.1 417 431.5 444.4 454.5 460.4 459.2 457.5 465.2 475 481.6 476.9 469.6 461.9 476.8 494.5 493.7 488.7 487.8 495.7 507.2 514.6 522.8 521.1 530.7 548.5 561.3 565.2 568.3 570 569.8 571.3 569.7 566.3 562.1 556.8 555.8 555.4 549.2 538.2 535.7 542.9 519.9 499.5 497.2 499.1 502.9 494.4 482.4 470.9 460.2 455.5 452.1 451 454.5 445.2 439.1 438.4 433.8 425 407 392.4 377.5 356.8 341 332 316.1 311 303 288.9 274.8 265 260.6 254.9 251.3 235 239.8 231.7 231.8 229.6 227.9 226.8 228.1 225.2 223.9 219.7 214.1 213 211.8 215.3 214.4 204.8 202.7 202.1 200.5 196.8 196 196 196 196 196 196
2.4 2.6 2.8 2.9 3.1 3.3 3.1 3.1 3.3 3.1 1.2 3.3 3.1 2.8 10.2 17.2 20.4 30.2 43 65.2 86.7 104 109.2 105 94.7 76.6 68.7 47.8 16 9.9 20.5 38.6 40.9 56.5 53 61.2 68.9 85.7 97.4 113.2 123.5 132.1 138.3 139.5 146 145.2 166.2 181.3 185.7 192.5 209.5 224.7 241.9 257.5 262.8 264.1 270.9 274.7 274.2 281.3 297.7 319.9 333.3 333.2 338.5 350.7 362 363.2 366.3 369.9 375 383 389.4 396.4 403.6 404.4 412.4 418.2 406.4 405.5 396.2 396.2 396.2 412.6 413.1 405.6 399.2 399.3 401.3 401.1 386.6 379.6 378.1 377.2 377.6 377.1 377.2 392.7 407.4 427.8 452 459.5 469.5 472.8 477.8 475.6 484 491.5 492.2 488.6 486 482.5 492.7 499.5 505.2 506.3 512.4 505.5 513.3 517.2 519.7 520.6 535.3 553 569.5 572.5 571.4 575.8 575.5 572 571.5 567.3 562.2 558.3 556.3 552.1 540.6 532.5 526.4 510.3 501.4 493.2 488 490.1 485.6 480.4 476.8 466.8 457.1 450.6 450.4 452.3 455.8 449.1 443.5 440.4 438.6 427.3 398.8 391.7 376.9 357.9 338.2 327.6 319.1 313.9 297.8 287.6 279.1 271.7 262.3 255 250.2 251 247 236 235.6 233.2 231.6 231.2 229.6 228.1 225.6 219.9 216.2 215.2 214.4 214.4 213.2 204.9 203.6 202.7 200.2 196.1 196 196 196 196 196 196
2.6 2.8 3 3.1 3.3 3.2 3 2.3 3.3 3.1 2.9 1.2 3 3 10.6 19.2 26.6 32.7 48.5 78.5 101 110.5 103.5 97.1 88.2 69.2 50.6 21.6 9.3 17.4 34.5 41.4 51.7 58.5 61.5 67 77 97 109.3 120 133.1 143 151.3 151.6 160.9 161.4 172 183.8 185.3 198.1 216.6 236.3 249.9 267.4 272.2 274.9 279.9 283.3 281.4 289.4 305.4 327.7 333.9 329.5 343 367.5 376.9 378.2 382.8 388.6 392.4 398.6 403.1 405.4 409.4 410.7 413.1 412.3 400.1 402.4 396.2 396.2 398.1 413.1 414 402.2 403.1 403.8 409.5 401.8 383 380 378.1 376 376.7 376.3 387.9 397.6 411.1 428.7 452 460.2 470.3 478.2 485.4 488.2 493.9 498.9 501 502.1 496 495.4 501.8 514.1 513.2 514.5 525.5 521.2 513.2 518.7 524.5 532.3 538.8 554.2 573.1 572.6 574 573.8 573.8 570.8 565.5 560.7 557.2 551.9 538.3 527.4 516.5 508.2 496.3 492.9 489.8 483.5 479.7 475.7 475.1 476.2 471.9 460.5 455.6 450.8 452.2 453.5 453 447.1 444.4 438.9 435.2 420.9 400.7 390.7 378.5 355.4 333.3 321.9 317.8 313.2 297.9 288.8 279.9 273.8 265.3 258.8 254.4 257.1 256.1 245.3 243.8 239.3 235.5 235.1 235.2 233.2 226.2 222.1 219.6 217 215.2 212.6 208.1 205.4 204.5 203.4 200.1 198.6 196 196 196 196 196 196
2.1 2.5 2.9 3.2 3.4 2.9 2.7 2.8 2.8 3 2.9 1.2 1.2 3.1 10.7 19.3 27.7 33.9 60.3 86.2 106.2 97 90.4 93.1 76 52.5 35.3 8.4 9 32.9 40.9 51.4 63.6 71.2 70.9 71.3 83.6 104.5 119.5 127.2 140.1 150.4 158.5 164.8 171.1 175.8 177.1 185.5 186.4 202.3 220.6 241.7 253.7 268 275.2 282.5 286.7 288.5 285.1 294.4 306.8 321.3 320.2 323.7 341.3 372.5 386.4 394 400.4 405.3 406.1 410.2 414.7 416.1 416.9 416 419.3 406.7 403.6 402.1 396.2 398.1 402.5 409.6 408.6 394.2 407.8 410.2 408.1 392.4 386.3 384.3 379.2 374.9 372.9 381.1 399.5 410.9 417.7 427.4 448.1 467.2 476.8 485.2 492.3 494 497.2 498.1 499.1 501.5 501 505.3 524.6 531.3 527.3 527.2 529.2 532.9 523.3 526.7 535.4 542.5 564.2 566.6 570.9 572.1 571.8 569 564.9 557.7 553.2 549.2 533.5 521.2 511.4 504 498.4 490.3 488.3 484.2 479.6 475.9 470.2 466.6 467.7 472.5 464.4 451.8 451.4 452 450.1 449 448.4 444.8 440.9 435.9 423.5 408.1 401.3 395.7 382.7 356.2 334 320.6 312.2 305.1 299.1 287.5 284.5 274.9 264.3 264.8 261.5 262.9 261.3 251.5 249 248.4 241.1 239.5 240.4 239.9 226.9 224.5 222.5 218.5 214.6 210.3 208.4 206.4 204.3 202.9 198.4 202.5 196.3 196 196 196 196 196
1.7 1.4 1.8 2.1 3 3 3 2.3 2.1 3.2 2.8 2.8 1.2 3.1 9.3 17.2 25.1 33.3 50.6 68 79.2 76.2 76.5 78.1 51 33.1 9.1 7.9 26.8 41.4 54.8 61.5 72.4 76.2 74.6 79 94.7 111.5 122.5 134.2 145.3 155.4 163.9 171.6 179.7 185.7 191 186.6 192.5 206.5 224.2 237.9 253.3 271.6 280.9 289.3 289.1 283.2 282.4 296.2 306.2 312.6 309.7 315.1 345.1 369.4 392 403.3 410.1 417.2 419.3 418.8 420.2 420.1 420.9 420.6 414 411.6 405.3 398.5 397.8 400.6 402.5 406.9 395.7 392.7 408.6 407.7 402.2 396.6 390.8 383.9 377.6 373.6 372.5 386.2 408.6 415.6 424.7 435.5 450.8 468.4 478.4 486.3 495 500.7 497.7 496.6 497.2 496.6 508 533.5 546.7 543.8 535.2 537 539.3 542.7 538.3 534.1 545.8 555 582.3 586.2 579.4 562.4 559.1 553.2 542.6 531.9 525.3 518.2 505.4 498.5 494.2 489.4 483.3 483.1 478.1 475.3 469.6 465.7 463.5 461.1 458.1 462.4 455.5 452.1 450.2 443 439.6 442.1 441.5 433.5 432.3 423.3 413.6 406.3 408.4 401.8 381.8 358.4 334.5 318.7 309.4 300.7 296.8 286.6 278.6 270.2 268.3 270.2 267.6 269.6 266.2 260.7 254.9 249.2 242.6 241.5 241.4 239.5 228 225 222.9 218.8 215.6 209.9 208.1 206.4 204.6 201.4 201.9 201.1 199.9 198 196 196 196 194.4
2.3 1.4 0.9 1 2.5 3.6 3.2 1.6 1.4 3.5 1.6 1.4 1.6 1.2 8.4 15.9 22.5 30.4 41.9 56.5 66.6 65.5 63.9 63.6 38.9 14.8 6.8 21.8 40.2 55.3 67 70.6 79.5 78.2 76.9 83.6 100.4 115.4 126.3 141.4 154.7 160.1 165.2 175.8 183.8 191.7 200.8 194.9 196.6 208 218.9 231.8 248.5 268.8 275.1 278.3 278.7 279.2 281.4 293.7 306.5 305.7 300.8 302.3 333.8 359.4 381.2 400.4 411.7 420.6 423.7 420.6 419.2 415.1 415.6 414.6 407.9 406.4 400 398.3 395 396.6 400.6 393.6 390.9 395.6 400.3 395.3 400.1 392.5 384.2 379.1 374.9 372.4 373 395 411.5 419.1 428 442.8 459.7 471 478.1 486.7 494.4 498.8 496.6 496.6 496.6 496.6 519.3 551.6 557.8 555.8 545.6 549.2 552.3 555.4 556.1 546.9 560.7 576.1 600.2 608.1 587 568.3 547.5 536.5 527.9 518.4 511.3 504.4 497.3 491.8 484.8 477.4 475.8 473.2 467.3 463.7 460.7 458.6 455.6 454.4 451.1 444.2 446.1 447.8 443.1 437.8 432.8 429.6 425.5 420.5 418.2 414.8 411.8 411.3 419.5 403.3 384.9 359.7 338.7 322.4 311 299.1 291.2 284.9 280.2 277.9 277.3 273.5 273.9 274 269.7 268.1 261 253.7 247.4 246.1 248.7 239.7 230.9 228 224.5 220.1 214.9 210.1 208.4 206.7 204.5 200.8 201 201.1 201.8 201 198.1 195.4 194.3 192.7
2.9 2 1.2 0.5 2.5 1.7 2.7 0.9 0.6 0.6 0.6 0.7 0.4 0.2 4 12.8 20.9 29 37.9 54.9 66.1 65.3 65.1 48.2 20.4 6.6 28.1 34.9 49.8 66.4 73.5 77.3 81.4 79.8 77.9 87.4 105 118.8 130.5 147.5 156.9 159.8 163.7 176.9 187.5 198.2 200.6 196.8 200.1 207.5 214.5 216.8 231.3 243.8 248.2 260.1 265.6 269.9 276.2 285.1 294 297.5 290.4 289 321.1 351.4 368.3 387.7 403.9 412.4 415.5 414.9 414.4 410.7 411.1 407.9 399.5 399.5 396.3 393.1 394 397.4 394.8 392 391.4 397.7 392.4 393.5 390.2 383.6 379 375.2 371.8 373.6 375.2 397.3 413 422.3 432.3 449.1 463.2 476.6 487.6 493.2 496.9 504.7 501.4 497.2 496.9 501 519.9 547.2 562.2 571.3 562.6 560.8 564.3 564.6 565.8 565.8 563.6 594 605.6 612.2 601.4 569 547.1 535.3 525.2 512.3 502.9 489.2 484.1 479.2 472.2 464.5 462.3 459.5 457.6 454.3 448.2 449.2 444.9 444.5 441.1 437.5 439.5 439.2 433.2 430.3 424.6 422.3 420.8 419.3 416.9 415.9 419.7 424 420.1 410.9 377.4 354.7 341.5 322.3 308.3 302.3 293.2 285.8 282.1 279.4 278.8 277.7 278.3 279.4 277.8 271.9 266 257.3 252.6 250.6 250.7 242.2 234.4 229.4 224.7 221.5 215.8 210.2 208.6 206.9 203.9 201.8 201.7 202.3 200.4 199.1 196.9 194.8 193.6 192.3
3 1.7 0.4 2.2 2.4 1.3 0.7 0.7 0.8 2.2 1.4 1 0.8 0.5 1.9 7.3 17.6 31 41.3 66.4 68.6 64.8 58.9 25.4 6.3 22.8 39.3 47.7 64.3 74.1 77.9 79.4 81.3 79.6 79.9 91.4 107.4 121.1 134.7 147.1 150.7 152 164 176.9 187.8 195.4 195.2 195.2 198 200.5 203.2 208.5 217.8 228.4 241.7 250.8 255.2 263 270.2 279.1 284.6 287.2 282.7 278.7 309.5 338.2 358 379.2 391.7 399.6 398.1 397.9 401.3 404.6 404.5 397.9 399.5 399.3 395.8 391.8 394.7 398 389.2 391.3 391.9 394.4 390.2 385.9 382.2 377.8 374.1 370.5 373.9 374.9 380.6 400.6 414.5 424.9 436.3 450.9 463.9 474.8 491.3 503.4 511 512.3 504.2 504.5 500.6 504.3 521.3 527.6 560.1 592.2 579.6 569.9 573.9 571.1 571.5 574.5 577.4 587.7 610.6 607.7 598.4 566.8 546.2 530.6 520.1 504.5 488.7 477.9 468.4 461.7 456.3 452.5 453.4 450.4 448.2 441.8 438.6 435.6 433.1 433 430.5 431 425.4 423.7 422.5 425.5 430.4 421.4 420.5 422.3 421.6 422.7 424.7 426.7 418.8 399.8 373.2 354.6 341.5 327.1 315.5 305.7 293.2 289.8 285.9 284.4 284.1 286.4 286.3 290.8 285.5 276.7 270.2 261.2 258.2 256 248.6 242.8 237.7 230.6 226.9 222 218.2 210.1 208.6 207.2 206.2 202.7 199.2 199.1 198.9 197 195 194.5 193.3 192.6
1.2 0.1 1.9 2.8 2.1 1.3 0.9 1.1 1.3 2.4 2.2 1.3 1.1 0.8 0.4 2 13.7 26.4 45.6 62.1 64.8 54.9 37.8 8.7 4.5 35.7 45.5 56.4 71.3 76.3 78.5 79.4 79.2 82.7 82.9 94.1 109.7 123.6 137.5 144.8 150.2 151.3 163.2 175 184.4 187.7 192.9 190.1 193 195 199.9 205.9 218.3 225.8 235.1 242.6 245.1 255.9 268.5 278.1 282.9 283.1 277.1 276 300.9 327.2 348.2 368 377.1 384.4 389.9 395.7 400.4 404.8 402.1 394.6 399.3 397.9 393.4 391.9 392 388.7 388.6 395 386.8 386.8 381.1 379.5 376.8 373.1 369.3 370 373.9 379.5 391.1 401.3 419 427.6 439.7 453.7 463.3 473.1 495.3 509.8 515.2 516.6 517.8 506.5 504.4 505.4 517.8 535.5 582.9 604.7 597.6 587.3 583.3 583.7 577 579.5 581.8 589.2 591.8 600.4 584.5 563 542.5 528.3 509.1 491.1 477.1 476 465.2 459.6 451.4 451.8 444.8 441 432.6 432.3 427.7 425.3 421 420.1 418.2 415.4 415.9 416.9 424.7 429.9 438.9 431.8 432 429.6 423.2 429.2 421.8 422.6 410.1 393.6 373.4 361.5 350.7 333.7 318.7 309.9 294.2 290.9 289.2 288.6 290.3 290.7 292.5 296.3 296.9 284.3 275.9 268.6 259.8 256.4 248.8 246.4 239.9 233.8 228.7 226.5 219.5 210.6 209.4 208.4 207.2 202.1 197.6 196.4 196.1 195.7 195.7 195.9 196.2 194.3
0.1 -0.5 2.6 2.8 2.2 1.1 1.3 1.5 1.6 2.4 2.2 1.6 1.4 1 0.6 0.3 8.8 23.3 45.3 54.7 49.1 41 16.8 4.7 23.2 40.5 54.6 67.8 75.9 77.4 79.1 78.1 75.5 82.3 87.4 96.4 110.7 123.6 136.5 141.7 147 153.7 160.6 170.3 178.8 186 188.7 188.2 189.9 191.1 196.4 204.2 215.6 224.8 229.2 232.5 241.9 257.7 267.5 275.4 282 281.5 276.1 277.6 293.7 315.5 334.8 346.8 365.6 381.3 389 394 398.1 401.8 387.7 391.2 393.4 393.5 390.6 390.9 388.1 385.5 391.9 385.8 378.5 376.9 374.9 373.3 370.7 366.4 369.7 371.1 373.5 380.8 396.2 409.7 420.1 428.6 440 450.8 461.6 473.3 494.6 507 516.8 524.1 525.5 523.5 510.4 508.9 518 558.6 594.9 610.5 609.4 599.4 596.6 595 590.7 582.6 585.7 589.9 586.1 576.4 566.7 553.6 538.5 519.1 490.8 483.4 480.2 472.8 461.6 452.4 447.3 440.7 435.8 425.6 423.6 421 418.4 412.8 412.2 413.3 413.3 414.8 414.4 415.5 424.9 433.6 436 433.1 432.2 428 422.4 418 415.3 410.8 397.7 384.9 368.9 358 357.6 336.5 323.1 309 297.1 294.7 295.5 295.1 295.4 294.7 296 300.5 299 288.8 280.9 272.6 261.4 255.2 250.9 245.9 240.7 235.4 230.7 231.4 221.9 213.3 209.9 208.1 205.3 202.1 197.3 197 197.2 197.5 197.7 199.3 196.5 195.1
0.8 2.2 2.1 2.1 2.1 0.3 2.1 1.9 2 2.5 2.3 2.1 1.7 1.3 1 0.7 2.2 20 37.3 37.8 37.7 24 5.2 8.7 31 48.4 59.7 70.9 78 79.9 76.9 74.3 72.8 79.9 87.9 95.3 109.7 120.6 129.6 140 147.3 152.3 159.1 167.5 174.8 181.6 186.8 187.8 189.7 192.1 194.4 200.2 210 218.7 223.3 229.2 242.3 257.6 266.2 272.4 279 279.1 275.6 282.5 295.8 302.1 320.1 340 356 373.5 389.2 395.1 400.8 393 382.4 391.2 391 390.4 388.2 385 382.5 383.3 382 374.9 372.6 371.4 370.2 368.3 366.7 371.3 376.4 374 375.5 384.3 398.9 411.5 423.1 430.7 439.6 447.6 456.9 474.2 493.1 504.4 514 525.7 530.1 530.9 525 517 539.3 581.6 591.9 603.6 605 610.7 614.9 607.1 601.3 594.6 587 582.5 576.8 566.5 555 542.6 527.1 508.1 488.1 484.6 476.2 464.2 456.7 439.5 428.6 422.1 417.8 418.8 415 413.6 411.2 408.8 410.3 412.5 414.5 414.9 414.8 420.3 427.7 433.1 432.7 432.1 433.4 427.1 419.1 411 403.8 394.9 389.5 379.9 365.9 359.6 362.5 340.6 323.2 306.8 303.3 300.4 302.5 301.8 300.6 299.3 298.9 301.1 298.3 291.3 284 277 265.4 259.1 252.9 247 241 236.8 234.6 230.9 221 212.7 209.5 205 202.7 200.6 198.1 197.7 197.4 198 198.2 197.2 197.8 196.2
2.6 2.3 2.5 2.6 2.5 0.4 2.5 2.7 3 2.9 2.8 2.3 1.4 1.1 0.9 0.6 0.4 10.1 19 18.6 17.9 4.8 4 18.4 45.2 58 62.4 70 81 76.3 73.1 70.6 70.2 77.6 85.5 96.5 109.9 121.7 129.5 140.4 147.7 154.3 162 167.9 174.7 179.9 183.5 185.5 188.5 192.3 195.4 196.7 210.9 216.6 222.5 228 240.3 254.6 265.1 271.5 277.5 275.6 275.3 285.1 293.4 298.5 311.5 331.6 349.8 364 377.3 388 385.6 373.7 383.4 391.4 389.5 386.7 383.4 380.4 376.7 374.9 370.7 369.2 368.5 367.5 366.6 364.2 365.9 371.4 378.9 375 384 390.4 399.8 411 420.6 430.3 436.2 447.6 457.4 473.2 487.3 496.7 503.9 521.8 526.5 537.3 544 538.9 554.8 577.5 581.1 585.4 584.4 603.1 622.2 616.1 610.2 596.8 584.3 572.5 563.3 553.5 543 527.4 508.5 492.5 483.4 476.4 465.9 454.3 443.7 427.5 419.3 416.6 414 410.4 406.3 407.2 404.4 405.6 407.5 410.9 415.1 418 421.3 429.2 429.7 436.7 434.5 432.3 432.3 422.9 413.1 402 395.8 390.5 382.1 372.8 365.3 367.6 355.2 336.3 321.5 313.7 313.8 307.4 308.6 307.3 305.8 303.4 301.8 302.6 300.7 294.5 286.8 279.9 269.7 260.9 253.8 247.9 242.9 238.4 235.5 230.7 220.7 214.1 208.5 202.4 200.9 199.4 198.7 198.4 198 196.9 198.4 197.6 198.1 197.4
2.3 2.5 2.6 2.8 2.9 0.6 1.6 1.9 2.1 3 3.5 1.8 0.9 0.6 0.3 0.4 0.9 0.6 4.8 5.9 3.7 5.4 4.3 26 51.3 57.5 64.2 70.8 75 66.6 65.4 66.7 67.7 75.2 90.2 99.9 112.3 123.5 130.2 137.3 149.9 157.2 161.7 168.7 174.9 179.9 180.1 183.4 190.5 194.5 198.3 199.8 209.4 215.8 223.2 232.2 243 253.8 263.2 269.1 276 274.3 276.1 285.8 293.2 299.4 310 327.8 341.4 354 366.1 365.9 363.7 363.8 380.6 385.2 385.7 383.2 379.9 376 371.9 369 367.5 366.3 365.1 363.7 364.1 371.3 373.6 371.5 374.6 371.4 383.4 395.9 404.8 409.1 421.3 428.4 438.8 447.8 460.9 468.9 479.8 486.6 494.6 498 515 540.7 553.9 552.1 555.3 569.4 571.3 562.6 571.9 585 616.8 616.1 597.8 586.9 574.9 559.5 550.8 541.3 529.8 506.7 488.7 484.5 473.8 465.1 453.1 438.6 426.8 422.2 414.4 409.8 405.5 402.4 401.7 403 400.9 401.9 405.1 414.6 419.1 421.2 426.9 435.8 440.7 439.1 433.4 428.7 421.8 410.1 397.9 394.3 389.2 384.2 373 370.5 365.1 372.6 354.7 334.6 319.6 319.2 320.7 313.5 314 311.8 309.1 307.3 306.2 305.1 301.7 297.1 289.8 281.1 272.6 261.5 255.4 248.1 244.5 242.6 239.7 232.5 221.6 215 208.5 202.4 200.9 199.5 199 199 198.6 196 198.4 198.7 198.1 196.9
2.2 2.2 2.3 2.4 2.5 1.3 0.7 1 1.6 2.8 3 1.2 0.4 0.3 1.1 1.9 2.8 2 3.6 3.6 4.7 2.4 8.8 29.8 50.1 55.6 62.6 68.6 57.3 58.1 63.7 68.1 71.4 77.1 93.7 105.1 115.8 121.1 125 131.8 150 153.8 155.6 160.5 166 176.9 182.1 185.2 190.2 196.7 201.2 204.8 212.5 217.8 229.5 240 247.8 254.1 262.9 272.4 275.7 273.9 280.4 287.3 295.1 304.6 312.4 327.5 338 349.1 355 356 354.6 355.2 375.3 379.3 381 378.2 375.3 372.1 368.7 367.4 366.5 365.7 363.2 360.7 366.5 376.3 380.1 376.4 371.4 371.4 384.3 397.2 396.9 404.8 417.2 422 436.2 443.7 456.1 464.5 470.7 475.3 480.5 489.4 502.1 531.9 551 559.3 555.6 560.8 560.5 555.8 562.6 574 583.4 612.5 588.4 573.8 565.6 558.4 543.8 526.5 510.5 492.7 487.6 473.8 464.9 453.4 436.2 426.9 422.1 411.5 403.8 402.1 402.7 401.7 395.5 398.9 397.2 399 408 415.1 419.2 423.3 433.4 439.4 444.7 437.2 431.4 421.5 412.3 398.5 393.8 393.3 386 373.6 370.8 367.5 365.2 363.4 347.9 333.4 326.1 325 324.5 318.9 317.4 315.5 313.5 312 309.7 306.4 301.5 296.5 291.1 281 274.7 262.6 257.2 251 246.5 247.4 242.8 229.3 223.1 215.7 210.3 202.8 201 199.9 199.3 199.6 198 195.3 196.5 197.1 196.2 195.7
2.2 2 1.9 2 2.1 1.3 0.5 0.4 1.2 2.4 1.8 0.5 1.3 2.1 3 3.8 3.9 4 3.6 4.2 3.9 12.2 12.4 16.8 27.3 36.8 32.2 42.6 51.7 60.7 69.8 75.4 78.9 88.9 89 95.2 108.5 117.1 121.5 128.4 137.5 146.3 153.6 168.7 178.5 180.9 186.1 190.1 192.8 198.9 203.7 209.1 213.9 223.2 236.5 244.8 254.9 255 263.1 271.2 273.1 274.5 282.5 292.6 301.2 308.2 314.8 325 339.8 348.3 351.1 351.5 350.5 352.5 371.7 375.1 374.3 373.9 371.5 369 367.8 367.4 367.4 365.9 363.3 361.5 370.1 379.3 380.2 377.2 371.4 371.4 383.6 387.6 391.1 393.4 405.4 420.7 428.4 435.9 449.8 460.4 467.7 469.3 469.9 480.5 495.6 508.2 529.8 548.8 562.4 558.3 556 554.7 554.7 559.6 568.9 581.7 582.5 562.5 553.5 545.9 544.1 522.3 503.2 485.7 476.3 464.3 450.4 439.2 424.2 422.1 410.6 403.8 400.6 401.8 401.3 399.3 397 393.9 397.3 398.2 399.6 404 411.3 420.5 428.5 439.5 442.5 430.1 417.7 409.2 398.1 394.3 391.4 386.6 380.4 367.9 367.8 364.7 361.4 353.8 345 338.5 329 330.2 326.3 321.5 319.3 318 318.2 318.6 315.2 308.2 300.6 294.8 289.3 282.9 273.9 265.8 257.5 252.9 248.7 249.6 240.1 230.4 225.7 218 210.4 203.3 202.6 200.3 199.6 199.9 196.2 193.7 193.5 194.5 195.1 194.4
2.2 2 1.8 1.6 1.7 1.2 1.4 2.4 3.4 0.9 1.4 3.8 5.4 4.2 4.8 5.7 6.9 7.9 6.8 5.5 10.9 22.2 31.9 31.9 36.3 42.9 45.9 55.9 62.3 63.9 77.1 82.8 88.3 97.1 104.9 115.1 120.8 132.2 141 144.9 151.2 160.8 158.9 168.7 173.8 178.4 184.9 188.7 194.9 201.2 205.4 212.9 219.6 228.2 237.5 247.5 258.6 257.7 258.9 267.9 272.5 276.5 283.6 295.7 303.2 308.3 315.7 327.7 339.3 343.5 345.5 346.5 349.3 351.5 365.8 367.3 367.9 368.4 368.3 367.8 367.5 367.8 368.3 368.3 364 363.5 374.4 383.2 378.7 373.6 374.8 376 381.2 387.1 390.1 392.7 406.8 417.9 430.5 445.5 459.4 462.8 468.5 468.4 471.1 473.8 487.9 498.2 512.3 523.7 553 568.9 563.2 555.4 554.9 552.5 556.8 557 555.5 551.8 543.7 541.1 533.7 515.2 503.3 482.9 466 451.6 438.1 424.7 416 404.9 399.8 399.9 397.9 399.4 399.4 398.5 395.4 392.3 392.3 392.8 392.9 396.6 402.8 414.5 428 434 424.9 417.5 404.4 397.5 394.2 391.2 387.5 380.9 374 365.1 363.9 363.1 357.4 347.1 344.2 341.2 333.1 331.8 329.3 325.4 324.1 321.9 320.9 320.9 317.9 307.1 300.3 294 288.4 282.9 274.5 265.6 258.3 253 250.5 247.9 238.2 229.9 224.6 219.1 215 205.5 203.1 201.3 198.9 197.3 193.7 192.6 192.1 191.3 190.4 192.3
2.1 1.9 1.8 1.6 1.4 1.1 1.6 2.3 3 3.8 3 6 10.3 10 8.6 9.6 11.6 11.8 10.7 13.4 20.7 30.8 38.6 44.2 48.8 51.7 60.4 65.1 70.6 75.9 83.7 90.8 96.5 103 112.3 121.4 128.8 138.6 145.5 151.3 156 163 165.3 170.3 180.1 181.8 190.8 189.5 195.1 201.4 209 217.3 224.3 232.1 240.3 248.1 260 261.5 265.8 271.7 274.6 278.8 285.5 296.3 301.9 307.5 317.4 327.2 331.9 335.4 337.4 347.2 349.5 348.8 355 363.5 364.6 364.7 364.4 366.6 371.3 370.2 370.2 371.1 363 366.1 378.1 378.7 373.3 366.7 365.3 377.5 377.9 387.9 389.3 394.2 406.6 418.7 431.7 446.3 462.6 472.6 470.9 471.7 477.1 485.1 483.7 496.7 503.5 512.6 527.6 547.7 566.9 565.9 555.7 549.7 542.9 546 546.8 543.4 539.9 530.6 514.9 507.7 491.1 472 455.7 442.3 428.3 419.9 407.2 396.7 396 396.3 391.9 390.8 393.7 392.9 391.3 389.1 383.4 382.9 383.7 389 395.5 404.5 416.8 413.9 407.8 400.2 392.5 389.7 387.2 384.7 379.2 373.9 366.3 360.8 358.9 359.4 353.3 343.8 343.9 341.5 336.4 332 329.3 330.2 326.4 323.7 322.2 321.2 316.3 308.4 300.2 293.7 287 280.9 275.1 265.9 259.6 254.5 252.4 251.2 242.1 230.3 224.3 219.2 215.3 209.5 204.1 201 198.5 194.8 192.1 191.1 190.6 189.9 189.7 189.8
2 1.9 1.7 1.5 1.2 1 1 1.7 2.2 2.5 5.4 11.8 16.8 15.7 13.8 15.6 13.9 14.2 16.9 21.3 30.2 37.6 44.1 49.2 53.5 57.9 67.2 72.9 79 81.7 89.5 96.1 103.2 110.9 119.5 126.6 132.9 140.9 148.7 154.3 159.7 165.5 169.7 176.1 184 187.1 192.6 195.4 194.4 200.3 209.9 217.6 227.1 234.3 241.1 248.7 259.1 265.9 269.5 272.4 273.1 278.3 282.8 290.9 297.8 303.6 315.7 325.8 330.3 333.2 334.8 343.4 346.5 347.3 352.7 358.5 360.8 361.7 363.3 366.3 369.5 371.8 372.9 367.4 360.1 368.2 371.4 372.8 368.5 362.4 362.3 374.2 374.8 382.3 387 394 406.2 422.5 432.5 443.3 457 470.3 476.6 488.8 491.8 498 500.4 497.2 501.1 507.2 513 537.2 562.7 569.5 565.9 551.1 541.3 539 539.1 538.8 534.8 516.5 504.3 499.3 481.2 461.3 444.8 432.4 426 416 401.9 391.4 389.5 386.8 383.1 382 385.8 387 385.3 379.1 374 373.4 378 383.4 391.2 396.7 397.6 394.8 390.4 387 384.9 382 379.8 376.4 368.7 358.9 358 353.7 353.3 352.5 349.3 341.9 342.6 339.5 334.7 332.1 331.7 333 326.9 324.3 325.1 321.4 315.3 308 300.8 294.3 288 281.8 275 265.2 259.8 256.1 254.5 252.4 241 229.6 224.3 222 218.8 208.4 204.6 201.1 198.1 193.7 190.9 189.8 189.2 188.7 188.3 188.4
2 1.7 1.5 1.2 0.9 0.9 0.5 0.8 1.2 5.6 8.6 13.7 17.5 18.9 18.8 18.3 15.4 13.4 15.6 29.2 39.5 44.7 50 57 62.9 69 71.9 80 86 89 94 101.3 106.5 114 122.4 129.4 135.3 145.1 151.1 156.8 161.9 167.8 174.2 182.9 189 193.4 196.9 201.4 203.9 207.9 214.8 222 228.5 234.6 241.7 248.4 257.2 261.7 266 272.9 277.9 278.2 283 295.2 306.3 317.6 329.2 335.9 340.2 337.8 338.1 345.5 346 350.4 355.5 355.4 358.2 359.9 361.7 363.4 366.8 370.4 370.9 361 363.2 370.1 372.9 372.4 366.3 361.8 363.3 364.8 370.3 374.7 380.9 390.4 404.2 419.9 429.9 439.1 456.6 467 483.7 493.7 502.2 507.6 510.3 509.8 502.2 504.5 512.3 528.3 550.5 565.8 575.7 566.1 546.9 538.3 537.3 531.3 522.3 501.7 496.9 481.5 468.6 448.3 431 427.4 414.7 399.1 392.7 388.5 385.2 382.7 377.6 374.6 374.1 379.3 377.7 372.2 368.1 369.7 373.3 383.3 384.2 383.9 381.5 379.4 379.5 379.9 377.7 373.6 369.2 364.2 352.1 351.1 348.7 347.5 348.9 347.4 343.4 340.1 340.7 337.7 334.3 332.2 332.8 330.3 326.6 324.8 325.7 320.6 313.4 306.1 300.6 293.8 287.8 281.1 272.9 266.2 261.5 257.9 256.3 249.1 237.5 231.7 226.2 223.8 217.3 207.3 204.1 202.1 198.4 193.3 190.3 189.3 188.7 188.1 187.6 187.3
1.7 1.4 1.1 0.9 1.2 1.8 2.6 4.1 3.8 8.8 14.9 18.7 19.7 21.8 22.1 21.9 11.3 13.5 29.4 31.5 43.6 48.8 58.7 64.9 71.6 75.8 78.2 84.6 91.2 95.7 95 104.4 109.9 117.3 125.8 132.9 139.9 146.4 153.8 159.3 165.3 171.3 179 187.9 193.8 200.4 205.4 209.7 213.4 216.6 221.5 229.7 232.2 238.6 244.5 249.5 260 268 273.6 280.8 288.3 285.1 285.1 305.1 315.6 324.8 336.5 341.3 347.5 347.5 349.1 346.9 350.8 347.8 348.4 349.2 355 357.2 358.5 360.9 365.9 367.3 361.3 356.5 370 369.2 375.1 373.1 363.9 363 359.3 354.6 365 366.7 373.9 387.8 403.2 414.2 425.9 437.4 452.4 468.8 483.2 494.1 504.3 512.4 518.3 518 517.1 513.3 516.7 536.1 550.6 564.1 571.8 573.9 555.5 551 524.9 516.4 504.3 491.8 477.2 471.8 451.4 436.8 424.3 412.6 402.6 395.9 390.5 385.3 381.1 377.2 372.9 371.7 371.8 370.7 369.2 366.8 367.4 364.5 360.8 361.7 363.6 363.3 368.2 372.8 373.9 371 367.1 362.4 355.8 346.8 341.9 343.1 341.8 342.5 345 343 338.2 337.3 337.2 334.7 331.9 331.5 333.6 328.4 326.2 326.2 325.5 320.3 310.6 306 301.4 293.6 285.7 278.7 271.2 266.8 262.7 259.2 259.6 250.2 239.6 232.5 229.9 225.8 218.4 209.6 205.2 203.2 197 193 190.2 188.9 188.3 187.7 187.1 186.5
1.4 1.1 0.8 1.5 2.2 3.4 6.2 9.4 13.8 18.5 23.5 27.9 27.4 26 25.8 9.7 16.2 31.9 36.9 44.6 47.1 59 68.1 75.3 80.3 82.2 84.8 87.6 95.5 100.5 102.8 106.5 114.9 123.3 131.8 137.3 142.9 149.8 156.1 163.8 169.8 176 186 192.8 198.5 205.9 212.2 217.5 221.9 225.3 226.8 232.4 238.6 243.2 250.4 254.2 263.7 270.8 279.4 291.2 296.2 292.8 291.6 305.1 322.3 327.5 335.9 346.8 350.9 344 346.5 347.9 346.7 344.5 345.5 347.3 351.7 353.4 354.9 360.1 362.4 360.9 350.4 362.7 365.1 371.1 376.1 372.8 365.8 364.4 356 350.1 356.3 363 368.3 381.9 399.3 409.7 421.1 431.4 439.8 459.8 473.2 485.4 500.1 510.7 515.8 518.7 525.7 522.2 529.3 535.5 548.8 561.6 570.1 574.3 560.1 549.8 544.4 514.4 490 476.9 470.6 449.9 432.4 426.9 411.4 399.3 395 394.4 387.4 381.2 376.8 374.1 370.1 367.6 368.1 366.3 363.2 361.7 357.3 354.1 352.8 351.9 353.8 358.1 362.1 365.6 359.7 356.1 354.3 349.1 344.2 339.3 337.3 335.8 336.3 337.6 337.7 336.3 334.2 334.2 334.1 331.2 329.1 330 328.9 326.1 324.8 324.2 321.1 314.8 310.5 308 300.1 293.4 287.2 277.9 270.3 265.6 262.1 259.2 258.5 247.2 241 236.2 232.5 225.5 220.9 209.7 207.3 202 194.9 192.5 190 188.9 188.8 188.8 188.6 188.2
1.2 0.9 3.5 5.7 6.9 8.7 11.2 14.7 19 25.6 30.6 34.9 36.8 34 13 18.2 13 42.3 55.7 63.3 67.6 66.3 71.9 81.7 87.8 90.6 93.6 97.7 98.5 101.5 104.7 108.2 116.9 126.3 132.8 139.2 145.8 153.3 159.1 167 175.7 182.4 190.8 197.4 203.7 211.9 218.1 223.4 226.9 225.7 224.7 234.9 244.6 250.7 260.3 264.5 268.7 274.2 284.9 295.3 301.3 300.1 295.5 313 325.1 326.6 336.1 347.3 339.8 338.1 343.8 343.8 344.6 342.4 344.9 347.8 349.4 351.2 352.5 359 358.2 352.3 349.2 356.2 364.4 368.2 370.3 372.5 365.5 361.5 352.2 349.8 354.4 362.2 365 372.8 393.7 409.5 415.4 420.6 438.2 450.2 468.8 481.3 493.4 506.3 508.1 518.2 525 530.3 540.4 535.6 547.3 558.4 565.3 563.4 560.2 550.1 541.9 517.1 485.1 460.5 447.9 433 424 414.8 399.3 389.2 392.6 388.4 379.3 372.9 368.5 365.4 363.7 366.1 363.1 360.5 358.6 358.2 353.2 348.6 347.4 347.8 349.8 349.9 350.6 349.5 341.9 344.4 344.4 341.9 337.6 334.8 332.8 331.7 332.1 331.3 332.6 331.7 330.3 330.3 328.1 326.2 324.9 324.8 322.2 322.1 322 322.5 314.9 312.5 309.9 308.8 299.4 294.2 291.8 280.6 271.4 265.8 261.6 258.2 254 249.3 242 237.7 231.7 227.8 217.1 209.8 206.4 200.4 194.4 191.9 189.8 188.9 188.6 188.6 188.5 188.4
0.9 1.7 6.3 9.3 11.6 17.2 21.8 25.8 29.2 34.2 39.1 43.1 43.6 29.1 14.5 17.4 34.7 51.2 63.2 71.8 76.7 80.4 82.5 80.1 89.8 94.3 96.1 99.8 101.9 102.6 105.7 112.3 120.3 129.2 136.3 142 148.6 156.5 163.2 171.5 180.1 187.7 194.1 200 207.5 213.9 220.6 224.1 223.4 222.2 229.3 237.8 248.3 258.1 265.8 274.9 275 280.6 288.8 301.1 305.5 303.8 302.8 319.5 325.7 325.8 336.3 340.8 334.4 334.3 335.9 342.6 341.7 344.5 349.2 352 353.5 351.2 352.7 360.2 353.4 349.2 348.2 355.6 357.7 363.2 365.7 365.1 358.7 355.6 349.8 349.8 350.2 356.4 363.1 366.7 378 389.2 403.5 419.4 434 446.1 462.6 476.9 485.9 492 499.4 513.3 526.3 540.6 555.8 558.5 545.1 546.7 545 553.9 553.3 544.7 532 509.8 475.2 448.6 435.6 420.6 412.6 403.7 391 388.8 386.3 381.8 373.8 363.7 361.9 360.2 359 360.4 360.3 359.2 357.3 350 348.1 343.6 344.5 343.5 340.8 340.7 336.4 335.2 336.3 336.3 335.8 334.2 334.8 333.6 328.1 328.1 328.6 326.5 327.3 326.7 326.4 324.6 322.3 320.7 321.1 318.2 317.4 318.3 318.7 317.3 312.4 310.5 310.3 311.3 300.3 294 292.7 280.3 274.3 266.1 260.7 256 251.4 247.6 243.1 237.4 231.6 226.2 217.1 211.3 205.7 198.7 194.5 191.9 189.8 189 188.5 188.4 188.2 187.4
