ncols 200
nrows 82
xllcorner 270000
yllcorner 325600
cellsize 50
240 237.1 233.5 231.3 228.8 223.7 218.5 214 209.4 204.2 201 197.9 194.6 190.8 187.5 183.8 180 176.2 171.5 166.8 163 160 158.6 159 163.4 168.6 172.1 176.8 183.4 190.2 199.2 201.8 207.9 212.1 218.1 228.5 239.8 252.5 267.8 278.5 293 310.9 319.5 328.8 336.4 345.7 359 378.3 388.2 388.7 374.6 358.4 344.7 325.9 306.2 284.5 265.2 252.5 239.4 228.2 224.6 229.7 237.4 247.6 257.4 267.3 278.3 288.9 299.6 310.6 320.7 328.8 338.4 347.9 356.5 363.2 367.6 366 366.8 366.1 362.1 355.3 349.5 345.6 343.4 340.5 336.8 334.6 336.1 336.9 332.9 330.9 327.2 325.1 321.5 318.3 319.2 317.8 310.9 306.5 310.4 316 321.2 324.9 329.2 333.7 339.7 341.5 334.4 333.1 333.2 330.9 317.6 312 322.3 331.4 339.1 352.2 362.9 383.6 398.2 406.6 411.7 415.8 413.8 421.5 425.3 428.4 427.8 424.6 419.6 411.6 406.2 400.9 404.7 405.8 400.8 388.6 374.4 360.2 340.4 320 300.9 286.8 273.3 280.3 287.6 297.7 308.2 317.9 328.4 339.1 351.6 363.4 378.6 396 424.1 437.6 436.4 431.4 422 400 386.8 375.8 368.6 354.3 346.1 340.3 333.6 324.8 319.4 314.7 311.4 309.9 309.1 304.3 316 327.2 336.3 343.9 354.6 365.2 376.1 389.9 403.7 416.8 430.6 444.3 456.9 470.5 480.3 488.5 490.1 494.1 494.2 490.1 483.5 478.4 471.4 464.2
237.1 233.6 230.7 228.7 225.7 220.9 216.1 212.2 208.3 203.8 200.4 197 193.8 190.5 188.6 185.5 181.6 177.8 172.4 166.9 163.3 160.5 158.3 157.8 164.4 169.1 172.5 176.6 183.8 192 197.3 201.3 205.3 210.5 219.9 225.4 235.8 250.1 266.3 281.2 294.8 311.6 317.6 328.2 332.9 340.1 354.2 373.5 386.8 380.3 364.3 348.7 335 316.4 293.6 279 263.9 250.9 236.2 223.9 227.4 234.4 243.5 250.9 259 268.4 277.1 287.5 297.9 309.8 320.3 327.7 338.9 346.6 353.7 359.9 365 364.7 363.8 362.5 360.2 351.2 345.4 342 339.2 337.3 335 333.8 334.1 334.3 330.9 328.2 325.7 323.3 320.6 317.4 313.4 308.8 304.9 301.6 304.2 311.3 315.8 320.5 325.5 331.5 335.3 334.2 332.4 331.6 329.6 325.2 312.1 304.8 310.8 322.4 331.5 348.2 361.2 377 391 392.6 400.2 400.6 400.2 406.5 415.6 411.3 408.1 405.9 403.7 404.5 396.6 389.5 388.3 395.3 386.5 377 365.1 349.9 330.3 310.6 290.5 275.6 275.8 283.4 291.2 300.8 309.5 317.1 326.3 336.3 347.1 360.2 373.9 389.9 414.9 418.6 418.7 407.7 397.5 382.8 369.3 357.3 346.9 335.4 327.6 322.2 315.2 308.3 303.7 298.8 296.9 296.1 299 313.3 321.5 328.6 337.5 347.3 358.9 368.8 381.3 395 408.9 422.7 437.5 452 464.3 475.2 485 491.9 494 495.4 498.8 496.8 488.2 483.2 477.8 471.1
234.8 231.6 228.7 225.6 222.4 217.7 212.9 211.3 207 202.7 199.4 195.8 192.1 190.2 188.7 186.1 183.1 178.9 174.4 168 163.6 160.6 158.4 156.7 163.4 169.2 174.3 178.3 185.4 190.8 194.3 199.7 203.6 209.2 223.2 234.1 236.4 248.3 262.4 281.7 296.1 307.9 320 326.9 330.7 339.5 348 370.7 378.3 371.6 355.8 339.4 324.3 307.5 288.2 275.1 260.5 247.2 233.5 223.9 229.2 237.1 244.9 253.2 261.2 269.2 276 284.6 297.1 308.8 319.9 329.9 338.3 345.6 352.9 357.6 361.6 362.5 360.7 358.1 353.5 347.1 342.6 340.2 338.5 336.3 334.5 333.1 332.7 332.8 329.5 325.6 323.2 322.5 321.5 315.9 310.3 302.3 298.6 296 302.2 307.5 313.5 318.1 322.7 329 330.1 328.9 330.8 330.3 326.1 318.5 307.4 292.6 308.6 315.3 326.9 342.1 356.1 369.4 375.9 379.4 379.6 383.7 386.5 384.7 386.8 383.6 383.9 384.4 384.5 388.2 384.6 374.9 374.7 378.4 372.5 362.4 350.1 331.2 313.5 296.7 280.8 268.1 277.6 286.2 294.4 302.2 307.5 312.7 322.9 332.1 341.2 353.6 366.3 381 392.6 393.9 387.4 380.4 369.6 359.9 349.1 336.7 325 316.3 308.3 302.8 298 294.1 289.6 285.2 289.2 301.7 308 313.5 321.2 327.5 336.1 348.2 363.6 371.4 383.6 396.6 410 424.3 441.1 457.3 469.5 482.8 488.3 492.4 495.4 498 498.8 497.1 490.5 486.5 483.1 477.8
232.3 229.7 226.7 224 219.5 214.7 211.8 209.1 204.8 200.5 196.6 193.1 190 189.4 188.4 185.1 183.4 180.1 176.4 168.5 163.7 160.1 157.4 155.8 159.6 169.2 173 176.9 187 190 192 196 202.2 211.4 225.4 235.4 245.5 246.9 262.7 277.2 296 306.9 318 325.7 329.7 337.5 351.1 359.5 369.3 361.9 345.7 332.6 316.3 302 283.8 270.7 256.7 242.3 228.9 223.9 231.3 240.8 247 254.4 263.1 270.5 277.2 285 296.8 308.5 319.1 328.7 337.2 344.6 350.7 356.4 358.2 359.7 356.6 352.5 348.6 343.5 340.6 338.9 337.1 334.9 333.4 331 329.9 329.9 328.7 323.2 321.6 321.3 318.8 310.8 308.6 300.6 291.8 294.5 300.4 306.7 312.1 316.5 320.9 325.9 324.8 326 328.9 328.5 319.2 311.3 296.4 291.1 302.3 313.3 323.8 336 351.5 362.7 368.7 363.7 362.7 372.7 371.3 362.6 357 359 361.6 361.2 362.9 366.6 366.7 359.7 354.7 355.4 352 339.6 327.3 310.7 292.5 281.9 274.1 262.5 277.5 287.1 295.1 297.8 302.3 308 315.4 324.1 331.6 342.2 354.2 360.3 362 358.4 355.7 350.7 342.8 334.9 325.5 313.9 305.2 300.9 294.4 288.4 285.6 284.8 282.8 287.9 296.5 300.9 304.2 308.8 315.6 322.7 332.6 345.5 361.2 372.7 384.9 395.6 408 421.8 441.1 458 471.5 481.2 488.3 492.2 494.6 496.7 497.3 493.4 490.4 487.9 484.5 480.4
229.2 227.2 225.6 222 216.8 212.5 210.9 206.9 202.4 197.6 192.7 189.8 188 187.4 186.3 184.1 181.7 178.4 173.9 168.1 163.7 159.9 157.3 154.9 156.7 167.5 171.2 177.2 185.7 188.8 190.3 194.7 204.4 211.2 221 237.1 247.2 251.9 262.9 275.4 289.3 304.1 314.7 323.9 328.9 336.9 348.2 356.3 355.7 352.1 336.1 322.1 307.6 291.9 275.9 263.8 250.8 237.8 225.3 224.4 233.3 242.2 248 255.2 263.9 271.9 279.3 286.7 296.2 307.1 316.6 325.6 333.2 340.2 347 351.5 355.4 356.1 351.9 348.8 345.6 340.5 337.8 335.4 332.8 331.8 330 328.4 328.3 328.4 326.1 322.9 319.8 318.7 313.4 306 303.2 294.6 285.4 292.6 297.2 302.5 308.5 313.4 319.8 320.7 320.7 322.7 325 320.9 314.1 300.2 282.7 287.7 299.9 309.6 319.4 330.8 346.5 353.8 356.8 348.1 351.3 362.6 354.9 346.9 338 337.5 338 340.6 344.2 344.9 348 345.9 334.7 339.3 336.1 324.3 309.6 292.9 283.3 276.9 265.1 263.8 275.5 284.1 289.7 293.2 297.4 303.2 309 314.6 319.9 327.9 333.1 338.5 336.6 332.7 330.2 326.3 318.1 310.6 303.7 296.5 291.5 287.4 283.1 280.1 280.4 280.3 277.2 288.2 291.9 294.5 299.3 303.4 308.9 314.7 321.1 332.6 344.8 361.4 379.5 390.6 401.4 412.2 430.3 443.4 466 480.4 487.2 490.3 492.7 495.3 495.9 495.7 490.2 488.2 485.3 478.9
223.7 224.4 223.6 218.5 213.6 211.5 209.8 205.7 200.7 194.9 189.6 187.8 186.1 185.1 183.7 181.4 179.5 175.6 170.8 165.8 161.7 157 154.3 154.4 156.6 163.6 170.5 175.5 182.4 187.7 190.3 193.9 200.8 207.2 217.2 234.6 245.1 257 265.8 279.1 291.7 302.9 308.3 318.5 325.9 334.8 346.8 349.3 341.7 333.6 321.9 312 299.3 282.3 270.2 263.9 246.9 234.5 223.4 221.7 233.6 243.4 248.5 255.9 263.8 273.1 281.7 288.5 295.3 303.2 313.7 322 329.5 335.7 341.5 347.4 352.6 352.9 349.4 345.8 341.2 336.4 333.7 330.7 329.2 327.5 325.8 324.1 326.9 326.7 324.2 321.2 318.4 315.9 308.3 303.1 297 288.4 279.3 288.5 292.5 297.4 305.5 310 313.5 315.1 315.8 317.8 317.2 307.9 305.3 289.6 274.1 288.4 295.3 304.2 315.9 328.5 334.4 339.5 339.6 330.6 337.9 342.8 337.3 324.5 322.2 320 320.5 325.1 328 333.1 328.8 322.5 317 319.6 316.4 307.2 292.4 282.5 274.5 269 256.6 264.1 273.5 280.5 286.6 290.7 294.9 297.1 301.9 306.6 311 314.4 318.9 319.1 316.6 313.9 307 299 296.7 293.5 290.4 286.4 282.1 278.2 275 272.4 275.7 275 275.6 278.6 278.1 285.3 293.4 297.3 301.1 303.6 309.3 316.7 328 341.5 357.3 372.5 386.2 394.9 409 418.1 438.8 461.8 484.3 486.6 488.6 495.2 495.6 493.8 489.7 488.7 485.5 480.2
219.2 219.1 214 212.2 211.4 210.4 208.6 204.9 199.6 192.4 188 186.2 184.6 182.4 181 179.7 177.2 173.2 168.3 162.5 157.7 153.4 153.2 152.2 159 165.9 173.1 174.7 182.3 186.7 190 193.4 199.1 205.6 215.1 230.1 243.7 258.1 272.2 280.1 292.2 303.5 310.6 319.3 321.7 329.9 339.2 338.9 332.3 316.3 304.6 299 291.5 277.6 262.6 252.2 242.1 230.1 221.9 223.4 235.4 246.7 250.9 252.6 262.5 272.3 279.9 287.1 294 301 310 319.3 327.6 334.5 339.6 345.4 349.5 350.6 348.4 344.7 339.2 333.4 328.2 326.3 325 323.3 321.6 319.5 323.5 323.6 321.5 319.2 316.3 310.4 304.4 297.9 290.5 280.3 277.7 282.4 286.2 291 299.6 302 307.2 309.6 308.5 309.9 306.2 302.5 295.5 277.5 269 284.9 290.9 299.5 310.3 317.6 319.5 320 318.8 312.7 313.8 314.4 315.3 304.5 305.1 303.5 305.3 311 311.5 315.3 311.4 304.4 298.9 298.4 296.1 287.4 277.1 271.4 265.1 261.4 250.4 260.9 271.6 279.5 284.2 287.6 289.4 291.3 295.4 298.4 302.3 303.9 306.3 303.4 296.6 291.1 288.6 287 286.7 285.6 282.2 278.1 271.7 269.1 269.2 270.7 271.2 272.3 275.4 276.9 277.2 282 286.2 290 291.1 293.5 297.5 304.2 311.6 321.8 333.6 345.8 358.8 371 383.3 396.6 414.8 439.8 465.1 481.6 484.9 490.2 495.5 494 488.5 488 486.6 480.4
215.3 212.8 210.9 209.6 210.1 209.6 208.1 204.5 199.8 193.1 189.1 185.7 184.1 182.2 179.5 178.1 175 170.6 165.7 159.6 152.7 151.1 151.1 152.9 161.4 166.7 171.3 174 180.5 184.4 188.9 194.8 198.5 204.3 212.8 223.5 240.1 254 272.3 277.5 286.8 301.4 308.2 316.1 318 321.5 330.6 329.4 325.7 313.5 293.2 285.1 281.5 268.9 254.4 245.7 234.6 225.3 220.9 222.2 235.7 247.9 252.8 259.2 264.3 271.9 278.5 285.4 294.1 302 310.8 318.7 326.1 333.7 340.8 345.6 348.7 350.2 348.8 344.2 336.7 328.7 322.7 319.6 318.2 317.6 317.4 316.1 319 318.5 316.7 315.6 313.6 308.6 300.2 292.6 284.8 273.5 272.1 276.8 281 285.4 291.7 297.1 301.5 299.7 302.5 304.6 294.7 291.9 279.6 260 274.1 278.9 284.5 296 304.4 307.7 303 301.2 299.8 298.8 296.2 294.7 291.4 285.1 284.8 285.2 286.5 291.3 295.4 296.2 296 290.9 284.7 280.3 278.1 270.7 267.5 261 257.7 254.5 249.6 261.6 273.4 279.8 280.9 283.8 285.5 286.2 288 288.8 289.6 291.7 288.7 283.5 277.2 278.7 279.1 279.2 278.6 277.4 268 265.2 267.1 269.8 272.1 273.6 278.4 283.6 286 285.3 286.4 280.2 278.8 279 282.8 285.2 288.9 296.1 301.2 306.4 314.8 324 334 344.9 356.8 370.9 389 412.6 437.9 470.8 480.7 482.3 487.5 487.1 487.2 486.6 484.2 480.7
213.2 210.6 208.7 208.2 208.6 208.3 206 202.5 197 192.3 188.5 184.6 183 181.3 178.5 176.1 174 169.1 163.5 156.5 150.2 149.2 149.4 153.3 161.5 165.7 169 173.1 178 181.8 188.1 195.6 198 202.8 208.6 217.2 236.8 250.6 267.9 276.8 284.4 298.7 303.9 307.8 310.4 313.5 313.9 315.2 315.6 308.1 286.4 277.1 279.1 262 245 239.5 228.9 221 216.3 225.9 237.5 248.7 255.1 261 267.5 274.3 281.3 289.2 296.6 304 312.6 321.9 328.6 337.9 343.9 347.4 351.2 351.7 350.1 342.3 333.9 323.9 317.7 313.4 313.4 313.3 313 312.2 314.6 315.9 316.1 315.8 311.8 306.3 301.6 296.4 281.4 268.8 267.9 272.4 276.2 279.9 288 290.9 291.9 290.6 292.4 292.2 279.2 273.5 261.5 252 267.2 272.5 279.7 289 294.5 290.2 283.4 281.9 277.6 276.6 276.3 270.6 267 267.1 267.4 268.1 268.4 273.8 277.6 279.9 280.8 275.6 268.8 264 260.8 262.3 257.4 252.6 250 247.6 243.3 256.3 262.3 270.7 275.2 279.9 279.2 275.3 275.4 277.7 273 273.8 273 266.2 266.5 270 270.8 271 269.9 262.2 269.4 271.9 273.2 276.3 285.1 291.4 292.1 294.9 295 297 300.1 297.9 287.9 281.2 279.8 281.3 283 289.5 294.5 299.3 304.7 309.7 314.3 323.6 332.9 346.5 365 387.6 411.4 437.8 470.1 478 480.7 485.1 485 482.6 479.6 478.1
211.3 209 206.5 206.6 205.1 204.2 201.8 199.5 193.7 190.8 187.3 184.1 182.1 180.1 177 175.5 172.7 168.8 161.6 155.7 149.1 148.3 150 155.3 160.4 164.5 170 173.5 181.3 187.4 188.6 193 198.8 202.3 207.2 215.1 230.9 247.7 262 275 283.3 295.4 302 301 302 302.5 300.6 295.1 298.5 302 281.3 270.2 265.1 252.2 237.4 229.7 222.6 216.3 219.8 230.7 240.7 250.5 256.8 263 270.3 276.5 284.8 290.7 297.2 307.9 317.4 325.6 335.1 345 348.4 351.1 353.7 353.2 347.7 339.5 329.8 319.8 312.9 308.9 309.1 308.9 308.7 310 313 315.1 315.6 314.3 306.8 301.3 297.5 289.9 276.4 266.2 263.4 266 269.8 272.1 281.6 280.7 286 275.6 277.6 270.4 263.6 254.8 244.4 251.4 259.6 266.6 272.9 275.3 273.3 272.4 266.3 260.8 258.8 257.1 251.8 246.1 250.8 254.1 256.1 255.7 255.1 255.3 256.7 259.6 260.5 258 253.1 252 251 250.6 248.1 246.4 244.9 238.4 241.3 244.9 252.1 261.3 270 269.5 270 267.1 265.8 266.5 263.1 259.8 256 258.4 260.3 263.3 263.5 263.8 263.3 274.3 278.4 277.8 280 289 300.3 301.9 306.5 313.3 314.4 313.7 316.6 314 304.6 295.8 284.2 282.9 280.2 283.2 287.5 292.2 297.8 302 306.2 311.7 317.2 326.9 341.6 362.3 384.6 405 431 469.7 470.3 482.3 482 478.9 476.1 478.4
206.4 205 203.7 202 201.3 200.3 198.2 195.5 191.2 188.2 186.2 184 181.1 178.4 176 173.7 171 168.6 161.5 156.1 149.2 148.1 149.8 154.2 160.6 163.8 170.1 174.4 181 184.4 186.8 191.7 197.8 201.5 207 214.9 228.9 245.5 259.4 271.9 279 289.9 300.5 298.4 293.8 293.4 286.1 279.1 279 282.1 273.5 257.1 249.1 241.3 231.1 222.5 216.3 217 226.1 236.4 244.9 251.8 258.5 266.6 274.2 279.7 286.4 294.4 305.2 313.5 323.5 334.2 346 354.7 356.7 357.1 358.7 352.4 344.8 335.4 323.7 314.6 307.1 303.4 303.7 304.1 304.8 307.3 309.2 313.9 314.2 307.5 299.4 295.2 292.5 284.5 272.1 261.8 256.4 260 262.4 263.2 267.1 270 264 259.4 257.8 255.8 246.7 239 224.7 245.7 251.3 259.3 258.9 258.5 254.2 248.9 243.9 239.2 239.5 238.3 236.1 238.3 242.2 244.6 245.8 245.7 245.2 244 242.5 243.1 242.6 242.5 245.1 243.7 241.2 241.8 239.1 236.7 240.6 248.7 251.3 246 247.3 256.3 261 259.5 261.6 259.2 258.1 257 253.7 258.6 263.3 264.8 265.2 263.5 260.9 261.7 276.7 284.5 287.6 286 291.2 301.7 307 312.2 320.7 325.4 324 330.9 331.7 329.5 322.2 312 302.2 296.2 287.5 281.9 281.6 284.3 290.6 294 298.8 304.2 309.6 314.2 323 336.1 357.7 380.1 397.3 430.2 442.7 465.8 477.3 475.9 474 475.3
201.6 200.2 199.4 197.5 197.5 196.4 194.6 191.6 188.8 187.2 185.6 182.9 180.2 178.5 177 173.2 169.9 165.6 160.6 153.9 147.9 147.1 149.2 153.4 158.8 163.5 170.5 175.2 180.4 183.8 186 189.7 193.8 201.5 207.2 214.7 226.7 244.4 257.4 268.6 276.7 281.4 296.4 298.9 289.9 286.5 275.9 267.3 264.1 261.5 251.9 246.5 241.1 234.7 223.1 215 215.9 223 231.9 239.7 246 253.3 261.5 269.7 278.4 284.4 291.2 298.3 312 321.6 335.2 346.7 358.1 363.5 365.4 365.5 361.8 352.3 340.9 329.9 316.8 307.4 301.8 298.2 297.8 299.3 300.3 302.7 306.8 310.2 308.1 302.3 295.3 290.9 289.7 286.6 277 263.3 245.8 250.8 251.1 255.7 256.8 257 251.1 242 237.5 233.7 229.2 219.4 220.1 235.5 237.9 241.8 243.2 241.2 237.9 232.6 229.3 226.6 223.7 222.6 222.5 226.1 231.2 233.8 234.9 235.4 234.1 230.4 231.4 231.1 234.3 236.6 239.1 236.4 234.3 231.3 237.1 244.6 253 258.8 261.7 257.9 248.4 250.6 250.8 250.1 251.8 252.7 252.1 255.7 257.8 261.8 266.6 271.3 275.3 278.9 280.9 281.8 281.2 293.6 297.6 294.9 302.7 307.6 316.8 321.7 330.4 335.1 337 346.6 344.7 343.1 336.1 325.2 317.5 313.4 301.7 293.1 285.8 283.8 283.2 284.5 291.6 297 302.5 305.2 309.8 315.1 331.7 348.5 366.3 385.8 409.4 432.4 457 466.4 471.7 472.8
196.7 196 194.8 193.9 193.3 192 190.7 189 186.4 185.8 186.1 181.8 180.4 179 177.4 172.9 168.4 164 158.2 152.1 148.2 146.2 147.9 151.8 158.2 165.2 170 173.3 179.3 183.6 187.8 190 193.6 201.7 206.3 212.7 225 241.2 256.1 265.6 275.2 276.8 285.3 287.6 284.7 275.4 268.3 259.7 253.8 249.8 241.5 238.4 233.7 226.2 215.4 213.3 222.3 228.6 234 240.1 246.3 255.2 265.5 274.3 282 288.1 294.6 304.5 319 333.9 347.9 359.7 366.9 370.5 373 370.8 364.5 352.2 336.5 322.7 309.5 301.2 297.1 293.1 291.3 295.2 294.7 299.3 301.1 304 305.9 301.3 292.3 287.5 286.1 282.3 275.2 263.8 243.9 239 236.8 244.8 245.5 238.4 231.4 225.5 220 214.7 210.4 200.6 219 224.4 226 226.3 226.3 224.3 221.5 218.7 210.4 212.8 216.9 220.7 221.7 220.8 218.8 219.5 220.8 222.3 224.8 225.1 227.1 224.3 227 230.6 231.7 230.1 231.3 234.3 247.6 255.4 263.2 269.9 274.2 272.1 263.9 258.4 252.1 257.8 258.7 258.7 258.1 261.6 265.4 268.9 273 279.1 283.3 288.8 293.2 297 296.4 304.3 309.1 308.2 313 322.2 327.2 332.9 337.7 343 350.8 353.9 354.6 352 343.6 342.4 332.7 325.7 319.6 305.1 299.5 291.4 282.8 283.7 284.7 289 294.8 298.3 300.6 301 306.2 320.3 339.1 352.1 379.8 399.8 422.7 441 463 464.8
190.2 187.4 186.1 186 185.1 183.8 183.3 182.5 178.8 179.4 182.2 179.2 179.3 178.7 176.8 170.6 165.6 161.2 157.4 150.8 147.5 145.4 145.8 149.7 158.2 165.5 168.5 172.8 177.5 183.3 188.3 190.3 194.8 202.9 206.3 210.2 223.3 238 252.7 262.2 272.1 276 279.2 280.8 278.8 273.5 266 255.4 247.1 241.4 236 232.3 227.1 217 208.6 218.6 224.5 230.4 235.5 241.5 250 260.2 270 279.2 285.6 291.7 299.5 308.1 328.5 344.6 357.1 366.3 372.5 377.4 377.8 373.2 365 349.3 332.3 315.6 303.3 295.6 291.5 287.5 285.2 289 290.8 294.8 296.9 301.9 304.1 296.7 287.7 284.3 282.3 278 270.6 261 244.6 228.4 221.3 218.8 222.2 218.1 212.7 208 205.6 192.2 191.1 194.3 201.8 209 210.3 210.5 212.4 207.8 210.8 214.8 218.7 222.8 227.8 230.5 230.9 230.2 228 228.2 227.1 229.1 232.3 233 233.6 232.1 230.6 229.6 232.4 233.6 231.8 242.8 251.9 261.9 270 275.2 277.2 275.2 271.7 266.4 258.6 265.5 265.3 271.3 272.1 271 275.1 278.7 283.7 288.1 292.7 296.5 303.6 308.8 312.2 312.7 323.5 326.9 326.5 333.3 337.7 346.7 349.9 353 361.1 363.9 363 362 359.9 351.7 343.6 333 324.6 321.7 314.2 304.6 292.4 283.4 283.8 284.3 285.9 291.2 291.6 290.8 293.8 306.5 321 333.2 352.3 371.4 392 436.4 456.3 454.8
193.4 194.7 195.8 192.2 188.7 186 183.4 180.2 177.5 176.1 175.4 174.4 174.7 176 172.2 165.3 161.7 156.1 153.3 146.5 145.5 144.7 144.9 148 155.9 161.9 164.5 170 174.5 181.4 188.4 191.4 197.7 206.8 210.4 207.9 220.6 233.6 245.5 257.5 268.3 274.9 277.6 276.7 273.9 271 267.7 257.3 244.2 237.9 232.6 227.3 218.5 206.8 212.1 219 224.3 230 237 245.6 255.2 264.5 274.3 281.4 288.5 296 303.8 316.5 338 354.1 363.5 372.7 379.8 383.5 380 373.8 363.5 347.8 328.5 312 296.8 290.7 286.9 282.5 280.3 282.3 284.3 290.6 294.1 298.7 300.6 290.6 284.8 281.3 275.9 271.7 263.9 258.2 244.3 223.6 212.5 201.4 192.9 189.8 188.5 189.7 187.5 196.7 202.9 204 201.6 198.7 202.9 205.1 205.7 214.8 221.9 224.8 228.4 233.3 237.3 240 243.3 244.4 244.9 239.2 237.7 238.7 239.9 243.3 244.6 236.6 238 241.8 242.6 241 234.7 244.6 252.8 259.8 265.8 270.2 271.7 271.6 270.1 266.2 262.5 273.1 274.3 277.3 278.2 277.8 282.9 291.5 296.7 302.4 307.4 313.1 321.2 328.6 332.6 333.4 339.5 344.2 345.5 346.8 352.5 354.6 361.4 365 368.2 370.6 370 367.5 362 354.1 348.4 345.8 339.9 333.1 325 315.3 306 293.1 285.1 285.4 286.2 286.3 286.6 287.3 288.6 293.4 301.2 312.3 329.4 345.5 369 399.8 438.9 450
196.6 197.8 197.7 196.5 192.8 189.1 185.8 182.5 179.8 177.6 174.9 173.9 172.1 169.2 167.8 164.2 157 153.6 154.1 148.1 146.2 144.3 143.5 147.9 150.2 156.2 161.9 166.2 172.3 180.2 187.3 192.4 197.1 205 208.6 209.2 217 233.3 245.4 257 266.9 275.9 277.4 274.8 273.4 271.1 268 257.6 244.3 234.6 229.3 219.9 212.8 201.7 212 219.4 224.8 230.5 238.8 249.4 257.1 266.7 276 283.5 290.4 298.1 306 320.1 340.8 355.8 366.6 375.8 381.7 385.6 380.1 371.1 361.6 346.6 329.2 311.9 294.8 286 282.5 277.6 274.6 275.5 279 286 287.9 291.8 292.7 286.5 282.8 277.1 270.1 263.5 260.8 255 244.8 224.5 197.5 186.3 185.2 193 197.4 198.2 203.4 209.4 216.7 217.9 220.1 220.5 223.2 226.4 229.7 233.9 239.5 241.3 241.9 248.4 254.1 256.9 263.5 264.3 258.1 252.8 245.4 244.5 246.8 249.7 246.6 245 251.5 248.9 248.1 244.4 240.1 249.7 253.4 258.4 263.1 269.3 272.3 273.2 270.4 271 275.8 279.4 284.8 286.5 289.2 292.3 295.6 304.3 311.1 319.8 335.2 345.3 349.3 355.5 355.3 352.5 354.6 361.8 360.1 362 362.8 361 369.3 372.7 374.9 377.1 374 363.8 367.6 358.5 357.4 350.8 348.5 342.4 333.7 325.9 320.6 308.1 295 286.2 287 287 287 287.7 289.1 290.6 297.8 306.3 317 326.6 345.1 371.3 403.3 427.6
198.7 198.9 198.8 197.4 194.3 191.2 188.3 185.5 184 181.6 181.2 180.1 178.4 175.8 170 160.5 158 159.2 155.1 148.7 146.7 144.7 142.8 146.3 146.7 148.8 155.5 163 170.6 179.7 184.1 190 194.7 201.1 202.5 203.2 213.9 231.5 245.4 254.8 264.1 271.1 276 276.2 273.3 271.4 269.3 255.6 242.7 230.9 226.8 216.9 208.4 201.1 213.1 220.3 225.8 232.6 242.9 250.2 259.1 268.7 279 285.3 293 300.7 307.1 318.2 339.7 354.4 365.3 374.5 382.4 384.8 378.5 367.7 358.7 347.7 332.8 314.2 294.9 283.1 276.5 271.6 268.6 269.6 271.9 278.9 283.4 288.1 285.5 283.4 281.1 273.7 264.3 261.1 258.7 251.3 240.8 220.3 194 181.2 196.4 203.2 208.3 210.4 214.8 220.6 228.1 233.3 238.1 242 244.3 247.5 253 255.1 257.7 258.8 253.5 263.5 271.3 272.8 275 274.4 271.9 265.8 259.5 256.2 256.9 254.2 250.4 252 256.7 255.3 254 245.2 250.7 254.1 257.7 262.2 269 275.5 278.7 279.8 275.3 277.6 282.1 288.8 296 297.5 297.9 305.1 312.5 317.7 326.7 346.5 364.3 366 361.9 364.2 372.2 368.7 365.4 369.6 369.9 369.8 369.9 374.6 376.1 379.9 381.4 380.9 375.7 377.2 375.4 369.8 365 361.1 359.6 352.5 342.7 335.3 329.9 322.3 309.1 295.6 287.9 288.2 287.7 288.3 289.6 290.4 296.3 301.1 307.3 312.9 326.4 347.1 371.6 398.6
199.9 200.1 199.4 198.3 195.9 193 190.4 188.8 187 187.1 185.6 184 181.8 176.5 172.4 168.3 165 162.5 156.2 148.5 145.9 144.1 143.5 144.9 144.8 145 152.5 161.8 170.4 177.8 182.5 186.3 191.6 198.7 199.2 202.4 212.1 229 243.7 252.7 263 273.1 277.2 278 276.4 273.3 270.8 258.1 241.6 229.3 222.2 213.8 201.3 205.5 213.8 220.4 226.1 233.7 241.6 250.1 260.1 271.1 279.1 284.9 292.7 300.7 307.1 315.5 337.1 351.7 364 373.4 380.4 381.3 373.9 365.6 357.3 347.4 333.5 315.3 296.2 279.1 271.8 267.5 263.5 262 263.8 272 277.6 282.6 279.6 279.8 276.6 267.8 259.5 258.8 253 246.3 236.3 212.1 186.6 186.9 198.6 206 211.8 218.4 223.5 229.3 237.4 248.4 255.8 259 261.6 266.4 272.8 276.9 278.6 275.8 268.5 278.3 286.4 287.3 286.7 285.7 283.3 280.3 275.1 270.7 266.5 261 260.9 265.5 266.3 265.9 263 252 255.1 260 266 269.8 275.7 280.5 284.2 283.1 284.3 285.4 289.9 293.1 299.5 303.6 306.9 314.4 322.2 330.2 344.7 362.6 374 372.3 373.2 377.3 381.9 379.1 377.6 372.9 376.7 378.1 380.7 382.4 383.8 386.9 387.3 387.2 376.8 384.3 381.3 377.4 374.1 371.3 370.1 364.4 357 347.3 340.2 333.7 324.5 306.2 296.7 292.7 290 288.7 290.2 291.3 292.7 296.3 298.7 303.1 314.4 331.8 353.6 375.2
201.3 201.1 200 199 196.8 194.3 193.7 192.8 191.7 190 187.3 185.8 183.1 180 175.2 172 169 165.3 157.1 149.6 146.2 143.4 142 142.7 142.9 143.3 149.9 160.4 169.6 174.3 177.9 181.9 189.2 194.5 196.5 202.5 213 224.8 236.8 251.1 260.6 268.7 278.2 278.6 276.7 273.1 272.6 262 241.9 223.9 217.4 211.5 197.6 205.2 212.9 219.4 224.7 231.2 239.2 247.6 257.3 269.7 276.7 282.5 290.4 297.5 303.9 311.2 331.2 349.2 363.6 371.9 377.8 375.1 368.9 361.3 353.6 344.4 330.7 314.6 296.8 276.9 267.2 262.2 258.1 253.7 256.8 262.6 269.1 274.2 274.5 273.1 267.4 258.7 254.3 252.5 246 237.4 225.2 204.2 179 187 198.2 210 214.1 221.8 232.1 238.7 247.2 258.2 269.5 273.1 276.3 281.5 287.9 294 293.5 293.6 285.3 296.4 301.9 302.3 302.4 297.6 295.9 295.9 288.4 280.6 277.1 274 271.4 273.8 275.2 276.5 272.3 258 262.9 270.4 274.9 279.1 282.8 285.6 288.4 287.1 289.6 291.8 296.4 300.5 301.2 309.6 316 323 331 339.7 355.5 372.9 381.2 378.9 378 380.7 381.7 382.2 382.4 382.5 382.4 385.3 388.8 390.3 390.5 391.8 392.9 394.3 393.8 391.1 385.4 386.1 384.3 382.9 379.9 376 370.3 359.8 350.3 340.8 324.9 323.6 311.7 305.2 298 292.3 290.8 291.7 292.8 293.8 295.1 297.5 303.3 318.2 336.8 373.1
203.9 203.7 201 199.1 196.9 195.5 196 195.5 193.4 188.9 187.1 186.2 184.6 181.8 178.4 177.3 174.5 167.5 160.5 154.1 149.1 145.7 142 140.9 141 141.7 146.6 153.7 159.9 165.5 173.5 181.2 187.8 190.1 192.6 202.9 214.5 225.2 235.8 248.5 257.2 266.1 276.7 281.2 278.7 275.9 274.7 267.1 251 231.6 217.6 210 199.3 203.7 209.4 215.3 222.4 228.8 236.7 244 252 266.3 271.9 277.8 284.2 292.2 299.1 306.2 323.7 343.4 357.6 364 370.3 366.8 362.2 356.4 348.1 339.3 328.8 313 297 277.4 261.4 256.2 253.1 251.9 249.6 251.7 259.1 265.1 267.4 265.1 259.2 252.8 252.7 249.3 243.5 234.5 224 204.2 178.1 185.2 200.2 211.6 216.8 226.8 238.8 249 252.8 262.4 272.6 277.1 280.3 290.8 300.5 310.5 311.3 306.9 301.3 315.3 317.1 318.2 318.2 313.2 309.4 307.2 300.3 291.1 286.6 280.9 280.5 282.2 282.8 282.3 279.5 274.5 265.9 277.1 282.8 288.3 289.7 290.5 291.3 291.5 294.5 297.9 302.2 304.7 308.3 312.7 316.9 326.1 337.1 348.3 369.3 376.1 378.3 380.6 381.8 387.1 391.5 389.3 388.2 388.7 388.3 392 394.3 397.2 395.9 396.3 398.6 398.1 399.9 397.1 392.9 393.8 393.2 391.7 387.5 383.1 377.1 367.5 354.3 343.6 338.9 334.4 326.2 321.7 313.4 307.9 301 296.6 293.1 294.7 295.6 296.7 299.3 306.7 319.9 346
207.3 208 203.1 201.1 198.5 197 197.5 198.4 195.6 190.2 187.9 187.1 186 183.6 182.2 181.9 176.2 170.1 163.6 157.3 151.8 147.3 143.9 140.9 139.8 141.1 142.8 149.2 156.1 164 172 178.7 184.3 186.2 189.8 202 215.2 227 236 245.1 254.5 264.9 275.9 281.8 281.1 279.4 278.3 277.1 263.1 242.5 222.8 209.6 199.1 201 206.7 212.6 219 226.5 233.6 239 247.8 261.4 266.3 270.6 277.6 286.7 292.5 299.9 316.3 332.5 343.7 351.6 356.5 355.5 350.5 346.1 338.5 333.5 324.6 312.5 297.6 279.9 259.7 249.1 245 242.3 240.8 242.8 250.8 256.2 260.4 260.4 255.3 253.1 253.9 252.1 242.3 230.2 213.5 198.4 183.9 180.4 198.2 211.4 217.9 229.7 240.1 253.9 258.9 265.5 271.2 276.6 287 299 312.2 323.3 324.3 321 315.3 327 332.1 332.6 330.1 325.8 320.2 317.7 313.5 300.5 293.9 286.8 287.3 289.8 291 288 286.7 285.9 279.7 279.3 287.6 291.5 292.2 292.6 293.6 296 300 303.6 305.6 308.5 312.7 319.7 324.9 330.8 340 350.4 358.9 365.5 374.2 380.6 386.3 392.4 397.6 395.4 395.4 396.5 394.5 398.8 401.4 402.9 401.5 401.4 403.3 401.5 405.8 402.3 401.4 402.1 399.9 397.7 393.2 387.2 380.6 369.4 361.9 349.8 348.2 344.1 338.6 336.9 329.3 328.7 323.4 313.7 302.8 298.9 296.9 297.2 300.7 305 309.1 318
210.8 210.9 206.7 204.7 201.1 200.8 202.5 200.5 197 191.5 189 188.1 187.1 185.5 184 181.8 176.9 171.6 165.9 158.7 153.7 149.1 146.7 143.1 139.2 140.3 141.3 146 156.5 160.9 168.3 175.1 179.7 184.4 190.7 200.8 212.2 223.5 232.5 242.4 250.5 261.3 274.1 283.2 283.9 283.6 284.5 284.9 271 249.3 229.4 212 200.5 196.6 203.7 210 215.6 222.5 228.1 234.4 243.9 254.8 259.6 263.7 270.6 280.4 287.6 295.9 309.1 320.6 327.9 334.8 338.8 339.7 336.2 332.9 329.3 325.3 319 308.9 296.5 278.6 261.3 242.8 236.4 232.9 233.8 234.4 240.4 250.5 256.5 256 252.3 251.7 255.1 252 238.1 223.7 206.6 193.6 181.1 172.9 197 209.1 220.7 233.2 243.6 255.8 264.9 269.9 273.5 282.4 297.6 310.2 323.6 331.9 334.6 330.5 330.4 341.6 344.8 344.3 338.5 335.4 330.8 329.7 320.4 301.1 294.6 292.1 291.9 290.7 290.2 290.4 290 275.5 275.3 285.7 290.6 292.1 293 294.8 297.2 300.1 303.4 306.1 308.8 312.1 316.9 322.7 328.4 338.7 348.5 355 362.4 369.5 380.1 388.8 392.6 394.9 397.1 399 404.5 403.8 403.3 403.6 406.6 407.7 407.7 408.2 411 402.3 409.4 408.8 408.9 407.9 405 401.5 395.7 389.8 381.3 376.4 367 359.8 356.2 352.2 349.3 342 338.2 339 340 333.4 320.8 316.2 305.2 300.2 300.8 305.4 314.2 316.8
215.2 214.8 211.4 207.3 205.6 204.8 204.7 200.9 197.1 192.1 190 189.1 188.3 187.9 185.9 182.4 177.6 171.8 165.6 159.9 155.2 151.1 149.8 144.2 140.9 139.4 140.2 144.5 153.3 159 165.7 172.3 178.3 185.4 192.3 197.9 208.7 218.2 228.7 237.9 245.6 256.5 269.6 280.7 284.6 288.5 292.7 289.5 277 256.9 233.9 215.4 203.7 191.5 199.9 206.8 211.8 218.1 224.3 230.4 237.6 246.7 253.2 257.7 264 274.1 283.9 292.8 303 311.6 316 318.6 320.9 323.6 324.5 322.4 318.5 316.3 311.2 303.3 292.5 274.4 259.7 237.9 227.5 218.3 228 227 231.7 247.8 251.1 250.3 250 249.8 252.3 247.4 230.7 214.1 199.4 188.5 177 172.6 196.9 211.5 222.8 234.2 247.4 257 268.2 272.7 278.5 290.6 306.6 323.3 335.9 341.8 345 339.7 344.9 353.8 352.9 351 349.4 345.3 340.9 336.9 322.9 303.2 304.5 295.3 290.4 288.3 287.9 288.5 287.2 277.6 283.4 288 291.2 292.2 294.6 296.5 299.3 301.8 303.7 306.4 310.4 315 320.4 327.2 334.8 342.1 350.2 358.6 367.8 378.6 392.8 404.5 398.8 398.2 401 410 411.3 412.5 410 411.5 413.5 413.7 414.9 413.5 414 412.4 415.4 414.3 413.5 411.3 408.5 403.1 397.4 390 385.7 376.2 371.6 368.7 362.5 358.4 354.7 346 344.2 347.2 349.1 347.4 344 341.1 327.5 311.4 306.3 313.4 327.7 334.7
219.8 219.8 215.9 211.7 211.6 209.9 206.7 201.4 196.4 195 191.8 190.7 189.9 189.2 186.6 183 177.8 171.3 166 162 157.4 153.7 150.9 145.7 141.2 138.6 138.4 141.3 149.5 157.6 162.2 170 175.5 183.5 189.4 196.4 202.1 210.5 222.7 233.4 242 252.8 264.8 278.1 283.5 288.4 293.9 290.1 280.5 264.9 237.9 218.4 205.2 193.6 195 201.8 207.8 214.2 220.4 226.9 233 240.2 247.1 254.2 261 269.6 280.5 291 297.8 302.6 304.8 303.4 305.9 308.9 311.5 311 307.4 305.3 301.5 294.2 283.3 269.5 255.8 233.5 216 212.2 219 219.1 225.3 241.7 246 249.5 248.8 248.3 249.4 241.3 222 202.9 191.5 183.2 173 175.9 202.3 213.2 224 236 248.4 258.3 271 275.5 285.3 301.1 318 334.9 344.1 348.5 349.3 342.6 355.1 360.9 358.2 356 353.7 347.7 342.8 336.1 323 319.9 310.8 303.2 292.7 285.1 284.2 283.6 277.9 284.1 287.9 289.9 292.8 293.2 296 299.1 302.1 305.3 307.4 308.5 312.9 317.8 324.9 334.4 340.2 346.6 355.2 365.2 374 384.5 397.8 407.6 404 402.3 404.8 412.5 415.5 418.3 417.2 419 420.6 423 423.4 420.4 419 414.2 420.8 420.2 416.2 413.6 410.5 404.3 398.5 392.6 380 385.5 381 375.8 371.9 362.7 361.3 357.7 355 355.3 356.5 354.3 353 355.9 347.9 329.8 322.2 321.1 339.6 348.3
225.7 225.1 222.4 219 218.6 214.6 211.6 205.9 200.6 198.8 193.9 191.7 191 190.4 187.9 184.4 180.6 172.9 167.6 164.2 159.4 155.4 151.5 146.3 144.5 143.1 138.6 137.4 144.3 151.3 158.1 166 171.6 181.3 186.3 195 202.2 210.2 218.4 228.4 237.4 247.8 260.5 274.9 281 285.8 292 290.1 284 268.7 245.2 222.6 206.7 194.9 189.9 196.5 203.1 209.7 217.3 223.8 229.2 238 244.7 253.1 260.2 271.8 279.8 289.6 292.2 293.3 292.1 289.4 289.5 294.2 297.5 297.3 296 294.5 290.6 281.3 266.6 258.7 249.1 228.6 206.3 209.7 212.4 212.9 220.6 233.9 243.7 248.4 246.6 245.2 246.3 235 213.2 196 185 176 170.2 193.1 204.3 214.2 225.6 237.4 249.2 260.5 270.6 279.4 294.5 311 328.4 341.1 348.9 351.4 348.5 346.9 356.7 362.3 359.7 358.3 357.2 349.8 341.2 332.4 328.1 325.6 319 306.7 295.8 284.9 282.2 278.9 282.8 290.4 292.2 292.5 295.7 296 298.8 303.1 305.5 307.9 309.9 310.8 315.3 320.1 329 336.4 342.8 348.8 357.6 368.8 377.9 391.5 401.3 403.6 406.3 404.8 406.9 416.1 420.2 424.5 426 425.9 426.7 428.3 427.3 426.3 425.1 416.5 425.3 424.3 420.5 416.7 412.4 406 399 392.8 393 392.2 388 383.4 378.2 370 369.6 366.2 361.8 361.1 361.1 359.9 357.6 359.6 355.8 343.1 337.9 324 345.9 362.9
230.9 230.4 230.5 227.1 223.4 218.9 215.4 210.2 206.2 202.6 195.7 192.1 191.6 190.7 188.4 185.1 182.1 174.5 172.1 167.9 162 157.9 154.7 149.9 148.2 145.4 140.2 137 139.6 146.3 152.7 160.5 168.9 178.6 182.2 190.9 202.4 209.6 215.3 222.9 231.4 240.3 255 268.4 275.4 280.6 286.2 288.7 284.1 270.4 247.3 225.7 209.3 197.2 188.5 188 196.4 204.9 213.1 220.4 227.7 235.2 241.9 252.3 263.8 273.2 281 289.4 288.9 282.6 276.7 273.2 273.3 276.7 285.3 287 284.4 281.9 280.3 269.9 253.1 240 236.7 220.1 194.1 200.9 203.1 210.1 217.8 229.6 242.9 246.4 244.6 242.7 238.8 223.2 207.5 191.1 179.7 167.3 180.7 196.1 205.3 216.1 226.8 237.6 251.2 261 273.4 288.4 305.4 316.6 334.2 345.2 352.2 352.6 349 349.4 357.6 360 361.4 362.5 358.6 353.2 340.7 337.5 335.2 328.5 319 307.8 298 285.5 280.7 287 294.2 297.9 299.5 298.3 298.6 299.4 300.3 303.2 305.9 308.1 309.7 311.6 316.1 322.6 328.9 335.4 342.3 349.4 358.9 371.6 383.6 394.9 405.1 409.9 412.8 410 411.4 420 427.3 433 436.2 434.7 433.2 433.5 433.3 431.4 430.7 428.3 429.7 427.3 422.3 417.7 413 405.1 402.6 399.4 400.1 400.4 397.1 391.1 386.1 383.8 379.9 377.3 374.1 369.6 365.4 362.6 364.9 365.1 360.2 351.9 346.8 335.4 356.6 370.3
237.5 237.4 236.2 233.1 228.5 221.1 217.8 213.6 209.3 205.9 200 194.4 192 190.5 189 184.6 179.4 176.2 173.7 169.9 165.4 163.5 159.9 154.9 151.8 148.2 142.7 138.7 134.4 137 146.4 154 164.6 171.6 177.7 188.5 198.8 206.4 213.1 218.1 223.5 232.2 247 261.4 269 274.2 278.6 285.1 281.7 273 251.7 228.3 212.4 200 190.2 185 188.9 197 205.5 216.5 227 235.1 246.9 256 266.1 273.9 282.3 288.1 281.4 270 261.5 257.5 256.3 262.3 274.2 278.8 275.6 269.5 263.8 243.2 229.6 216.4 207.7 199.7 182.8 191.8 189.3 207.5 218.2 223 229.5 240.5 240.6 237.8 227.6 214.1 198.7 182.3 170.9 171.7 188 199.4 212.3 220.1 228.5 239 252.3 264.1 281.5 297.8 308.2 323.3 338.9 348.8 353.3 352.5 349.6 355.4 359.8 360.5 361.3 362.2 356.6 349.3 344.3 342.6 338.1 329.5 321.2 308.1 296 282.6 288.5 295.8 299.6 301.2 301.5 298.9 298.6 298.2 298 301.6 302.4 304.1 308.9 312.2 316.6 322.2 327.8 334 343.3 353.3 368.9 378.2 389.6 414.3 415.9 420.4 419.6 415.3 416.8 427.5 434.5 450.2 455.1 449.5 446.2 445.9 443.2 436.5 434 431.4 429.4 431.1 425.1 421.7 417.6 402.8 409.5 405.1 407.5 409.3 406.4 397.9 398.9 396.7 398.1 393 388.4 386.7 379 373.3 373.1 372.9 365.6 355 341.7 354.3 357 372.6
245.1 243.6 241 237 232.4 227.1 222.1 217.3 213 208.9 202.4 197.8 195.4 192.6 189.9 183.1 178.9 176.2 173.5 170.7 170.4 168.7 163.7 160.2 156.1 151.1 144.8 141.2 135.3 130 136.5 147.6 158.6 166 174.9 185.6 193.9 204 210.2 215.4 220.7 226.7 239.2 253.1 261.8 268 273.3 278.7 278.6 273 250.7 231.2 215.4 201.5 192.7 185.6 183.1 195 205.1 214.9 224.9 237 245.5 257.8 268 274.9 281.5 284 274.3 259.3 246.1 237.8 239.6 247.6 259.6 261.4 261.6 252.5 241.7 214.3 195.1 182.5 174.4 172.4 167.6 176.4 182.4 200.2 211 214.7 210.4 225.6 228.9 227.3 218 204 188.6 173.5 165.5 177.9 189.9 204 219.4 227 234.9 246.5 256.1 268.9 286 305.1 315.6 328.7 342.6 352.3 353 350.6 349.6 357.4 360 360.5 360.3 358.7 353.8 351.6 349.5 341.3 335.4 329.4 317.7 303.1 291.8 285.3 291.6 296.2 297.8 296.8 295.8 295.2 295.3 295.7 298.5 301.1 303.7 305.9 307.8 313.7 316.7 321.1 327.1 335.7 344.1 356.3 367 378.6 399.8 421.2 418.3 423.2 424.9 422.3 424.1 430.7 442.5 454.6 461.8 464.5 467 458 455.9 442.3 437.3 430.9 433.5 430.9 427.3 423.7 418 414.8 414.5 412.8 415.6 417.1 415.6 405.7 411.9 416.8 419.5 416.9 407.5 405.4 398.6 390.5 385.5 384.1 376.2 363.3 350.3 364.6 373.1 378.2
251.8 250.6 246.2 241.8 237.2 231.8 225.3 221.1 216.3 210.3 203.2 199.7 196.4 193.2 189.6 184.4 182.1 179.5 174.5 171.8 171.4 169.2 166.8 164 159.4 152.6 146.2 140.6 135.2 128.8 135 143.7 154.6 161.6 170.8 182.6 192.6 201.2 208.4 213.9 219.4 223.4 228.6 244.9 255.2 262.4 267.1 270.9 274.3 270.1 254.1 233.8 219.1 204 196.4 188.6 181.4 191.7 202 212.5 223.6 232.6 242.9 258.1 267.9 274.5 278.2 279.9 268.4 248.2 231.7 224.3 223.5 233.3 244.7 242.4 241.1 227.2 209.5 191.3 172.9 158 146.6 149.1 157.1 160.8 175 190.4 201.4 202.9 198.3 203.9 211.3 212.4 205.9 192.2 175 163.7 175.8 185.8 196.1 210.9 224 231.4 242.5 256.6 263.5 271.3 287.4 310.9 329.4 340.5 348.3 353.1 352.8 350.2 351.7 357.4 358.7 359.1 358 357.1 355.1 355.6 349.1 339.9 331.7 322.6 311 300.1 290.4 286 288.9 287.4 290.1 288.6 291.9 292.4 295.6 301.6 305.7 308.2 309.4 310.2 309.7 308.5 314.8 320.1 327.1 337.6 347.2 355.5 367.8 385 406.6 420.9 427.8 433.5 430.5 425.1 429.3 436.2 450.1 469.3 478.5 496 481.7 465.7 459.8 443.7 437 437.4 436.7 433.2 430.9 428.2 416.1 421.8 420.9 419.6 423 425.6 424.6 415.2 426.4 436.3 437.7 431.7 427.3 422.4 417.7 408.7 400 395.9 386.6 373.2 352.4 369.1 379.6 386.1
257.4 255 250.2 246.2 240.4 234.1 228.1 223.6 217.9 211.9 206 201.4 198.3 194.5 190.4 188 185.4 183.4 178.9 172.9 169.2 166.5 166.3 165.4 159.3 155.1 146.2 140.1 132.8 127.6 131.3 136.9 148.2 156.7 164.1 178.8 189.8 198.9 207.6 214.5 219 222.5 226.2 236.7 249 256.7 258.4 261 263.8 263.9 250.8 233.7 220.7 207.3 199.3 189.5 180.4 187.6 197.4 207.2 221.3 232.1 242.5 255.1 263.1 270.3 273.8 277.8 261.8 242.4 220.2 213.5 211.5 217.4 223.5 219.5 212.5 198.2 185.2 168.9 155.7 143.1 154.7 156.1 146.4 149.1 156.7 175.3 184.6 190.6 190.9 194.1 193.2 197.9 190.7 178.7 163.1 175.3 185.9 190.9 201.3 216 230.2 240.6 250.8 260.8 267.3 280.2 304.4 329.8 339.7 350.1 358.4 355.1 353.2 351.8 353.1 358 358.9 358.9 358.1 358.5 359.5 355.4 343.6 333.8 323.9 310.9 300.2 294.4 287.3 289.6 287.2 290.7 292.9 294.1 296.6 302.4 307.3 315.1 315.1 315.5 319.9 318.3 316.7 316.3 312 319.1 327.2 337.4 347.9 358.6 373 400.3 419 434.6 431.1 434.2 428.4 428.5 433.9 439.9 461.9 479.6 494.1 488.9 478.3 463.7 452.7 442.3 437.3 438.8 439 436.3 436.3 433.3 421.4 427 426.7 426.6 430.8 434 434 427.7 439.6 446.6 447.3 442.8 439.2 437.2 429.9 424 414.7 404.9 391.9 380.9 356.9 375.7 386.1 391.8
262.5 257.2 252.8 249.5 243.6 237.2 231.4 225.6 218.9 213.6 208.2 203.2 200.1 195.9 191.7 188.8 186.2 185.1 180.5 172.8 172.1 168 165.9 162.7 158 152.9 145.2 138.9 132.8 125.2 126.7 129.5 141.6 152.3 158.7 172.5 184.7 196.4 206.9 213.4 219.4 223 226.3 232.4 240.6 249.3 250.1 252.9 254.9 255.7 246.6 235.2 222.6 210.8 200.8 191.8 179.4 184.2 194.5 205.3 214.6 228.3 240.9 250.2 258 265.6 269.6 272.7 257.7 239.2 215.5 201.5 194.8 196.9 197.1 189.8 181.5 173.7 163.9 154.3 140.4 157.7 176.5 180.1 172.9 158.2 152.3 153.3 159.4 176 181.1 182.4 180 182.5 177.1 167.4 170.5 186.6 197 196.6 208.1 226.5 236.8 247.1 257 264.5 276.2 293.3 317.1 335.9 344.1 354.8 360.7 356.9 355.5 352.6 354.2 357.4 358.2 358.2 359.2 361 358 347.9 335.6 324 319 304.9 300.4 294.9 291.4 295.1 294.1 295.3 301.6 304.5 304.8 308.3 316.6 321.3 320.2 323.4 325.1 324.4 322.5 322.9 318.3 322.1 330.9 341.5 350.3 358.9 377 395.3 410.1 425.3 420.1 416.4 424.9 428.4 434.5 443.6 463.2 476.4 478.2 473.8 468.3 456.4 449.1 442.8 442.1 441.5 440.5 440 439.7 436.4 430.2 430.5 431.8 434.3 437.2 440.8 447.4 439.2 447.1 451.6 453.2 450.6 446.3 443.5 438.2 432.5 425.3 412 396.3 390 371.1 377.5 391.7 397.1
265.9 260.7 257.3 252.4 247.6 241.3 234.9 227.7 220.7 215.2 210.9 206.5 202.4 197.1 193.1 190.3 187.7 186.6 183.5 176.2 174.6 171.3 168.9 163.8 158.7 152.5 147.3 141.5 137.7 127.6 124.3 124.5 135.8 148.2 151.7 164.9 177.8 190.2 202.7 210.8 218.3 226.8 227 231.4 236.4 243.3 246.3 249.8 249.3 249.5 243.7 233.2 224.1 214.2 205 195.7 181.8 182.1 192.5 202.7 211.6 221 234.5 244.3 252.8 260.6 263.5 264.8 253.6 240 210.8 189.4 178.1 174.3 170 163.3 156.8 149 138.1 135 157.6 180.7 193.1 200.5 197.8 182.1 169.2 160.6 150.4 157.3 166.4 163.2 160.6 163.9 163.2 161 181.5 198 201.7 206.4 216.1 232.3 242.2 250.3 261.5 271.7 288.7 312.9 332.9 344.3 349.5 359.3 363.5 359.6 356.9 354.6 355.6 358.4 358.7 360.1 361.5 360.7 355.2 342.4 333.8 325.1 311.8 308 303 296.4 297 301.4 301.2 300.1 305.1 308 310.7 312.7 317.1 321.8 327.7 330.4 330.2 331.8 331.4 329 323.3 321.7 331 342.4 348.7 354.3 370 381.4 400.4 406.3 406.2 415.4 425.6 428.9 435.2 447.3 458.2 460.1 464.2 462.5 456.1 451.3 447.5 444.7 445.7 444.3 441.7 442.9 442.9 441.1 433 428.9 438.8 440.3 442.7 447.7 452.2 448.4 452.1 457.2 457 454.6 452.6 450.5 445.6 439.1 432.4 418.2 406.5 394.6 376.7 382.8 394.3 401.7
270.4 265.8 261.3 256.4 251.2 244.6 236.3 228.5 223 217.5 211.7 206.2 202.2 198.2 195 191.8 189.3 186.6 180.8 183.7 178.4 175.7 171.9 165.1 159.7 153.9 150.4 145.9 141.2 135.9 124.5 123.2 136.7 144.1 148 158.3 171.9 184.4 195.8 207 218.8 225.3 229.1 232.6 238.2 243.2 245.3 246.9 244.6 246 242.1 230.7 224.8 217.6 210.5 199.4 183.9 179.1 188 196.8 205.2 212.3 226.9 236.9 245.8 254.1 257.1 257.3 245.4 236 209.6 184.2 168.4 157.2 148 140.9 132.6 138.6 148.7 160.5 177.7 195.2 209 213.3 217.7 203.8 190.9 181.3 169.5 159.7 155.2 159.6 162.9 167 161.8 178.3 191 199.4 205.8 212.5 225.6 236.8 245.7 255 268.2 285.3 307.2 328 344.2 353.9 355.5 361.2 363.8 360.1 356.5 356 357 357.9 358.5 360.6 361.6 357.2 349.8 337.9 327.8 319.2 313.3 307.4 301.5 297.5 301.5 303.4 303.5 302.1 306.3 309.9 312.6 315 320.8 328.4 333.7 338 336.6 336.7 338.8 338 335.3 323.2 327.8 342.2 346.4 352.7 364.6 383.5 396.6 395.2 398.8 420.4 426.3 425.3 431.3 443 453.5 452.4 454.2 454 451.9 449 447.7 447 447.3 447.4 444.5 446.4 446.8 439.6 440.4 438.8 444.3 447.5 449.5 452 456.3 455.1 458.8 462 460 458.1 456.4 454.7 452.1 443.1 435.1 425.6 410.9 396.2 387.3 390.1 401.1 410.8
273.7 268.7 265.9 260.8 256.1 246.4 236.8 229.7 224.8 219.1 213.6 208.7 203.5 199.7 197.8 195.4 190.7 185.2 187.6 185.7 184.1 180.7 175.5 169.6 163.7 158 153.5 146.9 142.1 137.3 130.3 122.1 130.8 141.5 144.8 150.7 163.1 177.3 189.5 202.1 213 222.7 228 232.4 242.1 243.7 246.6 247.4 238.8 238.7 234.7 231.6 227.8 225 215.5 204.1 187.9 178.1 184 192.2 199.1 205.7 219.9 229.6 238.6 246.9 249 248.3 241.1 239.8 212.4 182.5 160.1 144.6 132 138.7 144.4 154.9 167.1 182.1 198.4 211 222.3 227 230.9 226 215.3 204.7 190 181.5 177.7 178.5 182.4 187.6 181.6 194 197.1 201.6 210.1 218.6 231.3 243.6 253.2 261 279.2 297.5 321.5 338.9 350.1 357 359 362.1 363 359.3 356.8 356.7 357.5 359.6 359.3 360.2 358 350.6 341.5 332.8 325.2 318.5 311.7 303.5 299.7 300 302.4 303.4 303.7 304.4 307.8 311.4 314.8 322.5 329.4 332.8 337.9 343.4 347.2 341.9 341.9 343.2 337.6 333.3 334.7 338.9 344.3 351.1 361.6 373.4 378.6 385.3 394.4 405.9 414.3 422.6 425.6 433.7 439.7 447.3 452 455.6 450.4 448.5 448.1 448.3 449.8 453 448.9 448.5 449.1 444.9 448.1 450 450.6 451.1 454.4 459.7 464.1 459.3 463 464 460.8 458.8 457.8 456.8 455.5 448.1 437.4 429.1 416.6 400.6 387 399.8 406.9 420.6
277.5 270.8 267.1 263.5 258.5 247.3 237.3 231.4 225.8 221.3 215.6 210.3 205.4 202.6 199.9 194.1 190 190.8 191.4 189.7 189.1 186.4 180.7 173.2 166.3 159.6 154.5 148.7 142.9 137.4 132.2 122.6 121.1 134.5 140.6 144.6 154.9 167.7 187.6 197.5 208.7 219.8 228.4 231.6 239 243.3 245 246 237.4 233.9 232.7 232.5 233 229.8 218.6 207.6 195.2 179 180.9 187.5 193.8 199.2 215.7 224.9 232.1 238.3 241.8 241.1 240.9 239.2 216.3 187.5 159.3 134.9 133.3 148.9 158.2 166.3 186.3 201.2 210.4 220.7 230.7 236.6 243.1 245.1 232.9 226.6 215.1 209.5 204.2 200.4 202.1 205.4 205.2 205.5 209.9 205.4 212.6 227.8 241 252.4 259.1 273.2 287.9 311.5 331.4 341.7 350.2 358.3 359.6 360.4 361.7 359.3 357.7 357.8 362.3 360 357.7 355.6 351.7 344.2 337 330.9 323.6 316.2 307.2 301.3 299.5 300.1 302 302.2 303.9 307.3 310.7 314.6 322.3 336.8 343.9 347.4 351.6 357.1 361.4 356.8 351.4 351.1 344.6 342.2 343.4 344.2 345 351.6 364.1 369.1 374.5 385.6 395 410 418.3 424 427.7 431.8 435.9 442.6 452.8 453.3 447.6 447.3 448.6 450.2 453.8 455.4 454.1 454.9 450.3 451.8 456.3 458.6 460.2 459.5 467.6 467.5 465.3 463 462.6 463.3 461.2 460.1 458.8 458.1 456.2 451.7 442.5 432.9 419.4 404.4 390.6 406.4 418.2 430.9
279.9 272.7 268.6 263.4 256.6 247.3 237.9 233.1 227.4 222.6 216.7 212.8 206.2 203 199.1 193.3 193.7 195.1 195.4 193.8 192.9 191 184.7 177.3 168.7 161.8 155.3 149.1 142.9 137.5 131.5 123.1 117 127.7 134.2 139.1 148.5 161.3 177.3 190.8 201.4 215.4 224.8 228.7 235.1 239.4 240.1 241.3 235.1 233.8 233.5 234.3 234.1 230.2 222.1 211.7 201 184.2 178.3 187 192 195.1 204.3 215.3 224.2 231.7 236.4 237 234.6 231 219 193.8 161.9 138.5 132.3 153.9 165.7 178.1 196.5 211.6 222.8 231.7 244.7 255 261.9 264.6 256.7 246.1 244.9 239.7 235 231.4 220.9 224.2 221.5 217.6 223.9 214.4 227.6 242.4 251.2 258.8 267.2 281 300.9 320.4 334.6 343 351.3 358.2 359.5 361.7 363 359.6 358.4 364.9 369.4 360.3 355.4 351.9 346.1 341.9 336.9 334.4 320.9 310.8 303.1 300.9 300.1 301.7 302.7 303 307.7 312.7 315.5 325.8 337.2 350.8 358.4 361.5 364 369.4 375.2 369.7 363 357.3 358.2 350.1 349.8 352.2 350.8 356 370 371.8 380 391.1 399.6 409.3 416.1 425.7 428.6 431.7 434.8 442.3 449.9 445.8 445.1 448.1 450.6 454.4 460.4 460 460.5 459.2 458.4 463.2 465.2 464.8 463.5 464.1 466.8 469.6 466.7 464.7 464.2 464.2 464 466.7 469.9 461.9 459.8 455.8 443 433.6 422.9 412.5 398.2 415.5 426.9 437.3
281.3 275.4 270.1 263.2 256.4 247.3 238.8 233.4 228.1 223 218.8 214.8 208.1 202.3 198.3 198.9 197.7 198.2 199 199.9 198.2 195.8 189.1 181.4 173.5 165.7 158.9 150.7 143.5 136.4 130.4 123.3 117.2 122.1 130 135 144.1 157.7 168 184.3 195 208.1 219.2 223.8 231.3 234.3 235.9 236.9 238 236.5 239 237 235.9 234.3 227.1 219.1 207.8 189.1 176 179.1 186.4 189.9 193.9 203.6 212.6 223.8 229.5 227.9 225.4 223.4 217.2 196.4 169.1 141 125.8 159 172.9 186.7 206.2 224 232 243.3 255.4 266.4 272.8 281.1 277.2 265.8 260.3 258.3 259.5 252.3 241.7 239.4 234.4 228.2 237.1 229.3 242.1 250.5 257.9 265 273.9 289.5 308.3 324.3 335.6 342 348.5 354.7 361.6 363.4 361.3 361 362.4 369.9 369.6 361.5 356.5 350.4 345.6 341.9 340.7 331.5 315.3 306 301.9 302.2 303 309.1 309.5 309.2 316.5 321 332.7 334.4 346.2 358.6 363.2 369.1 377.6 377.6 380.9 377.5 372.8 367.6 364.9 359.1 359.2 359.4 359.6 356.8 366.9 373.7 389.7 391.8 397.1 405.2 415.3 420.8 428.1 430.5 432.9 441.6 440 442.9 445.7 450.4 454.2 458.5 467.3 469 470.1 470.1 465.8 469.1 471.7 469.3 465.3 466.4 468.2 469 468.3 465.9 468.1 468.7 469.8 488.2 485.1 476.1 465.1 458.3 444.4 434.5 425.2 416.5 404 421.6 433.7 443.5
283.8 277.8 271.4 263.6 255.6 246.9 240.3 234.1 229.1 223.9 220.7 217.2 208.8 202.9 200.2 203 200 200.2 203.6 205 203.5 199 191.9 185 176.6 170.1 163.5 154.5 142.8 137.4 130.6 124.5 118 117.1 125.9 130.5 137.8 148.2 159.1 175 189.9 203.1 215.1 219.4 231 232.1 234.3 237.8 239.3 241.7 246.1 243.4 239.2 237.7 233.8 226.3 214.4 195.1 182.9 171 178.9 184.2 185.1 192.1 203.6 214.9 221.5 218.5 216.1 216.1 213.1 197.6 169.9 139.4 130.6 160.1 179.4 196.1 217.2 232.4 241.2 253 269.2 280.5 289.5 294.9 289.6 281.5 271.7 275.5 273.1 259.4 253.4 250.1 245.2 236.7 242.7 242 248.4 254.5 263.1 271.2 285.1 301.9 313.6 325.9 332 340.2 348.9 357.6 362.1 362.3 362.5 365.2 367.6 370.6 368.7 362.6 357 350.2 343.9 340.9 336.5 323.1 311.3 305.3 304.1 304.6 305.8 312.3 309.9 315.1 327 339.4 345.3 345.7 353.9 361.3 365 378.5 390.1 385.3 386.1 385.3 383.2 374.5 369.7 365.9 365.8 363.3 372 366.4 372.6 381.8 387.2 393.2 400.4 415.9 421 422.2 425 427.8 431.6 435.9 440.7 444.2 448.4 453 462.1 470 474.6 481.4 484 480.6 474.9 474.9 475.2 472.1 467.2 468.1 469.5 472 472.8 468.4 470.3 470.9 473 486.1 489.3 483.5 466.1 458.3 446.3 435.3 427.8 419.5 413.7 425.4 436.8 448.1
284.7 277.6 270.4 263.2 256.1 248.4 241.7 235.4 229.9 225 221.7 219.7 212.6 205.6 203.3 205.1 203.3 204 208.7 209.4 206.2 201.6 196.8 189.5 179.5 171.6 164 152.4 146.6 140.2 133 126.9 119.9 112.5 121.6 127.5 133.3 140.9 150.2 168 184.8 199.1 210.8 216 227.2 231.2 233.7 237.9 240.5 245.5 249.2 244.7 241.5 240.6 238.5 232.1 224 201.8 188.6 176 170 171.7 177.3 183.9 195 204.4 212.2 211.6 208.6 208.4 207.9 199.1 165.7 136.2 135.9 163.6 187.2 207.4 227.4 240 251.5 260.5 279.2 294.1 300.3 303 302 297.5 286.6 286.2 278.3 266.3 260.9 257.2 252.9 247.4 249.6 250 254.4 258.8 267.7 284.7 296.8 309.8 316.5 323 330.1 341 350.7 358.7 363.3 363.8 365.6 367.3 373.9 373.8 367.1 362.2 356.6 346.6 342.7 337.4 326.8 315.3 308.5 306.8 305.8 306.5 307.1 309 311 331.7 342 345 359 361.5 356.6 362.3 366.6 377.2 389.4 390.6 391.2 392.6 388.1 381.8 378.3 376.5 374 376 379 379 378.9 383 386.8 395.6 406.7 413.4 412.9 417.1 422.2 432.4 437.2 447.2 444.2 446.8 450.9 456 465.8 477.7 489.5 492 491.3 486.7 482.1 477.6 478 478.3 472.2 474.4 474.2 474.8 474.1 469.8 472.9 472.7 474 476.4 479.3 473.8 464.2 457.8 445.1 435.4 426.5 417.8 422.6 429.9 440.5 451.4
287.1 278.5 270.8 263.2 256.3 250.2 244.4 238.3 231.1 226.1 222.9 217.1 212.3 206.3 206.7 207.8 209 210.4 213.5 213 209.4 205.4 201.5 193.6 184.5 175.4 161.8 155.5 150 144.1 133.2 127.6 120.9 111.7 117 121 129 136.3 145.2 156.8 175.4 191.6 204.9 209.9 224.9 228.2 230.9 235 241.2 250.4 248.4 242.3 243.2 245.3 241 237.3 230.5 209 194.8 185.2 176.7 165.4 161.2 171.6 182.9 191 202.2 207 202.7 199.1 195.3 182.7 147.2 127.3 142.9 167.7 196 216.7 233.5 247.5 257.8 271.4 282.7 294.2 303.7 307.4 309.8 309 302.2 289.9 281.4 273 268.4 264.8 259.2 253.7 255.9 256.4 259.5 263.7 274.7 286.1 300.7 309.7 316.2 322.1 330.5 340.6 351.3 362.8 365.7 366.7 368.2 373 378.2 371.5 368.4 363.6 351.7 342.4 337.8 327 318.7 311.9 309.1 306.2 305.2 304.7 305.7 307.7 318.7 338.5 347.8 355.7 356.8 358.8 359.4 361.7 369.6 394.4 400.4 396 397 399.7 399.4 392.4 395.9 387.8 383.6 389.1 387.6 386.3 381.4 384.3 388.6 394.5 400.8 405.2 417.5 420.5 427.1 433 436.7 443 443.6 447.3 452.5 460.9 477 490.6 495.6 496.6 492.1 489.2 484.4 480.9 481.2 482.7 478.4 477.1 485.8 481.3 475.7 472.6 475.3 476.9 473.9 472.6 470.9 465.8 459.7 454.5 442.2 433.5 422.6 423.2 428.4 433.5 443.6 453.5
288.3 280.4 271.2 263.5 257.5 252.5 247.4 241.3 233.4 227.1 223.4 218.4 208.4 207.5 210.1 211.5 215.5 215.9 216.4 216.7 215.8 212.1 206.7 199.6 193.6 182 167.5 159.4 154.1 147.2 133.9 127.1 120.1 110 113.3 116.6 125.5 135.9 144 152 164.5 182.1 196.3 203 218.1 222.1 225.6 228.4 236.2 242.9 244.8 241.1 245.6 254.1 248 243.7 233 213.7 200.6 193.2 187.1 179.7 172.9 154.3 174.4 180.3 187.3 200.1 195.2 191.7 180.6 154.2 130.5 130 152 178.9 208.1 221.9 235.4 251.2 262.1 272.5 281.9 292.4 302.8 309.2 315.4 315.3 308.2 297.3 286 271.9 271.2 268.8 262.9 260.9 262.5 264.8 264.9 269.7 277.1 290.8 303.5 310.6 315.3 322.3 329.6 340.4 355.9 365.7 369.9 371.5 373.8 378.8 379 372.9 369.1 363.6 350.9 339.2 333.8 322.5 315.5 310.3 306.9 303.5 301.1 301.5 306.3 311.4 321.5 337.4 350.7 356.7 351.8 358.7 363.1 360.4 375 392.8 398.3 398.4 400.4 402.8 400.4 399 399.7 398.2 398.2 393 394.4 390.8 386 389.1 393.1 404.2 401.9 404.8 409.2 416 421.6 428 437.1 438.2 442 447.8 459.9 480.6 487.6 494.2 505.4 507.4 498.4 490.9 486.9 483.2 483.2 483.5 480.8 477.6 486.9 485.4 482.4 477.3 476.8 475.2 474.6 469.8 466.7 461.8 458.4 450.5 439.7 428.9 427.1 427.6 431.6 434.9 445.8 456.1
292.5 282.3 272.6 265.1 258.8 254 248.7 242.5 235.1 230 222.6 215 211 214.9 214.9 215.6 218.4 221.6 222.7 223.4 222.7 218.1 212.5 204.9 197.3 187.5 175 164.3 158.6 149 138.2 123.9 117.6 111.4 110.3 113.1 123 130.8 138.8 145.8 156.3 175.3 188.9 197.8 209.6 216.7 220.1 223.4 227.8 235.4 237.8 236.5 246.6 254.3 250 246.4 234.2 218 208.5 200.4 195.8 188.9 180.6 170.6 159.3 170.7 171.4 180.6 180.3 176.1 160.2 136.6 124.7 145.6 167.2 191.8 214.1 224.1 231.6 243.7 257.5 266.6 276.4 288.5 301.2 309.8 314.9 316.5 309.4 297.6 282.7 271.3 268.4 268.5 267.2 265.9 269.6 268.9 270 274.6 281.6 295.7 303.2 308.8 316.2 323.2 332.2 345.7 360.9 367.8 372.2 375.3 377.1 384.8 384 379.1 372.1 363 348.8 337.8 330.2 319.6 312.4 307.1 303.2 299.4 295.6 300.8 306.3 312.5 322.3 337.4 343.2 348.5 349.5 349.6 352.4 361.5 378.6 385.5 390.7 399.2 403.2 403.9 403.2 402.8 406.3 412.2 407 398.5 398.5 393.7 391.8 389.4 394.9 398.4 399.1 400.8 403.9 410.8 417.8 424.3 430.4 434.9 441.3 451.2 463.8 485.8 494.1 502.5 511.1 517.1 504.4 495.5 489.9 486 484.9 485 482.1 478.4 481.3 484.1 483.8 480.6 476.2 474.1 472.7 469 464 460.5 459.1 450.5 436.2 436.4 434.4 433.6 432.9 439.9 447.2 457.6
295 283.9 274.7 266.1 260.5 255 249.3 243.6 234.8 227.7 220.7 215.2 217.9 219.2 219.8 221.5 225.1 228 228.8 229.7 227.1 223.2 218.9 209.9 199.4 187 175.5 165.9 159.6 150.8 140 126.9 117.3 112.6 107.7 112.2 119.3 125.1 132.8 140.7 154.2 173 181.1 191.5 202.2 210 214.5 219.4 225.2 229.4 229.8 231.5 240.9 249.9 248.2 246.8 236.2 223.1 214.9 210 203.2 195.4 187.1 178.4 164.2 149.4 154.2 147.7 151.8 159.4 145.1 126.8 134.5 155.6 175.8 199.3 216.1 224.4 231.5 237.7 247.5 259 268.4 282.8 298 308.5 315.6 314.4 308.8 294.8 281.1 271.6 269.1 269.7 268.3 270.2 273.4 274.6 278.1 281.4 288.7 298.6 306.7 311.2 317.1 327.3 341.6 355.9 363.7 370.8 374.6 376.1 382.6 389.6 390.9 382.9 374.5 362.7 346.2 335.3 326 316.3 309.1 304.5 299.8 294.5 293.8 301.3 306.8 312.7 323.1 328.7 334.2 338.1 335.7 338 346.6 360.5 377.7 387.1 390.2 398.1 405.5 404.7 404.8 407.7 411 413.7 408.4 403.2 399.9 398.7 398.7 396.9 399.7 400.1 399.8 403.7 406.4 418.8 423.7 426.3 430.3 436.3 445.8 456.3 466.4 486.6 495.5 507.9 517 517.2 511.6 500.6 493.7 489.3 487.2 485.8 483.3 480.5 481.4 482.5 482.9 479.4 475.7 471.5 467.6 465.4 462.4 458.8 453.7 441 444.1 444.2 440.3 437.2 437.5 444.7 453.7 463.2
296.9 284.8 275.7 267.8 262.4 255.5 250.6 243 235.2 228.4 221.6 218.6 223.5 224.8 224.7 226.3 229.6 230.2 232.6 234.6 230.5 227.9 223 214.8 205.8 194.2 178.7 171.4 162.7 152.7 141.3 133.5 121.3 113.4 108.7 108.9 115.6 120.5 128.6 137.6 149 168.2 172.1 183 194.4 202.7 209.9 215.3 220.4 222.5 222.9 227.3 235.7 242.6 244.4 248.4 237.9 224.6 225.2 226 214.5 202.7 192.5 183.1 174.4 164.3 145.3 136.4 109.3 131.8 132.3 118.2 139 159.8 183.3 201.9 215.8 222.4 228.3 235.4 243.6 254.2 265.1 278.7 298.9 310.8 316.4 312.5 306.4 291.8 277.7 271.1 269.9 270.6 271.4 272.2 275.7 281.1 284.2 289.7 293.5 302.4 310.8 313.2 320.6 331.9 348.4 356.7 366.1 371.9 374.2 376.7 386.1 391.5 389.2 383.6 375.4 360.8 343.8 329.2 320.1 311.2 305.9 300.5 295.8 292 291 295.8 305.2 310.3 317.9 322.5 326.7 327.8 329.9 338.6 346.2 355.2 369.1 382.3 392.7 401.3 399 400.1 406.7 409.6 410.8 413.1 414.3 415.7 411.6 409.8 409.1 407.1 408.5 402.8 403.8 405.5 407.2 413.2 417.7 422.8 432 442.2 449.5 459.4 469.3 488.8 496.1 507 514.9 518.1 515.2 504.5 497.2 491.3 488.2 486.3 484.2 482.2 481.5 482.3 482.9 480.6 475.4 472 467.1 462.7 457.5 453.4 456 455.3 451.8 450.1 447.2 443.1 441.7 450.8 458.9 467.5
299.3 287.1 277.3 269.1 263.3 256.8 250.7 243.4 235.1 230 227.2 227.4 229.4 230.3 229.1 231.3 233.3 235.3 236.9 238.4 235 232.4 227.5 220.4 213.4 201.3 190.8 179.7 168.3 155.8 146.1 135.8 125.1 117.3 108.7 106.7 109.9 118.1 125.2 133.7 142.5 155.1 159.2 173.3 185.7 197 204 209.7 214.4 217.2 219.3 224.4 231.3 235.3 239.5 243.9 230 229.2 231.4 235.5 223.4 214.2 199.5 189 179 169.5 156.2 143.5 124.7 108.1 117.1 103.8 130.8 157.5 183.1 199.1 211.9 216.4 223.3 230.2 238.2 250.2 265.6 278.6 293.3 310.9 311.7 306.2 296.7 282.5 274.7 270.1 272.6 273.7 274.6 275.8 278.8 284.7 289.4 293 299 304 308.7 317.2 327.5 337.8 348.3 359.8 372.7 373.2 374.3 379.6 388.4 391.4 387.9 382.3 375.2 355.7 339.3 325.2 317.1 309.4 304.9 299.6 292.3 289 287.8 289.9 296 301.1 305.6 308.2 311.8 321.7 331.8 337.4 343.9 355 364.2 375.8 381.9 388.2 397.5 401.8 407.1 412.7 421.5 428.3 424.3 421.4 416.2 416.6 414.5 415.5 414.8 416 417.8 417.4 420.5 419.3 420.6 424 438.6 448.6 453.8 461 475.5 486.1 498.6 504.5 510.4 514.9 514.7 505.4 498.8 492.9 488.3 485.9 483.9 482.1 481.6 483.4 482.6 480.2 474.3 471.1 465.5 463.2 461 458.4 460.2 462.2 456.5 454.2 450.5 444.3 448 454.8 463 472.2
304 291.8 279.4 270.7 264.7 256.5 248.7 241.5 234.1 230.9 230 232.5 234.4 235.2 237.3 238.5 239.2 239.5 242.4 244.5 244.9 240.8 232.4 225 218 208.8 196.7 185.6 176.7 164.9 151.1 139.1 125.3 118.5 108.4 105.9 104 114.9 122.2 128.7 135.7 142.5 151.1 162.8 176.3 189.8 196.8 202.6 208 213.1 213.6 220.1 226.6 230 233.4 235.5 227.6 234.2 235.8 235.9 228.9 218.8 204.6 198.1 187.2 177.7 164 151.2 137.8 119.5 100.1 104 129.6 155.7 180.3 194.6 204.5 210.4 217.3 225.2 233.4 245.4 262 272.1 286.9 300.8 301 292.3 282.2 274.4 270.9 269.8 272.1 274.9 277.8 278.9 281.1 285.7 293 297.9 303 305.5 312.3 323.5 332.5 344.7 352.2 362.5 373.5 373.2 375.4 384.3 390.4 390 386.5 380.3 367.6 349.7 334.1 322.9 315.1 309.2 303.9 298.3 291 286.8 287.1 284.9 286.5 290.6 298.9 302.5 308.2 319.3 330 333.8 339.9 351.5 358.9 365.7 382 392.9 399 403.2 412.1 424.7 434.2 436.3 429.2 426.9 423.4 430.6 422.2 424.9 423.9 424.9 425.9 425.4 422.9 422.3 421.7 425.8 441 455.1 457.3 463.3 475.7 483.2 494.5 505.2 509.8 518.4 521.4 506.1 499.5 492 488.4 485.4 483.4 482 481.6 482.1 480.5 476.6 471.2 466.8 464.7 467.3 465.2 462.8 464.6 466.2 462.1 457.4 451.2 448.3 454.7 460.7 468.1 477.7
309.7 295.6 282 273.4 265.4 255 246.6 238.6 233.6 232.1 235.3 238.6 240.3 242 243.9 245.2 244.6 247.9 249.3 252.7 253 250 241.1 234.5 226.1 214.5 206.8 198 184.3 169.7 156.7 144.3 128.1 119.6 110.4 104.6 102.7 112.9 118.5 125.1 131.4 137.2 143 156.1 167.2 180.2 187.3 193.6 202 206.8 209 216.6 221.8 224.9 227.5 232.6 228.4 237.6 239.2 234.9 230.5 224.7 212.7 205.5 192.7 188 180.6 169.8 155.8 136.2 109.9 103.2 124.9 151.9 174.9 192.6 199.1 204.9 212.3 220.7 228.2 237.9 252.1 262.4 272.9 283 282.7 275.3 272.1 268.4 266.9 269.5 271.9 275.1 279.6 282.9 286.7 291.6 296.4 302.2 306.4 310.2 316 327.1 338 345.9 351.5 363.7 370.7 371.9 377.2 388.1 393.8 392.1 385.2 374.8 359.5 346.7 328.1 320.2 312.6 306.2 302.3 296.6 288 283.9 284.7 283.2 281.7 288.7 296.3 300.1 305.8 317.1 325.2 328.7 336.8 348.1 356.8 374.6 384.9 392.2 400.6 417.4 419.3 427.2 433.6 430.2 435.5 433.8 436.4 436.9 437.5 438.5 431.3 429.9 429.5 428.8 427.6 424 423.8 433.1 447.4 455.2 459.6 467.5 475.7 484.4 497.8 503.1 508.7 513.5 515.5 503.9 497.8 491.2 489 486 483.3 482.6 481.5 480.8 478.3 474.1 473 468.6 467.7 472.6 470.7 468.6 468.1 468.4 464.7 456.5 455.6 455.7 461.3 467.5 473.4 482
314.1 298.9 287.1 274.6 265.1 256.1 248.5 242.5 238.2 237.1 240.3 245.2 245.6 248.5 250.4 251.6 251.3 255 256.3 259.4 261.4 255.1 247.5 242.2 235.1 226 214.1 204.4 195.9 176.6 165.4 150.1 135.5 123.7 114.9 103.6 102.5 107.1 114.4 120.6 126.2 131.6 136.6 146.3 158.9 169.2 178.1 186.7 195.6 199.4 202.9 212.1 218.4 220.5 222.3 227.7 228.4 237 241.9 236.4 233.3 227.7 218.4 207.9 197.4 192.3 194.6 187.2 169.6 149.4 124.7 97 118.8 142.7 166.7 188.9 195.1 200.2 206.1 215 223.1 230.1 239.3 251.8 260.7 263.6 263.3 264.2 262.8 259.5 268.2 272 275.5 279.8 283.7 287.4 291.1 295.5 298.8 304.3 308.4 315.9 322.7 335.1 341.1 348.3 355.7 364.9 370.2 372.3 380.6 391 393.6 391.1 383.7 372.6 361.1 347.3 328.9 317.2 309 302.3 299.6 294.1 286.8 281.2 279.4 280 279.1 286 291.6 297.1 303.4 311 318.1 327.2 337.3 347.8 361.5 372.9 382.1 396.9 404.4 412.2 419.7 423.8 428.6 431 440.5 452.6 449.5 444.8 445.8 442.3 436.7 436 436.6 434.1 431.6 429.1 431.8 443.7 455 457.6 459.7 470.4 478.4 483.5 495.2 501.2 505.5 509.1 510 499.1 495.7 489.7 489.7 487.5 483.5 481.8 480.7 479.1 476.1 476.5 479.9 472.2 469.9 475.6 474.6 474.2 472.6 470.1 464.3 461.2 460.4 461.4 465.5 473.6 478.9 486.3
317 302.5 289.3 276.6 266.2 257.7 251.4 248.9 243.3 243.6 245.6 249.3 252.2 256.4 257.5 258.6 260.4 262.8 263.5 262.6 261.6 258.6 255.1 253.4 246.1 235.9 220.1 210.7 204.3 185.7 168.2 152.6 139.9 130 119.1 104.5 101.4 103.2 110.1 115.9 121.5 127 132.9 141.1 151.9 159.9 170.1 179.4 188.3 193.3 199.7 207.4 213.6 215.7 219.3 226.7 226.4 229.5 239.7 238.3 233.3 228.1 221.8 208.4 199.9 197.9 206.3 193.1 182 162.5 133.1 102.9 110.8 131.4 155.4 175.8 189.4 195.8 201.7 209.5 217.4 223 230.9 241.7 248.4 251.6 254.4 253.3 259.1 264.5 270.2 276.5 280 284.9 288.7 292.1 295.3 299 301.3 305.1 311 318.7 328.2 334.8 344.6 353 361.2 369.6 372.7 377.9 381.9 389.6 395.2 391.1 384.4 373.6 362.2 348.2 330.2 317.1 308.6 302.2 298 291.7 284.7 278.4 277.7 276.8 278.7 283.1 288.1 293.7 300.6 309.4 321.6 328.1 335.7 348 360.6 371.1 385.2 394.6 408.6 415.8 422.9 432.8 432.3 435.2 441.5 448.9 450.9 455.5 451.6 447.9 441.6 440 438.3 434.5 431.3 432.7 443.5 449.8 456.6 463 460.9 469.3 474.9 484.3 493.7 498.1 500.7 500.7 499.9 495 489.9 488.8 487.4 484.7 482.8 480.6 479.6 480.3 476.7 477.8 476.3 473.8 471.8 477.6 478.2 476.3 474.6 470.6 465.9 466.5 465.9 467.2 472.9 478.7 484.4 489.3
319.9 306.2 292.5 279.5 268.6 261.2 256.2 255.5 252.3 250.6 252.4 254 257.6 261.3 265 264.9 265.9 268.8 268.6 266.8 265.5 266.9 264.5 260.6 252.5 244.1 231 217.5 211.9 195.8 177.3 160.8 143.3 136.2 125.1 113.7 104.6 100.7 106.8 110.7 117.5 124 130.7 138.1 143.9 152.5 163 172.5 181.5 187.6 195.7 202.5 207.3 211.8 217.5 224.8 223.7 226.9 233.2 234.1 234.1 227.2 226.8 210.4 203.8 208.2 208.1 192.3 187.8 180.2 141.2 110.7 99.8 113.5 138.3 163.5 180.8 189.6 196.5 204.9 212 217.7 223.7 231.3 237.7 242.5 246.7 253.2 261.1 267.6 278.2 285 291.5 291.9 293.8 298 300.7 303.4 305.1 309.5 314.5 322 327.3 339.2 347.8 358.6 362.5 371.2 380.2 378 383.5 391.8 390 388.5 383.5 372.6 362.6 345.7 329.1 314.6 305.4 301.1 295.3 287.2 278.8 274 276.4 279.7 279.4 281.9 288.6 295.1 303.1 310.7 318.2 323.9 336.4 348.4 358.5 369.4 379.4 392.2 409 420.5 431 432.9 429.1 430.3 434.8 440 444.5 454.6 460.8 457.7 447 442.5 439.4 433.6 432.7 440.8 447.7 449.4 458.1 466.5 463.8 468.2 476.9 490 491.9 497.2 499.4 498.5 496.6 490.1 488.4 487.4 485.2 482.6 481.4 480.1 481.5 479.6 478.1 478.9 478.8 475.5 474.1 476.6 477.8 477 476 471.9 470.1 470.1 470.1 474 480.9 483 487.8 491.2
331.4 312.3 298.2 284.8 273 263 259.9 259.8 257.5 256.6 257.4 258.5 261.7 264.8 269.4 273.1 271.6 271.3 271.8 272.1 276.1 281.2 272.9 270.1 262.3 252 246 234.3 218.7 204.5 187.7 169.8 155 141.7 131.8 121.1 110.2 103 103.7 98.8 111.9 119.6 127.5 134.4 140.8 147 153.7 167 176.2 182.3 191.2 196.9 202 207.6 213.5 220 220.7 225.6 231.5 231.8 229.3 228.1 221.3 214.3 211.5 215.3 211.2 194.8 184.6 173.2 153.1 126.7 102.9 93.3 107.4 143.8 172.4 186.5 193.2 199.4 206.7 212.7 216.9 220.7 228.3 240.1 247.2 254.7 267.3 281.8 294.5 298.8 303.2 300 300.7 303.9 307.5 310 312.2 314.1 318.9 326.7 331.7 337.1 349.9 359 362.5 371.1 380.7 380.3 385.6 390.8 391.4 388 384.6 373.9 360.3 342.2 326.4 312.1 302.6 299.6 291.6 283.6 278.4 273.1 277.8 282.9 287.6 286.8 289.9 295.7 303.5 309.4 313.9 322 335.3 347.8 357.4 367.3 376.3 391.4 408.4 423 434.3 430.1 424.7 424.9 428 437.4 443.9 449.2 460.1 460.6 450.7 443.4 438.9 431.8 435.3 446.2 455.5 457 458.9 466.2 466.1 472.4 479.9 486 490.6 496.3 494.1 492.7 490.1 487.3 486 484.4 482.8 480.9 480.5 481 482.4 481.4 481.2 481.4 480.9 479.5 476.3 477.2 477.9 477.6 476.8 475.3 474.8 474.9 475.7 479.7 485.2 486.5 490.3 495
336.6 317.8 303.1 290.1 278 268.8 264.6 263.8 262 260.9 261.1 263.6 266.5 269.7 275.6 277.1 275.6 274.5 277.3 282.2 283.1 286.3 283.5 276.6 274.2 267.2 256.4 245.3 226.3 209.6 193.9 175.3 162 149.8 138.2 128.2 116.7 107 99.9 100.5 105.6 114.6 122.6 129.9 136.7 143 150.4 162.1 169.9 176.4 186.1 192.4 198 204.4 210.3 213.6 215.1 220.9 225.1 231.5 226.7 223.5 221 223 222.5 218.6 208.6 195.6 183.5 174.6 162.9 144.3 121.7 103.7 92.6 123.8 163.5 182.8 188.3 194.8 198.4 203.5 215.5 223.5 230.6 241.5 253.5 266.3 284.9 299.7 309.5 310.5 311.1 312.1 310.2 311.1 314 316.8 318.9 319.9 323.9 328 331.8 340.6 348 359.7 362.7 371 381 382.1 384.4 390 390.4 388.1 382.8 372.3 357.2 339 323.6 310 299.9 296 290.3 283.2 275.5 271.9 281.3 290.2 292.8 292.8 294.3 295.5 305.4 308.5 314.5 325.6 337.9 347.3 355.5 365.6 374.8 390.9 405.5 416 428.2 428.7 418.8 415.9 424.9 430.2 438.2 444.6 458.1 463.1 454.6 447.5 439.1 436.1 443.3 455.3 462.3 464 461.6 466 468.1 475.8 481.4 486.5 494 493.6 491 489.3 487.8 486.8 484.9 483.3 483.5 483.1 482.8 482.3 483.1 483.7 484.5 484.8 484.6 484.3 481.4 478.7 479.8 479.8 480.4 480.2 480.2 481.2 481.7 485.6 488.8 490.5 493.9 499.1
341.4 325.1 309.1 296.1 284.9 275.2 267.7 266.6 265.1 264.1 267.6 271.7 274.5 276 280.9 282 280.7 281.6 287.3 290.9 290.4 291.6 290.2 284.2 279.3 274.6 267.2 251.9 236.4 212.7 201.5 185.7 172.2 160.4 146.9 135.4 121.8 111.4 101.8 102.9 97.6 109.9 117.7 124.6 130.9 136.2 144.5 157.4 168.1 173.9 182.6 188.4 194.6 203.1 208.5 211.6 213.1 217.7 219.6 225.4 227.3 224.9 222.5 226.8 228.4 219.7 209.7 196.1 182.9 173.6 159.7 134.5 113 93.4 102.2 127 146.9 173.9 176.6 183.8 200.7 208.7 217.3 224.9 233.6 253.3 262.6 273.6 294.4 312.4 318.7 317.8 322.9 322.2 321.3 322.6 322 323.7 325.5 326.8 330.1 332.2 336.3 341.5 350.4 359.9 364.8 375.8 383.7 382.3 386.9 393 390.4 390.6 380.4 364.4 355.4 341.2 322.9 307.6 297.4 290.3 285.7 280.3 270.6 271.5 278.3 285.9 291.1 292.1 294.3 293.7 303.3 311.3 319.4 329.4 339.5 345.2 352.7 361 371.4 386 395.9 404.7 421.4 420.4 410.3 410.4 420.4 428.1 433.2 440.7 450.9 456.7 455.9 448.3 443.8 443.8 452.3 464.3 469 468.8 467.9 468.7 469.7 478.2 485.1 489.8 488.3 489.3 490 488.4 486.3 485.2 484.2 484 485.9 485.6 485.1 484.5 484.2 485.6 487.1 487.9 488.3 487.9 483.7 484.4 484.9 484.4 484.1 485.1 486.7 488.5 489 491.4 494.2 496.9 501.2 506.4
350 336.2 324.2 307.8 294.6 280.4 272.3 269 267.6 269.5 272.9 275.9 278.4 286.5 289.5 285.2 287.5 290 292.1 294.8 295.5 294.8 292.4 289.9 282.1 276.8 270.3 256.2 245 225.7 207.9 195.3 179 172 160 144.4 130.2 118.8 108.8 101.1 99.3 102.7 111.9 119.1 125 130.8 138.2 148 163.3 172.8 182.1 186.7 193.4 203.7 208.2 212.5 213.5 214.7 217.2 220.4 226.5 223.7 226.2 231.6 229.1 218.2 209.5 195.4 180.7 167.5 150.7 119.5 102 98.3 118.4 145 161.4 169.3 184.6 194.6 203.9 214 224.7 231.1 244.9 260.7 272.3 288.5 309.4 321.4 323.9 324.6 328.5 330.3 332 333.1 332.6 333 333.9 334.4 336.5 337.8 341.6 346.1 360 368.5 377.9 389 390.3 393.9 397.1 397 396.3 391.5 373.4 361.5 355.6 342.5 320.9 305.9 293.9 286.6 282.9 276.3 264 268.7 275.6 284.3 285.5 289.4 287.7 291.8 304.4 313.6 319.5 326.6 336.2 343.5 350.2 358.2 368.6 381 388 396.7 406.2 404.1 403.9 405.1 415.5 428.4 431.4 434.7 445.3 450.8 454.3 447.1 444.7 446.8 454.4 466.7 471.8 471.1 471.7 471.9 474 480 482 482.9 484.4 486.4 490.5 486.8 485.3 484.7 484.7 485.5 489.7 489.3 487.6 487.1 486.8 487.6 489.5 490.8 492 491.1 489.2 489.8 488.9 488.4 489.2 490.4 492.2 494.2 494.8 496.7 500.2 504.2 512.7 516.7
356.4 344.8 335.7 316.2 301.9 285.9 277.6 271.9 271.1 272.7 276.9 280.7 285.6 291.5 293.4 294 294.5 295.5 298.2 299.8 301 297.1 294.1 289.1 281.6 278.2 273.2 259.5 251.4 238.7 219.4 203.3 187.9 177.3 167.9 150.8 136.7 127.7 116.7 106.8 101.6 95.2 104.9 112.2 118.6 125.4 132.1 140.7 157 167.9 177.4 186.6 193.7 200.4 208.3 213 217.5 219.2 220.3 218.4 219.3 220.6 226.3 224.8 220.7 212.1 203.3 191.4 176.2 161.3 136.9 110.9 94.3 103.4 129.3 147.6 163.5 180.8 192.1 201.4 211.8 223.4 234 243 257.5 268.2 279.5 298.7 319.4 330 330.6 333.1 333.9 338.9 340.7 341.2 342.4 342.3 342.3 342.8 344.1 345.7 348.7 356.1 365 376.4 390 397.9 397 401 403.8 401 399.5 388.1 371.8 370.1 361.4 341.2 314.8 299.3 288.9 284.2 279.9 271.9 260.6 266.2 271.2 277.1 278.6 278 282 292.1 307.4 313.3 318.7 324.1 332.5 342.2 349.5 352.2 359.8 371 380.5 386.3 394 395.1 399.3 400.2 412.6 427.4 428.6 430.7 444.8 450.9 450.2 449 445.4 446.5 451.6 459 465.5 474.8 476.1 474.3 475.8 478.5 480.6 482.6 484.3 486.2 486.4 486.7 487.3 486.5 489.2 492 499.9 493.9 490.3 490.1 489.5 489.3 493.2 494.3 495.4 495.7 494.7 494.2 493.6 493.9 494.5 495.7 497.1 498.4 499.6 501.7 506.4 512.9 517.7 522.8
361.3 348.9 332 314.5 302.8 292.7 281.9 275.7 277 277.6 282 286.1 290.2 292.9 296.6 299.2 301.3 302.9 309.1 310.4 309.5 304.1 298.7 290 281.4 277.1 274.2 262.3 253.7 246.7 231.4 211.6 200.3 186.5 172.5 158.1 146 134.7 124.1 114.3 105.6 96.9 99 105.2 111.5 118.8 126.8 133.5 147.2 163 174.1 183.7 192.7 201.3 211 217.8 224.6 226.6 221.6 219.6 220.4 220.5 220.5 220.6 215.9 206.7 197.1 183.8 171.1 151.4 123.6 103.4 93 115.2 139.2 153 167.5 184.9 200.1 208.3 219.1 231.6 242.5 254.3 262.8 273.7 287.6 305.4 324.9 335.1 339.1 340.1 344.6 349.3 351.6 350.8 351.7 351.8 351.3 352.1 352.3 354.5 358.1 365.3 374.8 383.1 392.9 396.8 397.6 405.9 405.9 403.1 400.8 386.9 380.3 373.6 362.9 337.4 311.4 292.6 285.1 280 275.9 271.4 256 262.3 266.1 269.6 269.4 272.6 282.1 291.7 301 308.9 316.9 320.7 326.7 335.5 343.2 343.5 350 364.2 373.8 375.8 383.4 385.4 387.2 395.2 405.4 416.3 424.8 435.8 447.8 455.5 453.6 448.7 445.8 445.7 449.7 455.5 465.3 475.7 475 475.6 476.9 479.9 485.1 484.3 484.8 485.2 486.7 490.3 490.8 489.8 493.9 495.8 495.7 494.8 493.8 493.8 492.1 493.4 496.8 497.8 498.8 500.2 500.6 497.3 496.3 497.8 498.4 499.8 501.8 503.4 504.4 507.4 510.8 518.4 520.8 524.8
367.9 358.3 338.5 318 303.9 296.6 290.3 282.5 280.8 279.6 285.5 290.1 293.6 297.5 303.1 306.4 311.2 314.2 316.4 317.4 316.6 312.7 305.2 293.6 285.7 280.5 275.2 265.4 255.5 250.5 238.1 218.1 207.2 194.8 183.6 170.7 155.3 142.5 130.9 122.5 113.6 102.4 94.1 98.6 105.3 111.5 121.7 126.5 144.9 158.6 170.1 180.7 191.6 201.1 213.3 223.8 228.4 229.9 220.7 219.7 224 227.3 223.3 220.9 219 209.8 195.1 179.5 165.5 140.7 115.8 95.4 99.9 124 144.5 159.1 173.1 192 207.7 215.7 225.2 239.4 252.7 262.4 269.3 281.2 294 308.2 324.7 338.7 343.5 343.9 351.7 355.9 356.5 359.7 362 357.8 359.3 361.1 362.3 364.7 368.3 374.6 381.1 387.7 392.8 397.7 400.6 406.9 406.7 405.3 400.7 389.4 381.5 373.7 358.7 334.4 301.6 288.6 281.4 276.9 271.3 267.3 251.1 258.8 264.9 264.3 264.8 269.1 280.2 288.6 294.1 305.9 313.7 319.4 321.8 325.2 330.3 337.7 343.4 356.3 360 366.4 374.6 378.4 384.3 393.2 401.6 411.5 425.2 434.3 440.5 447.8 452.7 454 451.5 449.3 449.1 452.3 463.3 471.8 475.5 475.8 479.8 482.3 483.9 484.7 485.2 486.6 492.4 499.1 495.1 494.9 498.8 497 498.4 496.5 497.7 498.4 498.1 498.5 500.8 502.4 503.7 505.9 507.1 502.9 501.9 501.5 502.5 503.3 506.4 508 509.1 510.8 512.4 518.1 522 524.7
373.2 361.4 341.6 322.3 307.8 299.4 294.7 290.7 285.8 286.4 290 294.7 298.7 303.6 309.7 317.3 322.4 319.8 321.3 325.6 328 320.6 310.2 298 289.1 283.9 280.4 271.3 256.7 249.3 240.6 226.5 213.5 199.9 187.7 173.9 160 147.1 137.2 129.1 120.9 109.3 98 92.8 97 102.5 111.8 121.9 137.6 154.2 164.8 178.2 191.6 202.6 214.3 224.7 226.5 222 220.2 218.8 224.4 229.7 224.9 219.8 218.6 210.1 197.7 172 153.5 129.8 105.4 89.6 103.5 128.9 152.4 165.2 181.8 195.6 208.3 219.9 230.2 246.1 259.7 268 277.2 288.9 300.4 311.9 324.5 335.9 343.5 347.3 354 355.8 359.7 362.3 363.2 363.9 367 371.1 373.4 376.5 379.3 383.4 388 392.8 396 402.5 412.8 414.6 414.1 410.7 398.4 391.2 381.6 371.3 356.7 325.8 296.3 285.8 275.6 271 265.4 261.5 249.1 258.9 266.1 266.1 261.6 269.2 276.9 282.5 296.2 307.1 312.1 315.1 318.2 324.3 332.7 336.2 345.8 357.4 360.4 366 376.5 378.3 380.9 389.5 401.1 412 429.4 437.6 444 451.7 464.8 466.4 466.6 459.1 455.1 452.1 461.2 470.5 475.2 477.2 480.7 484.7 484.8 486 489.7 491.7 497.9 501.2 501.5 500.4 506.5 506.1 504.7 505.3 505.6 505.6 505.5 506 507.6 509.8 510.9 516.1 516.1 514.3 511.2 510.3 509.3 508.4 511.9 514.3 514 513 512.6 515.3 522 526.1
378.4 362.4 346 328 313.9 302.5 297.6 293.6 291.7 291.8 296.4 300.1 306.4 310.7 318.6 322.9 330.5 328.8 330.6 338.5 330 324.8 315.3 302.4 289.7 285.3 281.4 274.3 261.5 250.8 242 230.6 217.8 204.9 194.6 182 169.6 156.3 144.5 137.7 127.5 117.9 104.8 96.3 92.1 95.1 105.9 115.5 127.9 146.9 161.5 175.4 188.6 199.2 212.5 223.1 222.1 215.8 217.9 219.9 228.7 231.6 223.4 220 219.2 207.8 189.3 163.7 143.9 120 94.1 88.3 111.3 135.1 154.8 172.6 188.3 199.3 209.6 218.3 231.1 248.3 260.3 271 281.5 292.5 304.1 316.9 325.1 334 346.6 355.1 358.9 360.2 364 365.6 366.5 368.8 372.3 376.7 382.4 383.1 388 391.1 396.6 397.3 402.3 410.6 422.2 422 421.6 412.4 402.1 392.5 380.1 370.2 349 318.7 293.7 283.5 271.2 261 257 247.5 249.5 254.7 257.9 259.2 267.3 273.1 278.5 289.6 300.5 309.5 310.3 313.4 316.9 323.9 327.7 335.1 346.5 358.9 361.8 373.9 375.4 377.8 382.9 395.7 406.1 418.6 434 446.1 452.2 461.1 475.8 471.5 469.8 467.3 465.7 460.1 465 477 476.1 482.5 488.3 489.3 490.9 494.1 497.3 503.7 505.1 508.8 509.2 511.7 516.3 516.1 514.1 516.5 516.9 517 514.6 514.5 515.7 518.4 521.6 525.1 526.1 523.8 521.4 519.1 516.8 514.5 517.5 521.2 519.5 515.4 513.5 514.2 522.1 528.1
380 366.3 344.8 332.3 317.7 308 300.7 297.5 296.7 297.2 301.1 307.9 310.3 319.1 324.7 335.5 339.3 336.8 340.4 345.2 337.7 330.4 317.9 307.8 290.1 285.6 282.5 277.7 265 252.5 243.4 234.8 222.4 208.7 200 189.2 176.9 164.6 153 143.7 133.1 124.2 110.3 103.1 95.3 90.4 98.1 110 121.1 137.7 156.4 172.2 186.1 194.4 204.8 217 218.1 209.1 213.8 218.4 227.6 226.1 221.8 220.9 216.3 204.8 183.9 161.3 138.8 117 89.1 98.2 124.2 141.4 160 177 191.2 201.1 209.8 218.2 228.7 244.2 258 271 283.4 295.8 308.7 320.2 327.6 338.7 352.4 360 362.3 361.8 367 366.7 368.2 373.7 376.2 381.2 386.6 387.9 394.8 393.1 396.9 403.7 415.8 418 428.5 429.9 424.8 410.4 401 390.6 380.6 365.9 342.1 315.9 293.3 277.6 267.4 254.9 243.3 245.1 248 249.8 249.8 258 269.7 270.9 278.1 287.9 297.4 302.4 304.9 308.8 314.2 320.6 325.1 335 347 355 359.5 369.3 374.9 381.2 391.4 406.2 420.4 428.3 434.8 447.1 455.9 463.7 468.3 470.2 470.4 473.8 469.3 468.5 470.6 476.1 481.7 489.8 492.3 497.6 501.1 504.4 511.5 514 516.3 520.1 521.5 527.9 528.1 530.1 529.5 528.9 528.5 526.5 524.6 524 524.3 526.6 530.4 532.8 533.6 531.3 528.4 524.9 522.6 521.6 521.4 526 524.2 516.6 513.5 514.4 522 528.5
378.9 364.6 345.5 332.5 321.9 312.8 306.4 302 301.1 302.2 306.6 313.7 319.2 326.4 333.8 342.9 344.5 347.1 352.8 353.3 347.5 334.1 323.8 310.2 292.9 284.4 281 278.4 270.2 256 245.4 238.4 227.2 217.3 208.1 198.5 185 173.6 161.4 148.9 138 129.2 117.2 105 98.5 92.1 89 104.4 118 131.2 152.7 164.5 183.5 191 199.2 209.5 209 205.7 210.4 214.4 223.4 222 220.9 217.7 212 200.8 177.2 160.6 137.1 110.6 84.6 102.2 126.4 148.2 165.6 180.3 191.2 202.7 209.7 216 227.5 243.1 258.7 270.9 285 298.9 311.2 321.9 334.5 343.6 352.6 360.1 357 359.9 367.7 365.1 365.9 373.6 378.4 379 389.1 387.7 392.3 394.5 400.5 408.6 418.4 421 431.8 431.4 421.4 411.7 396.7 387.7 376.8 358.9 337 312.1 286.6 270.7 261.2 246.3 241.2 244.7 244.2 241 244.7 258.6 265 273.4 274.9 283.9 289.9 295.7 299.3 303.6 309.8 316.9 324.6 335 345.2 350.8 359.6 372.1 379.2 383.2 390.5 410.1 420.7 435.6 440.5 449.8 458.3 462.4 468.4 471.7 471.6 476 473 473 474.8 481.7 493.4 496.7 494.9 504.1 513.8 516.8 520.6 525.3 528.1 534 540.1 541.9 552.1 547.3 542.6 540.4 538.3 536.3 534.9 534.7 534.1 535.8 539.3 540.6 541.8 539.1 534.5 530.4 527.9 526.5 525 525 524.4 517.9 513.9 514.1 520.4 527.6
375.3 362.3 346.6 333 324.6 316.5 310.3 307.1 306.1 307.2 313.7 320.4 327.7 332.8 342.3 343.4 351.5 360.9 359.5 354.1 354.1 336.1 326 309.5 294.4 285.3 280.9 277 271.8 259.2 249.5 242.1 231.1 222.2 217.1 206 194.3 181.3 168.1 154.7 144.1 134.5 126.3 108.4 100.7 94.3 88.5 97.7 113 127.1 144.5 157.1 171.2 185 192.6 203 204.1 203.7 207.6 212.9 219 219 219.4 214.4 202.2 183.2 169.6 157.2 135.9 107.7 87 98.3 128.4 154 170.3 184.1 191.5 201.7 207.6 212.8 226.2 245.6 260.1 273.6 289 302.6 310.2 326.9 337.5 347.1 355.9 360.6 350.3 349 359.6 357.9 359.4 370.6 373.4 373.3 383.3 382.9 386.7 392.1 405 415 417.6 419.6 431.7 424.6 418.1 414.2 394.1 381.8 370.9 349 327.8 302.1 277.1 263.5 252.8 239.7 238.3 236.7 234.7 236.6 248.4 256.7 261.2 267.7 271 278.3 285.8 294.9 296.8 301.1 306.5 314.8 326.6 334.6 341.7 349 357.9 367 374.1 381.7 391.1 407.7 422.3 436.1 444.2 450.8 461 465.7 471.1 476.7 475.8 480.8 477.6 477.9 480.7 483 491.9 499.5 504.7 515.1 520.5 521.1 525.6 532.4 541.6 546.7 552.9 555.8 561.3 556.3 553.6 550.6 548.2 546.2 545.5 545.3 544.9 546.9 548.1 549.4 549.5 547 543.8 535.6 532 530 528.4 525.7 524.1 518.6 514.5 515.1 518.4 527.3
373 361.5 346.7 333.4 325.7 318.4 313.7 312.5 312.9 313.9 319.8 328.2 335.9 343.8 350.8 355.3 362.9 371.9 368.4 352.9 351.7 349 323.4 306.5 292.2 286.5 283.1 278 272.4 260 251.5 244.8 235.7 227.5 223.4 213.2 201.1 187.3 173.7 162.5 148.6 138.8 130.7 117.9 102.7 97.1 89.9 93.8 110.4 126.1 136.5 152.1 163.4 176.3 184.9 195.4 199 195.8 199.1 207.4 213 214 212.6 204 191.2 178.3 163 156.8 147.4 115 87.6 98.8 128.2 153.5 172.9 183.5 184.5 193.1 202.4 212 230.4 248.2 263.1 278.1 292.9 302.5 308.7 323.7 337.2 347.7 355.4 356.2 344.3 332.4 343.1 345.8 350.9 359.6 362.7 364.5 374.9 377.8 380.3 391.1 404.1 413.1 410.8 410.4 412.7 407.7 407.6 404.5 390.8 370.3 357.1 336.4 314.1 290 269 256.5 247.2 236.1 235.5 234 233.6 243.9 253 253.1 254.9 256.7 269.2 279 288.4 293.4 300.2 307.6 311.7 318.5 328.4 335.8 341.2 348.3 357.7 365.6 374.4 386.2 396.4 409.8 423.1 438.3 447.3 452.9 460.4 469.9 478.3 479.1 482.1 489.1 486.9 487.7 482.5 483.7 493.3 498.5 519.3 523.1 526.3 527.3 531.5 541.2 548.6 557.7 563.3 565.9 568.2 567.4 564.9 561.7 558.6 556.7 556.1 556.1 556.6 558 561.5 561.3 560.4 554.7 552.6 543.5 534 532 531.4 527.5 524.4 520.6 516.9 517.3 519.6 525.9
372.5 358.3 347.1 338.6 328.6 321 316.8 317.3 318.5 319.2 326 332.1 340.8 351.5 363.1 367.6 369.6 374.9 369.6 354.3 346.9 348.4 326.7 306.6 294.7 289.2 286.6 285.4 271.7 266.9 257.8 250.1 239.9 231.8 226 219.4 207.2 192.6 179.2 170.7 155.8 142.9 134.8 122.5 102.1 98.2 90.2 91.4 109.5 124.5 132.6 146.1 159.3 169.5 178.1 185.7 190.2 185.3 192.5 202.6 210.4 208.9 202.7 190 177.1 168.6 161.2 155.4 149.9 117.5 90.5 95.1 110.9 136.5 150.6 167.6 174.5 183 191.4 208.7 228.1 246.9 266.1 283.7 295.9 298 304.8 317.1 333 345.8 350.4 350.9 335.8 318.8 326.5 329.3 336.4 342.7 347.1 358.4 368.6 372 370.6 383.4 397.2 398.8 391 393.4 393.4 394.2 395.8 390.7 380.1 355.9 341.1 322.1 298.7 277.3 262.1 250.5 241.8 234.3 232.5 232.9 234.3 244 248.6 251.7 263.2 271.5 276.5 278.5 287.5 296.4 303.2 309.4 313 320 329.3 335.3 342 349 358.4 367 377.3 393 405.7 411.8 427.5 443.3 452.8 456.8 459.8 471.1 478.5 484.5 493.8 494.9 495 489.7 485.7 492.6 497.3 503.8 520.8 528.1 533.7 538 543.2 552.1 560.5 567 571.1 573.6 577.1 576.4 576 574.7 572.1 570.3 568.1 566.6 567 570 576.5 576 572.4 564.5 560.5 548.3 535.1 532 530.8 533.3 525.4 524.7 521 522.4 522.2 524.6
374.3 361.6 351.3 342.7 333.3 325.7 324.4 326.8 325.3 324.1 329.8 338 348.1 357.4 365.3 371.4 371.1 369.3 364.5 353.9 344.3 337.5 328.3 311.9 298.8 291.1 288.6 282.4 276.1 276.1 261.5 254.6 246.3 239.5 230.1 223.7 210.4 196.7 184 171.5 157.6 145.7 135.2 122.5 104.3 97.1 88.1 88 105.4 119.9 129.6 142.2 154.8 163 170 177.3 179.4 180 189.3 199.2 203.5 203.2 193.3 181.2 172.1 163.7 156.2 147.9 136.6 111.3 86.3 92.1 105.1 122.2 130.9 149.9 165.1 175.8 193 207.2 230.1 248.1 265.6 286.5 293.6 294 297.2 306.1 323.6 343.5 347.4 343 324.3 307 308.8 313.6 322.6 330.9 337.3 347.4 353.6 355.1 356.9 371.3 378.7 375.6 374.6 376.4 375.1 381.2 383.7 382.5 369.3 346.2 329.1 310.2 287.6 269.7 257.5 245.1 237.2 232.8 231.5 231.7 240.8 248.2 259.4 267.8 270.4 273 277.2 283.9 292.3 299.1 304.6 309.8 315.2 320.7 327.4 335.7 342.6 354.2 366 372.7 380.8 397.6 409.8 419.1 431.7 446 456 459.2 462.2 468.6 476.7 485.7 496.3 500.7 498.5 492.5 491.8 500.2 505.8 516.2 530.2 534.6 541.3 545.6 555 563.7 571 575.5 581.8 586.5 585.9 585.2 587.1 587.6 585.8 584.8 582.7 580.8 580.4 585.1 590.5 588 584 574.3 562.3 548.2 535.8 531.1 529.7 531 526.9 528.1 525.4 524.7 523.1 526.2
381.3 369.6 357.8 347.9 338.5 334.6 333.3 334.2 332.1 329.9 334.1 345.3 355 365.7 371.5 374.3 377.4 372.8 369.8 360.4 348.1 334.5 325.1 315 303.3 296.3 289.5 286 282.7 280.3 265.7 256.6 250.1 242.9 234.9 228 215 202.6 188.3 174.2 160.6 146.9 135.4 123.9 109 95.3 84.7 88 103.6 115.3 125.9 139.1 152 158.9 165.4 171.5 175.3 176.1 186.1 195.6 198.6 195.7 184.3 177.4 167.4 156.1 147.1 138.6 124.9 106.8 86.1 87.8 99.4 111.4 123.7 142.6 160 173.2 192.5 209.7 232.1 250.1 265.1 280.9 288 289.3 293.2 299.4 309.5 329.3 335.5 329.3 311.7 295 292.5 299.2 306.3 311.4 322.2 329.9 333.9 334.7 339.8 352.6 355.7 356 354.6 353.1 357.4 362.8 365.4 363.9 352.2 333 316 301.2 280.5 263.2 250.6 240.3 233.8 231.1 230.4 234.3 244.5 253.9 262.6 271.3 275.2 272.5 276.1 286.5 294.4 298.6 304.3 311 317.8 320.9 330.2 340.5 344.4 352.6 365 371.1 382.3 398.4 417.3 432.2 440.6 448.1 456.6 459.5 465.9 474.5 481.2 489.5 497 499.3 499.6 498.5 497.9 508.7 513.2 523.1 539.8 546.9 551.9 555.6 564.9 573.6 580.7 586.1 589 590.9 594.3 598 598.2 599.8 600.5 599.6 598.4 597.1 595.9 597 597.9 594.4 592 575.9 560.2 546.8 535.4 528.7 524.8 527.8 527.9 528.5 529.3 523.5 522.4 523.5
385.8 372.6 364.6 353.3 346.9 343.3 341.6 340.8 338.7 335.1 340.1 353.2 365.1 376.1 381.1 379.6 378.8 376.6 373.5 364.5 351.2 339.7 328.4 317.8 305.3 299.9 298 298.5 291.3 285.7 272.7 261.2 254 246.9 237.9 229.5 220 207.6 191.3 177.2 162.9 147.9 135.3 124.4 109.5 94.8 83 89.9 101 111.6 122.2 136.7 150.4 157.6 164.1 170.3 173.8 176.2 182.9 190 190.1 187.8 181.2 172.8 160.3 148.3 138.3 126.3 112.4 97.5 87.2 83.8 95.1 111.1 122.6 140 157.1 175.3 198.2 214.5 234.8 252.8 265 277.6 282 283.3 286.3 288.6 295.8 308.1 313.9 308 292.7 279.9 278.4 286 292.6 297.7 303.7 309.7 312.2 312.5 322.8 331.5 338.1 332 329.3 331.8 336.6 341.6 344.8 339.2 329.7 313.8 298.4 285.5 270.7 255.8 242.7 232.2 229.6 229 231.1 238 246.8 256.9 264.5 269.7 273 273.7 279.2 289.8 295 298.7 305.9 312.7 316.7 331.5 340.3 347.1 348.5 356.7 364.2 373.6 388 402.2 416 431 444.9 453.3 459.4 464.6 471.8 481.1 485.3 491.6 495.3 498.4 499.2 500.2 506.9 513.1 516.4 524.1 541.7 555.1 560.4 567.2 573.6 581.4 588.2 591.6 595.7 602.2 608.4 613.8 614.2 612.6 613.8 610.9 608.8 607.3 605.7 605.4 604.2 599.6 588 575.5 564.4 548.3 533.7 526.6 521.2 524.2 525.9 527.4 530.7 524.7 521.3 518.9
385.1 375.6 371.3 363.3 358.5 352.3 349.4 347 342.4 342.2 350 361.9 371.5 377.9 382.5 380.3 379.8 380.5 372.3 362.7 354.5 349.9 335.7 323.6 311.9 303.3 301.1 302.1 298.1 290.5 277.7 265.9 258 250.7 242 232.5 223.9 209.6 195.4 181.6 166.7 151.1 137.1 124.8 111.6 93.8 80.5 88.2 97.1 107.3 120.1 134.2 147.4 156 162.6 168.5 172.4 176.3 179.8 184.1 184.7 183 178.5 168.3 156.5 143.5 128.9 114.3 100.7 90.1 83.4 81.2 92.1 108 120.4 138.7 157 179.3 204.7 222.9 241.1 255.3 266.6 275.2 275.9 277.2 278.1 278.6 279.6 287.6 289.9 284 278.3 267.8 264.5 272.8 277.4 282.1 285.5 289.2 292.9 293.2 302.3 312.7 316.7 309.8 307.2 311.1 318 321.9 322.9 317.3 308 298.4 286.2 272.7 260.4 248.3 238.5 227.4 228.1 230.8 235.2 240.4 247.7 258 265.1 267.9 270.7 273.4 280.3 287.6 292 298.6 306.2 312.4 320.5 337.2 343.9 346.6 350 361.8 370 376.5 390.6 405.5 420.3 437.6 445.4 453.7 461.8 471 477.3 484.7 489.5 491.3 498.2 502.7 500.6 501.5 511.5 517.8 523.3 530.5 544.4 566.8 574.5 576.7 584.7 589.6 594.2 602.1 609.8 614.8 621 628.6 626.4 625.9 625.4 623.1 619 617.3 614.8 613.4 610.5 602.9 589 577.9 568.3 549.1 533.1 523.8 519.1 522.1 527.9 527.1 530.8 523.6 519.9 516.6
388.5 380.8 376.4 375.4 370.7 365.5 358.2 353.6 351 351.3 359.1 366.5 374.8 380.2 380.9 382 382.9 379.2 371.6 365.7 358.5 352.2 345.5 334.4 318.9 308.8 303.2 302.4 298.8 293.1 281.5 269 264 256.3 246.1 236 227.7 216.2 203.2 185.9 170.1 154.5 141.9 124.9 114.2 94.9 78.9 85.8 95.5 103.8 116.8 133.1 146 153.6 160.7 166.4 169.5 172.3 175.5 178.1 180.3 178.6 175.3 163.9 152.8 137.2 118.9 106.4 94.4 86.4 80.8 81.1 92.2 106.9 120.3 135.3 160.7 186.8 213.7 229.7 251.9 262.4 268.1 271.6 271.8 271.4 270.6 269.9 264.4 270.9 271.5 267.1 266.3 260.2 252.8 257.3 261.7 265.8 267.3 270.1 273.4 273.7 284.5 296.5 295.1 286.1 285.3 291.2 297.2 299.2 297.8 297.3 291.5 279.9 275.4 264.9 252.7 241 227.5 229.2 232.3 233.3 236.8 244.9 249.6 259.4 264.9 267.4 270.6 272.8 275.2 280 287.9 294.1 303.3 312.9 326.3 338 344.8 349.2 354.2 363.7 375.3 383.5 398.5 409.8 425.5 439 453.3 458.5 465.5 473.5 483.3 486.7 493.6 500.9 503.9 512.2 509.3 510.1 517.5 524.1 529.9 538.3 548.2 571 583 587.8 591.5 597.1 603.9 614.7 621.2 626.5 631.3 636.4 637.6 637.6 635.9 633.9 629.4 625.8 622.9 617.8 612.5 605.9 592.7 579.4 566.9 551.5 535 523.4 515.1 519.6 524.8 525 524.6 518.7 516 513.8
393.5 391.4 387.5 385.4 381 378.9 372.5 363 359.7 360.8 367.3 373.3 381.3 383.6 383.7 385.6 384.8 380 373 366.4 358.3 353.6 345.6 335.2 323.6 314.2 308.9 308 304.8 297.2 286.4 276.1 271.1 261.9 250.8 240.8 229.1 220.6 207 189.8 172.6 157.1 144.9 124.7 112 95.7 81.2 83.3 93.1 102 113.4 133.3 146.4 151 157.7 163.6 165.7 169.3 171.1 176.1 181.2 178.9 168.7 156.8 145.5 130 114.5 102.7 91.9 83 77.9 83.6 91.3 105.2 120.4 138.2 164.4 197 224.8 241 258.6 267.6 272.7 273.8 271.4 268.1 261.4 257.9 254.5 253.4 256.3 256 257.9 248 240.9 245.5 247.8 248.7 249 254 254.3 254.9 265.6 269.5 267.4 265.1 267.2 272.6 278.7 281.2 280.1 273 269.1 261.1 255.6 252.7 241.7 232 226.2 231.9 234.6 234.3 238.3 245.7 249.1 256.6 263.4 266.9 268.9 271.3 271.4 275.1 282.2 289.7 301.8 312.2 326.1 337.4 346.8 354.7 363.3 365.5 375.2 387.6 401.3 415.4 431.6 444.1 459.5 468.1 472.9 488.4 491.6 495 501.6 505.7 512.3 516.9 519.8 523.1 528.1 533.5 543 548.3 560.2 568.4 584.4 591 594.6 603.7 614.8 623.2 630.3 639.6 646.3 646.9 649.6 648.7 647.8 645.4 640.2 634.6 629 623.3 615.4 606.5 594.7 582.6 572.4 561.6 543.1 524 513.5 515.3 522.7 521.2 519.5 515.1 514 510.4
403.1 404 398.2 396.1 395.4 389.5 383.2 377.9 372.4 371.1 378.8 381.3 383.9 387.5 389.2 391.2 386.9 382.6 377.5 369 362 354.9 342.6 333.4 328.3 321.6 312.2 310.6 309.1 301.3 292.3 281.8 274.3 266 255.3 246.2 235.1 225.3 209.8 192.6 174.7 159.9 143.4 128.2 112.8 96.5 80.8 79.9 90.4 100.7 111.8 128.2 141.8 147 155.3 162.2 165 167.6 168.7 174.2 185 179.8 164.4 153.5 143.5 130 117.1 104.6 93.2 81.3 76.9 87.7 91.6 103.9 125.7 145.1 175.2 202.8 231.6 247.1 261.6 271.1 277.2 275.2 271 267.7 254.7 249.2 246 243.8 244.1 245.5 249.7 243.7 229.8 231.1 232.2 231.4 231.2 232.9 234.7 238.1 244.2 244.6 246.8 247.4 250 254.7 260.2 262.3 260.2 255 247.8 250.6 242.4 235.5 230.3 224.5 225.9 231.9 235.1 235.7 238.8 244.6 248.5 255.2 267 268.7 271 271.8 278.1 283.5 285 293.5 307.7 314.5 325.3 334.1 342.9 353.4 360.7 370.6 381.7 394.9 403.9 423.2 433.7 447.4 460.4 474.7 482.4 494.9 501.3 502.6 507 512.7 519.9 525.3 530.9 536 539.2 545.3 552.8 558.4 567.3 573.9 587.7 593.8 603.9 616.8 627.4 633.8 642.5 652.7 659.1 661.2 661.9 660.6 659.5 656 649.6 641.5 634.5 626.8 618.2 608.4 597.9 589 577.2 570.2 549.1 522.1 510.9 512.9 517.1 516.6 517.3 512.6 507.5 504
414.7 409 407.3 404.3 403.4 401.6 394.7 388.6 380.7 378 384.6 388.4 391.6 393.9 396.1 399.3 399.9 392.3 385.3 375.9 367.1 357.3 345.3 337.6 329.7 320.1 313.7 312.2 311.9 306.4 298.7 287 275.7 268.5 260.5 253.2 239.7 228.6 211.6 194.4 177.2 161.6 146.7 132 115.9 98.6 83.8 76.2 79.6 99.4 109 121.9 135.1 143.5 151.5 158.9 164.8 170.5 169.6 175.7 182.2 175.8 162.9 154.2 143.7 129.2 120 107.7 98.9 85 77 86.2 90.9 108.9 129.5 148.6 184.1 199.7 222.8 246.3 258.4 267.8 275.7 277.3 268.1 261.6 249.2 242.4 238.4 233.9 234.4 233.8 232 226.6 218.4 219.2 218.8 218.5 217.7 216.1 218.8 219.8 223.4 225.4 228.5 231.2 236.2 242.6 246.6 244.4 238.7 235.5 230.4 228.5 223.9 218.7 223.9 215.7 222.2 232.1 235.8 234.7 237.9 245.5 253.7 261.5 263.6 266.8 273 276.8 279.8 281.6 288.1 293.6 305.5 314 327.8 337.1 346.5 356.8 365 378.8 392.9 399 411.7 423.2 438.7 456.6 470.1 483.4 495.1 503.5 509.3 513.2 517.4 520.7 529.3 533 547.4 549.7 550.1 556.4 565.4 571.9 577.4 585.7 594.2 604.4 618.6 628.2 642.2 648.8 658.6 667.5 669.1 670.1 672.8 675 669.9 665.3 656.9 648.1 639.4 630.1 620.8 609.8 603.2 593.4 586 574.1 548.7 521.6 510.1 510.5 512.4 512.7 515.8 509.7 500.3 496.5
413.6 418.1 416.1 414.7 408.9 407.2 402.3 396.1 389 385.2 391.1 397.8 396.8 397.3 401 403.3 401.9 398.5 390.8 382.6 376 359.4 351.2 338.3 329.8 320.8 316.4 314.9 313.9 309.6 303.5 292.4 282.1 274.5 266.9 256.8 244.3 232.2 218.7 196.6 180.2 164.7 149.9 134.7 119 102.2 86.4 74.6 77 95.9 106.7 115.3 131.1 140.2 147.3 156 164.3 170.7 172.5 177.3 177.1 173.6 163 155 146.2 133.7 124.6 114.8 105 90.5 73.9 82.9 90.7 112.1 134.5 158.2 190.2 197.8 206.2 232.4 251 260.4 270.8 270.1 263.8 255.3 241.9 235.4 231.2 228 225.9 223.2 219.3 214.7 210.3 211 210.6 210.1 209.5 206.8 205.6 206.1 209 211.7 215.5 219.1 224.9 231.4 232.1 225.6 222 218.8 214.9 205.5 195 201.9 210.1 215.7 219.7 227.2 230.2 234.8 242.2 253.1 259.8 263.2 264.3 266.4 276.8 277.5 279.4 284.6 287.3 302.2 314.7 321 327.8 340.3 349.3 356.8 373.2 386.2 396.1 408.4 420.9 431.6 446.1 462.8 473.8 485.6 498.4 504 509.7 518.2 524.6 529.6 536.2 542.8 553.5 557.7 561.8 567.6 575.6 582.5 589.7 596.9 604.2 615.1 629.4 639.8 651.6 666.4 673.2 678.4 678.6 682.5 685.1 684.2 679.1 675.2 664.8 655.2 646.6 633.9 621.6 609 594.4 588.5 587.5 576.8 550.5 522.6 510 509.2 509.7 510.6 514.7 506.4 496.7 492.6
413.4 419.2 423.9 421.3 419.3 411.7 407.5 400.6 395.7 391.7 393 402.6 405.5 409.9 412.7 411.2 406.2 401.3 395.5 386.8 373.5 360.9 353.4 336.5 329.6 323.1 319.1 318.1 317.2 313.3 306.1 296.1 288.4 280.3 273.6 263.9 251.1 236.9 221.7 200.5 181.4 167.1 152.1 137.6 121.1 103.2 86.4 73.8 77.9 91.1 101.5 110.9 123 136.9 145.3 153.3 159.3 168.2 170.4 176 177.3 172.7 164.7 157.4 149.3 142.2 133.2 123.2 112 95 72.6 85.1 98.3 121.3 143.3 169 191 194.3 199.2 212.5 243.9 258.9 258.8 255.4 250.6 247.1 236.8 227.9 223.4 221.4 218.1 213.8 209.3 204.4 202.2 202.8 203.4 203 202.1 197.4 195.8 195.4 197.5 200.6 203.4 208.4 209.2 211.4 209.2 209.9 204.8 196.4 190.9 199.8 211.2 215.1 215.8 222 225.2 230.2 232.6 238.2 248.6 257.1 262.5 265.2 265.7 267.3 280.3 279.1 284.3 288.9 297.7 309.3 320.8 324.4 328.9 340.8 351.6 360.3 379.2 396.7 405.6 418.4 433 439.8 452.6 464.3 481.9 490.1 502.8 505.2 511.9 522.5 531.1 537 542 551.6 559.6 563.5 569.8 582.9 592.8 599.5 603.8 609.8 615.5 623.3 639.5 648.7 657.9 672.9 680.5 686.7 689.5 690 692.6 690.6 685.5 680.6 671.8 664.6 656.4 644.4 628.4 610.3 595.9 582.7 572.8 565.8 547.1 524.3 510.5 508 508.4 509.3 512.5 500.8 493.8 487
413.5 418.9 425.9 426.1 424.9 418.5 410.6 405.7 399 396.5 397.2 401.4 411.2 417.2 420.1 420.5 417.3 406.3 396.1 389.1 371.9 361.8 350.4 335.4 325.8 318 313.1 316.3 317.6 313.7 305.6 295.6 287.3 284.3 280.7 274 263.7 244.6 226.2 206.9 186.6 169.3 154.2 140.4 124.4 108.8 90.1 75.1 74.3 83.4 97.4 106.1 118.4 137.1 145.1 151.5 158.5 167.7 169.7 180.4 178.3 174 169.1 161.7 155.2 149.1 140 131.7 129.4 104.5 70.2 86.3 102.8 123.9 144.5 171.5 182.6 185.9 191.3 201 220.6 242.3 242.4 239.9 233.9 233.3 227.1 218.2 215.1 213.6 210.2 207.1 202.8 198 193.9 195 195 195.1 194.1 189.4 187 184.7 186.7 190.2 194.8 196 184 177.6 175 177 182.7 187.8 202.5 219 223.4 224.5 223.4 226.6 231.4 234.5 237.9 242.3 249.8 260.6 265.4 267.7 266.1 268.9 273.9 285.4 293.3 295.6 303.9 316.7 324.1 330.6 339.9 344.1 354 366.9 380.6 399.7 407.2 419.6 435.7 451.1 463.3 471.3 485.3 497 505.3 512.5 517.7 524.7 535.1 546.7 549.1 561.7 567.5 574.9 581.3 596.7 604.3 609.1 613.9 621.4 624.2 633.3 642.8 652.6 662.7 673.7 685.8 691.1 695.5 696.7 697.7 695.5 690.1 683 675.5 672.5 663.9 650.4 636.2 620.5 600.9 575.9 571 565.9 553.6 526.6 512.1 508.3 507.4 508.6 510.2 500.1 489.7 481
409.6 416.2 421.6 424 427 423 414.8 407 400.8 397.6 399.3 403.4 414.8 422.2 424.1 424.1 421.8 412.4 397.4 386.7 371.4 354.2 348.8 335.9 321.2 309.8 301.9 313 313.4 310.2 300.8 296.4 293.9 291.3 284.9 281.2 268 248.6 230.2 211.1 192.8 173.7 157 142.5 129.5 114.7 96.6 79 72 74.8 90.4 101.5 111.9 131.2 144.3 151.9 157.8 166.1 170.7 178.8 180.7 176.5 171.9 167.3 160.4 147.3 141 143.2 144.6 110.7 78.2 68.6 90.2 113.7 131.7 149.8 170.6 176 181.6 190.7 206.2 225.4 222.8 216 217.3 217.8 215.5 207.2 205.9 204.8 203.5 200.5 196.2 190 185.7 185.9 184.6 186.3 186.2 181.5 180.3 177.5 177.1 181.4 184.3 177.2 171.1 178.1 185.1 192.8 204.6 211.5 222 230 232.7 231 231.5 228.1 238.4 240.9 243.2 248.3 256.6 267.4 269 270.7 271 274.1 281.5 288.1 297.9 297.6 311.2 321.8 329.7 336.6 347.5 353.7 358 365.1 378.8 395.9 410.7 421.5 439.9 454.7 468.8 480.9 492.4 500.6 511.4 518.7 526.7 530.9 539.6 551.6 558.8 569.3 574.4 584.5 595.5 607 614.6 620.9 626.6 631.2 636.2 643.1 648.3 658.9 671.6 679.3 687.3 695.4 700.3 704.8 704.9 702.6 693.9 688.2 681.8 679.2 672.8 660.4 642.3 619.9 595.1 574.9 566.4 562.5 548.1 528.1 514 508.6 505.7 510.9 512.6 500.2 488.4 478.3
403.1 410.6 416 421 424.5 426 414.1 408.1 400.9 397.9 399.6 405.3 414.2 423.2 427.6 428 427.5 418.7 400.2 383.4 371.3 352.5 342.8 332.8 317.7 303.9 297.8 305 305.5 301.2 298 296.4 294.7 291 286.5 283.2 265.2 249.1 231.8 214 195.7 178.2 163.9 147.3 133.6 119 102.2 86.8 70.5 71 76 95.7 107.6 122.5 142.7 152.5 158 166 172.5 178.4 180.8 179.4 175.1 166.4 151.4 144.7 150.9 153.2 135.6 94.3 78.8 68.2 77.5 101.3 124.6 145.8 159.9 165.2 170.2 177.2 193.3 201.3 203.1 203.8 204.2 202.8 202.1 198.5 198.3 198.4 195.6 192.7 189.1 181.3 178.6 177.4 175.2 177.4 178.3 177.3 173.1 170.7 170.7 163.5 164.6 165.4 172.7 179.9 196.1 211 218.8 227.7 233.8 240.4 240.6 239 240.1 240.3 244.4 248.7 249.3 253.1 261 267.3 272.3 274.6 271.9 275.1 282.1 287.6 293.7 297.5 314 323.7 331.3 338.7 350.8 356.6 363.2 379.9 383 392.2 404.8 422.6 442.7 464.2 470.7 487.4 495.9 506.2 515 522.9 533.1 538.2 544.2 557.5 569.4 574.1 585.4 596.3 603.4 615.9 624.6 635.6 642.8 641 650.3 654.5 657.2 664.1 676.9 684.5 695.6 703 711 713.8 716.3 709.7 694.9 688.9 681.5 678.3 673.7 659 636.8 616.3 601.7 578.3 561.5 552.7 542 533.8 515.2 507.7 504.2 512.3 508.2 498.4 488.9 475.1
403.1 407.3 410.1 416.1 416.7 419.9 411.7 403.5 396.8 395.9 401.8 409.1 411.4 421.9 427.9 427.7 427.5 418.5 400.9 380.1 364 352.1 338.4 327.4 314.5 299.9 294.2 297.9 299.5 296.9 294.9 293.5 295.6 294.9 287.4 280.3 267.1 249.7 235.5 218.2 200.6 182.9 169.8 155.4 139.9 123.9 109.7 90.5 78.1 68.4 69.8 84 102.6 115.9 135.9 150.2 155.3 166.6 174.1 179.2 181.5 179.6 172.4 162.3 154.1 147.1 147.5 141 106.4 86.4 74.6 66.5 84.6 104.9 122 137 149.1 155.8 160.2 167.3 178.7 187.1 192 191 193.2 194.6 191.6 189.3 190.4 190.8 189.2 186.7 182.1 176.4 173.4 170.7 168.8 167.7 168.8 167.1 166.4 165.8 162.2 157.7 163 168.7 176.6 190.7 207.4 219 229.1 236.8 252.7 255.2 251 249.9 249.4 248.8 248.8 253.2 254.8 260.1 263.1 267.5 275.8 278.7 275.2 278.5 280.9 285.1 290.6 299.2 312.5 321.1 330.1 340.6 352.8 359.5 365.9 378.4 388.3 392.5 405.1 425.2 445.6 459 473.6 489.8 507.2 513.7 519.5 529.3 536.5 540.5 551.4 563.3 577.8 588.1 592 600.7 610.8 621.3 632.3 640.4 647 652.1 658.4 663.9 667 670.5 678.4 690.5 705.5 712.2 724.8 726.1 719.2 706 695.3 690.1 681.9 675.3 668.8 658.1 644.1 615.2 602.7 580.1 568.2 558.2 543.4 528.5 513.9 505.3 502.2 513.5 509.3 497.5 483.6 472.9
405.6 408.3 409.4 409 409.9 412.4 409.2 399.4 394.4 389.4 396.2 402.9 409.3 416.8 422.3 416.1 417.1 412.5 399.2 378.6 359 344.1 327.8 322.2 313.9 296.7 292 296.1 301 295.9 294.3 294.7 298.5 298 287.4 278.8 270.3 254.2 239.2 223 204.1 189.7 177.4 165.7 148.2 129.6 114.7 96.8 85.8 73.7 67.5 71.1 97.8 110 129.5 143.5 154.8 166.5 173.6 180.2 188.4 182.9 174.8 168.3 162.3 147.4 127.4 112.5 96.7 79.1 68.5 72.7 87.2 104.1 120.9 129.6 136.1 147 152 157.8 169.1 178.2 180.4 178.4 181.3 184.4 183.7 183 183.5 184.1 184.2 181.8 176.8 171.1 166.8 165 163.6 162 161.3 161.4 160.3 159.4 155.1 159.6 164.5 171.6 184.6 201.4 212.2 225.5 239 252.6 272.3 270.5 263.5 263.1 260.1 255.7 253.9 254.9 258 263.1 266.9 270.3 277.7 280.2 283.2 288.4 286.5 285.8 293.9 301.5 307.2 317.9 327.4 339.5 355.5 368.6 373.9 383.4 390.2 395.6 407.3 429.5 444.7 455.8 476.5 493.4 507 522.9 526.6 536.3 539.6 545.9 558.8 571.4 586.1 599.9 600.1 604.6 617.8 627.2 639.6 648.8 655.5 661.1 667.1 669.3 673 677.6 683.6 696.2 713.5 720.4 726.6 723.7 713.3 703.2 697.3 692.4 685.9 676.5 661.3 654 634.4 614.4 596.9 572 566.4 546.3 540.7 524.6 514.8 504.9 500 512.2 510.6 495 479.4 471.6
409.2 404.1 408.9 406.6 404.8 403 403.6 395 387.4 382.9 387.9 395.2 399.6 402.9 407 406.3 405.7 406.1 395.9 375.9 353.6 337.1 325.9 319.8 306.3 288.9 292.5 293.4 294.3 294.5 295.2 295.8 297.5 297.8 291.7 280.7 271.9 258.3 243.4 227.5 212.4 198.6 188.7 172.2 154.3 134.1 117.1 100.9 89.4 73.4 67.3 65.7 92.3 104.7 126.3 143.8 156.3 167.8 174 179.5 187.5 184.1 181.5 181.3 173.5 154.1 126.8 108.2 92.3 75.2 65.7 79 92.1 102.2 116 125.2 133.7 139.5 143 145.1 153.3 165.7 167.1 167.7 169.6 173.4 176.8 177.7 178.3 180.1 181.4 178.3 174.6 168.9 164.9 160.9 159.4 157.6 156.7 156.1 154.8 152.7 155.1 160 166.4 178.3 192.8 207.7 219.6 234.5 248 271.1 287.4 285.3 276.3 271.6 264.7 260.4 259.3 258.3 263.3 266.9 269.6 270 272.1 278.1 286 292.7 293.3 296.3 300.1 306.3 318.4 324.3 332.8 343.1 352.3 364.5 376.3 386 394.7 400.4 406.8 426.3 444.6 454.8 472.5 489.9 509.9 525.8 529.9 537.6 541.2 553 564.7 576.6 588.3 601.6 609 612 623.5 634.8 644.6 657.6 666.1 669.4 672.9 676.2 679 683.5 689 699.7 717.5 723.4 725.1 717.9 709.3 699.8 691.4 685.9 681.2 676.4 657.2 648 624.4 613.8 586.7 567.1 552.9 546.6 540.7 528.2 518 500.6 495.2 515.7 504.8 491.7 477.4 470.3
405 399.8 400.3 402.9 400.7 397.1 395.3 391.8 381.7 377.4 381.4 384.9 390.6 392.2 395.2 395.9 392.1 389.4 384.8 369 344.2 332.5 321.4 310.7 293.8 285.1 291.6 291.9 291.6 294.8 295.6 297 299.9 299 294.4 283.5 272.9 261.9 247.2 237.2 227.4 218.6 200.1 177.5 160 140.2 122.5 106.2 93.4 76.1 67 64.1 86.4 101.1 123.1 142.4 158.8 168.6 173.6 180.3 185.7 183.6 187.3 183.4 175.7 161.1 138.1 121.6 95.6 71 64.1 80.7 93.7 104.1 115.2 125.7 131.3 131.9 135.9 135.2 139.9 149.2 152.6 156.2 160.3 166.9 171 172.3 174.4 177.2 179.6 177.4 173.8 169 162.1 154.8 155.6 153.7 151.6 151.7 151 153.1 158 162.4 173.5 187 199.5 212.9 227.8 240.7 258.9 284.4 295.8 297.4 285.3 277.5 269.7 265.8 264 264 265.4 265.7 270.3 269.8 271.7 278.9 288.2 296 298.1 303.3 307.1 315.8 322.8 330.2 337.8 347.3 354 362.9 375.1 384.8 394.3 404.8 413.8 435.8 444.5 456.7 473.8 490.5 505.7 521.8 532.4 539.5 544.3 555.8 566.6 582.9 596.9 610 615.1 619.9 634.4 641.9 652.4 662.1 670.3 678 681 683.7 685.9 689.5 697.6 708.8 724.7 731.4 721.8 716.2 705.4 695.6 686.3 678.4 676.4 668.3 655.3 636.2 615.8 601.7 581.2 565.6 556.7 551.9 551.4 532.2 518.3 496 495 512.3 497.6 487.7 475.7 468.8
398.4 396.7 394.8 392.6 394.3 390.1 385.2 387.3 375.8 370.9 371.1 374.8 378.5 382 382.1 382.7 374.8 372.3 369.6 355.5 340.5 323.2 315.3 304.3 286.7 279.5 285.5 289 288.7 290.6 295.6 298.4 299.8 296.6 292 281.6 272.9 260.7 253 248.3 248.9 235 208.4 184.4 166.5 147.3 129.3 113.5 100.8 85.1 66.4 63.7 81.4 99.1 122.2 142 159.7 173.3 180.1 184.1 186.3 186.8 188 183.2 173.6 168 159.8 144.9 104.5 73 63.2 75 92.8 106 119.2 129.7 124.2 121.6 129.1 130.6 136.4 139.7 142.9 146.9 150.9 157.8 163.2 167.6 172 176.5 179.7 179.5 175 170.7 161.2 158.4 155.3 149.9 147 147.8 151 155.2 160.6 167.2 180.4 191.8 204.7 219.8 235.9 250.4 268.6 295.2 307.9 307.2 293.5 283.2 274.9 269.1 268.2 266.2 267.1 266.5 266.4 268.6 272.3 280.5 291 296.6 297.9 304.2 312.3 321.3 326.3 332.6 341.8 349.1 354.9 367.9 373.7 385.2 394.6 406.1 415.8 436.9 445.1 457.6 474.6 489.3 506.2 521.8 535.9 541.7 548 559 573.4 588.3 604.6 617.1 621.3 629.5 643.7 648.7 658.1 665.8 677.7 689 687.8 690.7 692.4 695.9 703.3 719.3 725.6 729.4 719.8 709 701.7 696 689.1 679.8 672.6 661.7 647.5 627.9 615.2 599.7 581.8 565.5 563.8 560.1 549.7 533.2 506.5 491.7 496.7 498.6 494 481.8 472.4 469.2
