ncols 200
nrows 82
xllcorner 270000
yllcorner 335250
cellsize 50
253.1 255 256.4 258.7 256.2 256.3 259.2 263.3 267.6 266.7 268.4 277 282.7 280.5 289.9 298.6 304 305.6 312.5 318.8 324.7 333.6 343.6 359.6 364.7 366.8 369.1 380.9 394.1 398.9 401.1 409.4 412.2 415 420.1 426.9 428 428 428.8 432.1 436.6 435.4 440.6 445.8 446.5 447.3 456.1 472.8 487.2 490.4 495.7 500.6 502.6 499.6 500.3 513.3 518.8 523.4 522.9 521.5 511.4 492.2 477.1 475.1 473.6 478.3 485.6 487.1 496.2 501.9 502.5 495.3 488.6 488.6 504.7 515 532.2 538.2 541.6 544.6 544.3 543.3 542.2 545.5 539.7 533.8 532.8 545.5 538.4 526.6 523 514.3 509.8 509.3 506 508.2 507.2 503.6 504.2 501.5 491.4 481.7 477.1 480.4 492.6 497.8 494.7 502.3 504 496.9 496.7 500.1 497.6 492.7 491.6 485.5 476.8 469.5 465.7 458.8 452.6 443.6 434.6 432.5 429.5 426.5 423.5 419.9 417.1 413.7 410.1 407.1 402.5 397.4 389.4 384.7 381.4 378.8 379.2 379.3 378.3 378.7 382 384.3 386.8 387.3 384.4 384.8 386.2 382.4 383 386 389.3 400.8 409.7 416.7 422.3 428.6 433 435.7 437 437.4 437.8 438.4 438.8 439.1 439.9 441.1 441 440.8 441.4 441.5 441.8 442.5 442.5 441.5 442 437.9 437.6 437.5 437.2 436.5 436.1 434.8 434 434 433.8 433.5 433.9 434.3 435.7 436.9 435.1 433.2 434.3 434.3 427.8 427.9 428.9 433.2
261.1 258.7 259.6 261.3 258.4 263.1 266.1 267.8 269.3 268.6 270.2 281.3 282.7 286.5 292 297.4 301.2 305.5 311.6 316.2 320.8 329 337.8 348.2 353.5 358.7 361.3 375.5 381.4 390 397.3 406.5 414.9 419.1 422.4 429.1 432.4 434.6 435.4 431.2 435.9 442.3 447.1 451.8 451.6 451.6 453.8 467.1 478.4 487.9 488.1 489.8 490.9 490.8 492.7 509.3 519.4 527.5 524.4 519.5 504.6 481.4 470.6 467.5 465.9 474.2 482 481.3 491.4 499.3 499.7 492.7 488.6 488.6 501.9 509.3 528 535.4 539.2 540.1 545.6 548.5 543.2 546.1 541.2 536.2 532.8 533.5 529.4 519.9 514.5 507.5 503.1 501.3 500.7 502.1 499.8 493.4 492.9 496.1 485.8 475.9 472 472.9 486.1 491.6 486.9 487.9 490.3 487.2 499.2 503.1 500 494.3 487.8 485.6 483.3 472.1 464.2 460.9 456.6 446.7 437.2 428.9 425.5 422.5 419.6 416.5 413.7 410.9 407.6 404.7 399.8 394.8 390.5 384.8 380.2 377.3 376.3 376.5 374.6 376.5 373.6 370.5 374.2 375 376.5 377.3 379.1 377.6 374.7 386.3 395 403 409 414.2 421.7 425.2 431.2 434.7 435.4 436.3 436.5 436.4 436.3 436.8 437.7 439 440.5 439.9 439.4 439.6 439.9 439.3 437.9 437 436.3 435.4 435.8 435.7 435.9 434.9 434.4 433.6 433.3 433 432.7 433.4 434 434.4 436.1 437.6 435.1 433.5 434.7 435.3 433.5 430.6 431.1 434.6
268.7 266.8 263.1 263.1 261.4 265.6 269.8 272.4 273.1 272.1 276.9 278.5 285 288.1 294 296.6 299.2 303.8 309.4 313.6 317.6 327.8 333.5 340.3 344.5 350.8 355.2 364.3 373.5 382.5 390.9 397.1 407.6 416.2 418.4 424.4 431.8 432 430.1 426.2 428 436.8 442.6 446.3 451.7 454.5 453.7 459.5 478.1 485.6 486.4 486.7 491.5 490.8 497.1 514.7 520.3 511.6 521.8 516.2 500.2 474.1 463.4 453.7 460.4 468 467.9 470.7 482.8 493 498.5 494.3 493.2 488.6 498 503.6 522.6 528.6 530.4 539.4 548 547.6 540.6 539 536.5 532.7 534.1 524.7 516.5 505.9 499.1 495.9 492.9 493.2 495.3 499.4 495 485.5 486 485.6 479 470.4 467.2 471 484.1 489.8 478.5 475.3 477.5 482.1 490.3 499.5 499.1 492.8 487.4 481 476.8 474 470.6 463.6 454.5 444.6 435.8 424.8 421.3 418.9 416 413 410.2 408 405.8 402.6 397.5 392.4 386.8 380.7 380.5 378.8 377 375.3 379.8 380.2 379.5 378.3 368.9 366.9 368.6 364.9 368.5 368.2 375.9 388.5 395.5 402.9 409.5 415.2 421.4 426.2 431.2 432.4 432.9 433.7 433.6 433.5 433.4 434 435.4 436.4 437.1 437.4 437.7 437.8 437.5 436.3 436.1 435.6 434.7 434.2 435.2 435.5 435.2 433.7 433.3 433.5 433.3 432.3 432.6 433.2 433.9 434.7 435.4 436.1 434.8 434.2 434.8 435.9 436.5 433.8 432.8 434.1
275.7 273.4 270.1 265.8 264.4 265.8 270 274.1 278.1 278.2 282.1 281.7 286.4 290.3 293.1 295.1 297.3 301.7 307.6 312.5 320.6 325.3 330.6 333.2 334.6 335 342.5 355.6 366.5 374.6 382.6 391.1 398.7 405.3 412.7 418 419.9 420.1 410.7 406.7 411.4 423.4 435.1 441.3 446.4 452.6 457.5 453.4 457.5 470.1 481.2 487.9 487.4 487.2 507.9 515.7 514.2 510 512.3 506.6 494.8 468.2 455.2 441.8 451.7 455.1 453.8 461.7 474.4 485.5 493.4 490 486.5 485.7 493.6 500.2 513.6 520.5 529.3 537.9 544 543.5 536.6 532.6 529.8 529.5 532 514.7 504.7 493 493.3 490.2 488.5 491.7 491.9 495.4 490.1 481.6 481.2 479.3 474.2 466.5 464.4 468.1 476.9 479.1 469.2 469.5 475.3 478.9 485.7 494.4 494.2 487.9 483.9 478.2 477.8 472.9 467.8 458.9 448.7 440.5 433.5 422.1 419 418.4 413.1 410 407.3 405.3 402.9 399 391.9 387.5 389.2 388.4 384.9 382.4 381.3 379.1 380.8 380.6 379.1 377.4 371 375.7 375.9 361.9 356.2 369.6 380.1 389.4 396.8 402.9 409.9 416 421.1 425.2 427.8 428 428.5 430 430.2 430 429.8 431.7 433.5 434.5 435.5 435.1 434.9 435.3 435.4 434.4 434.5 434 434 434.6 435.2 434.9 434.6 434.5 432.8 433 432.4 432 432.6 433.3 434.3 435 435.7 434.7 434.3 434.5 434.8 435.2 435.9 435 434.2 434.8
269.4 273.8 272.8 270.1 266.5 266.3 270 274.2 278.3 281.7 280.8 287.2 286.6 289.4 290.8 294.1 296.6 300.5 306.4 314.6 316.5 320.8 322.9 319.2 319.5 324.3 333.5 343.1 353.1 365.2 373.1 378.2 387.1 394.1 399.5 406.5 408.4 405.5 397.2 393 397.1 400 416.4 428.4 437.8 442.6 448.5 449 452.3 449.8 453.6 463.4 480 489.2 511.2 513.4 510.3 508.1 507.6 499.9 488.9 467 452.9 437.3 441 442.2 444.5 452.9 464.9 476.3 484.9 482.4 476.6 482.1 490.5 496.8 506.2 516.8 525.1 532.8 535.5 537 530.8 526.7 525.5 528.8 523.8 506 493.3 487.8 486.9 487.3 487.5 491.8 490.4 491.1 481.4 478.4 479.3 475.1 468.1 466.5 464 464 466 467 463.9 465.1 472 475.6 481.1 485.9 489.2 484.6 479.4 473.5 469.7 467.7 461.9 453.8 445.5 439 432.3 423.2 416.2 415.9 410.3 407.2 404.1 402.2 399.9 396 390 392.8 393.2 392.6 392.1 389 387.9 384.8 382.2 379.4 376.1 372.8 374.9 379.3 378.7 372.4 357.8 360.2 378.4 388.6 396.4 402.3 409.6 415.3 420.1 422.2 423 421.3 422.8 425 426.4 426.2 426.5 428.7 431.3 433.2 434.3 433.9 433.6 433.1 432.3 430.8 430.6 430.8 430.5 431.1 431.9 432.4 433.1 432.6 432.5 432.2 431.6 431.1 432.5 434 434.5 435 434.7 434.3 434 433.6 434 434.6 436 436.6 435.4 435.7
258.9 263.2 263.8 265 265.4 267.4 270 274.4 278.4 281.8 280.8 287.9 287.6 289.6 292.1 294.4 296.1 301.4 305 310.7 315.6 314.9 310 309.5 309.9 314.4 323.6 332.4 341 348.9 358.2 363.9 369.9 377.2 378.1 385.1 390.5 391.1 384.3 381.8 381.4 381.2 394.6 411.7 418.3 429.5 433.2 439.9 443 442.8 445 452.6 468.8 487.5 507.4 513.6 509.6 507.9 504.1 497.8 477.9 455.9 439.3 432.8 434.5 436.7 438.8 443.6 451.1 459.8 466.7 472.7 469.3 472.3 479.4 485.7 489.4 499.4 507.7 515 525.4 528.6 524.2 521.2 523.4 524.9 513 498.1 492.2 487.5 484 482.8 485.7 485.7 486.9 484.3 475.9 473.8 474.7 471.1 466.6 466 464.3 462.1 461 462.2 461.4 462.3 465.3 466.2 472.8 477.9 479.2 476.8 466.9 455.2 460.1 462.7 456.7 449.8 443.2 436.3 430.5 424.4 416.1 410.3 406.8 404.1 401.3 398.8 396.3 392 394.5 396.2 396.1 396 395.9 393.9 392.5 389.9 387 382.9 376.9 373.2 379 383 383.7 381.2 366.9 355.7 370.5 382.6 390 398.3 408.4 413.3 416.5 418.3 418.2 418.8 418.4 421.3 422 422.6 423 425.7 429 431.6 433 432.6 432.1 431.4 428.9 426.6 426.4 426.4 426.3 426.8 427.1 427.4 428.6 429.7 430.5 431.7 431 431 431.1 432.6 433.8 434 434.3 434 433.7 433.2 432.4 433.3 434.2 436.7 435.6 438
249.7 253.2 254.8 257 260.4 264.4 268 272.8 277.8 281 282.3 285 287.2 289.2 292.5 292.9 294.6 297.8 304.1 309.5 315 312.6 307.5 306 306 306.5 311.7 318.9 328.2 334.6 340.1 346.3 350.8 356.5 359.8 366.8 371.2 374.2 369.6 369.8 371.1 374.4 382.3 396 403.8 411.5 419.5 431 439.3 442.4 443.3 449.1 462.6 480.5 504.8 514.7 511.4 510.7 498.8 481.9 460.1 443.5 430.1 426.4 430.7 433.2 434.6 437.3 440.5 447.6 454.6 458.8 458.2 462.3 464.4 467.1 472.7 480.7 490.3 501.4 511.7 517.7 517.1 516.9 523.2 518.5 505.1 496.7 488.8 485 481.9 479.5 480.3 480.2 479 476.1 472.9 469.3 469.5 466.4 467.6 467.1 466.7 464.1 460.7 460.4 456 457.6 457.1 456.4 458.7 462 462.1 456 449.2 455.7 465.9 460.9 450.9 445.8 439.9 436.5 430.4 423 416.2 412 407.6 401.6 399.4 395 392.6 394.7 397.8 397.9 397.3 397.2 397.6 397.6 396.6 394.9 390.8 386.7 382.3 382.2 381.1 384.8 385.3 375.4 358.7 352.4 360.5 368.2 381.9 398 406.5 408.7 411.5 413.1 415 416.4 416.1 417.2 419.4 419.1 420.1 421.8 425.5 428.8 430.3 429.7 428.9 428.2 425.6 423.1 422.1 422 420.9 422 422.4 423.3 424.1 424.5 425.8 428.7 432.1 431.2 430.5 430.9 432 432.2 432.6 433.3 433.4 432.5 431.1 431.5 432.6 434.8 435.6 435.6
240.9 244.4 246.7 251.1 255.7 260.1 266.6 271.4 276.2 279 282.8 287.3 289.2 289.9 290.7 291.9 294.7 300.3 306.2 310.4 314.1 314.4 308 306 306 306 307.3 311.5 316.4 320.9 325.1 329.1 334.8 340.8 345.3 349.5 355.3 358.8 360.7 362.4 363.3 365.4 371.1 380.9 396.2 408.6 416.9 427.9 435.7 436.7 444.3 451.2 461.7 477.6 499.3 513.7 509.4 502.1 484.7 462.3 441 427 419.1 418.1 425 425.8 427.1 429 431.7 435.8 442 446.4 450.2 452.6 450.7 451.4 458.2 466.7 477.6 489 500 509.2 510.4 513.4 514.7 507 499.5 492.7 484.4 482 479 476.5 479.3 477.9 475.2 472.4 469.6 465.2 462.8 463.5 471.7 471.9 467.5 464 462 462 456.6 450.6 449.5 447.5 445.5 447.3 450.1 450 441.9 450 456.9 450 442.9 442.8 439.5 434.4 428.8 421.9 416 411.5 405.6 398.4 395.2 393.4 394.9 397.3 399.8 399.3 398.9 398.8 400 400.2 399.8 397.7 394.3 389 384.9 386.2 386.7 385 384.4 376.2 355.5 351.3 360.3 369.9 379 394.9 402.8 403.5 406.6 410.5 413 413.5 413.3 413.4 415.3 415.8 416 418 421.3 425.2 426.4 425.9 425.2 424.4 420.5 415.9 413.1 412.8 414.6 416.9 417.9 418.9 420 420.5 421.5 424.5 426.8 431.2 430.9 429.3 429.7 430.1 431 431.7 432.4 432.5 430.6 429.4 430 431.2 431.6 429
235.3 238.5 240.5 243.3 246.9 256 264 269.7 274.7 279.1 281.7 285.2 288.1 289.9 292.4 293.5 294.9 299.9 305.4 308 312.8 312.5 310.8 306.6 306 306 306 307.5 311.2 314.5 318.1 323.5 325.1 325.4 330 332.9 338.7 344.1 350.8 356.6 359.7 361.2 367.9 381.4 396.4 408.4 418.5 434.4 439 437.3 438.5 448.3 460.2 477.9 494.8 508.9 499.4 485.9 465.7 438.9 419.8 410.5 408.9 410.1 416.3 421.7 424.4 424.8 420.4 422.2 429.1 434.8 437.8 440.3 438.6 438 446.8 454 468 481.4 490.5 500.9 506 510.9 501.5 491.1 484.1 481.9 476 475.7 476.1 471 479 474.8 476.3 468.8 466.7 463.4 460.7 461.7 466 470.6 467.2 465.1 462.9 461.1 459.3 451.3 447.3 446.8 444.6 442.3 440.8 437.4 436.3 437.1 436.6 436.9 439.1 439.1 438.9 431.7 427.3 420.7 414.5 410.4 405.3 397 395.4 394.3 395 397.2 401.6 401.1 401.1 403.3 404.7 402.9 402.1 400.6 396.2 391 387.8 388.9 389.5 387.1 382.1 376 360.4 346.8 357.6 366.5 373.6 382 395 398.2 399.7 404.4 409.2 411.3 411.6 411.4 410.8 411.2 410.8 410.3 414.8 419.3 419.6 418.9 418.7 418.4 412.8 407.6 406.4 406.4 409.3 411.5 412.5 413.4 414.2 416.4 419.1 421.2 422.5 425.5 429.9 429.9 427.9 427.7 429 430.8 432.2 433 431.6 428 425.7 424.4 422.9 423.9
231.6 233.4 237.2 242 250.1 256.5 263.9 269.1 273.2 278.6 281.9 284.5 285.9 288 290.8 291.4 294 295.7 299.2 302.6 308.3 307.7 308.9 308 306 306 306 306.9 309 310.8 313.6 316.3 321.1 323.6 325.6 326.2 329.8 336 343.3 349.7 354.9 361.4 368.5 380.9 394.6 410.5 421.9 437.6 440 438.1 441 443.3 451.9 475 484.5 491.2 480.5 465.6 442.6 422.2 409.4 405.4 404.3 407.9 413 419.2 423.1 422.8 415.2 415.3 416.1 421.9 427.7 429.1 426 427.8 435.3 445.9 459.6 470.3 482.3 496.3 504.3 503 485.8 474.1 471.6 471.7 469.2 466.2 469.4 462.3 465.6 467.3 470 464 462.8 462.4 459.6 461.6 463.9 465.1 470.2 472.3 463.9 460.8 458.2 454.8 450.2 448.1 445.7 441.9 438 432.1 432.2 428.5 426.1 427.3 428.5 430.9 434.8 427.4 424 418.4 412.3 407.5 403.3 399.6 395.3 395.4 395.9 398.8 401.4 404.4 406.8 407.3 407.3 405.3 402.8 401.5 400.1 395.7 391.1 393.5 394.2 386.6 380.5 374.3 360.4 343.6 351.7 361.8 367.2 374.5 386.7 390.8 393 398.1 403.6 408.6 410 408.8 408 408.4 407.4 403.9 406.1 412.3 413.2 411.4 410.9 411.5 407 404.7 402.5 401.8 403 405.5 406.6 406.5 408.1 410.6 413.3 416.8 418.6 418.8 421.7 427.2 424.8 425.5 427.2 429.2 432.2 432.7 431.3 427.8 424.2 420.5 419.3 420.7
231.6 236.3 243.8 248.2 255.4 264.6 270.9 277.9 281.7 283.2 285.4 286.2 286.3 287.8 289 290.1 293.6 292.9 295 302 306.6 304.2 304.8 305.6 306.2 306 306 307 308.6 309.6 311.4 313.6 316.7 318.5 320.8 325.6 328 331.8 335.5 342.1 354.5 365.6 372.2 382.9 395 409.3 417 433.6 443.1 440.2 439.1 439.7 443.5 462.1 467.8 467.9 455.2 436.9 419 406.7 402.8 402 402.6 407.9 411.6 414.4 419.6 419.5 413.7 412.9 412.6 415.1 417.7 418.7 419.2 420.3 426.3 436.8 449.3 462.1 473.6 483.8 496.4 491.9 478.4 468 463.3 462.7 460.3 458.5 457.5 453.7 456 457.5 458.7 459.3 462.9 461.6 459.1 460.6 463.9 464 465.6 469.3 467.2 459.2 458.9 454.6 452.1 448.2 446.3 441.1 433.9 429.1 424.5 422.6 419.3 419.3 421.1 426.2 431 427.2 422.5 416.6 409.6 407.2 405.1 404.6 400.9 398 396.6 399.6 403.6 408.1 410.7 412.7 411.5 405.6 403.5 402.2 400.1 398 395.3 398.8 396.8 387.4 380.4 374.9 361.5 345.2 344.5 359.1 367.7 371 373.4 378.8 384.8 389.2 396.8 402.9 405.7 405 404.2 404.6 404.3 398.4 399.1 406 407.8 405.4 404.1 405.3 404.4 402.3 402.2 401.4 400.3 402.3 403.6 403.5 404.2 406.4 408.2 409.5 414.5 414.6 417.4 421 423.1 423.8 425.9 428.1 432.2 431.9 430.4 426.4 422.7 419 416.8 417.6
238.2 244.7 250.1 255.8 262.8 272.3 280.6 287.1 289.8 291.1 290.7 288.3 287.5 288.3 288.3 289 290.3 292.8 294.8 297.6 301.4 298.7 297.8 300.9 303.9 306.5 307.3 307.9 309.9 310.9 312.2 315.3 317.1 319.1 320.9 322.2 325.4 330 334.8 342.4 352.4 361.7 374.5 381.7 392.4 405.8 411 424.7 433.3 438.2 438.1 441.8 440.2 449.2 445.7 435.7 421 406.1 396.5 397.8 397.2 400.8 401.4 407.8 408.7 411.1 417.2 420.2 417.5 413.5 411.2 410.1 409.7 410.9 411.4 413 417.2 424.8 436.3 449.2 460.5 471.2 484.1 481.5 474.8 464.3 458.9 455 454.6 448.7 447.7 447.6 448.2 451 453 456.8 461.8 459.2 457.6 459.3 462.1 461.6 461.1 460.1 458.2 455.2 456.1 450.7 449.9 448.2 448.7 443.4 434.4 427.7 423.3 419.9 419.3 419.3 419.3 419.3 422.7 424.7 419 414.7 413.2 408.7 407.2 407.3 404.7 402 399.3 399 403.5 409.3 410.5 413.1 412.1 408.8 405.7 402 399.6 398.1 397.2 398.9 398.5 392.9 385 379.8 370 356.2 340.3 351.8 358.6 360.5 364.7 372.1 380.1 382 391.8 397 399.7 400 398.6 398.7 397.2 391.2 391.3 397.8 400.2 396.7 397.2 397.9 397.4 397.7 398.2 398.2 398.3 399.5 400.4 400.6 400.9 402.9 404.5 406.7 410.3 413 417.7 421 421.6 421.9 423.3 425.1 425.6 424.9 424 422.8 421.5 418.1 415.7 413.3
241.9 248.6 254.3 259.8 264.7 271.2 279.6 287.7 293.5 295.9 295.9 293.4 290.1 287.9 287.6 288.2 289.8 291.5 292.7 289.2 298.1 299.9 302.5 304.8 306.9 307.8 308.5 309.4 311.5 313 313.8 316.7 319.4 321.7 325 327 328 330.5 334.9 343.3 353.8 366 375.6 382.9 391.4 401 406.1 416 429.9 437.4 440.8 440.1 435.3 438 429.1 406.9 394.2 384.3 387.5 395.1 396.4 396.3 397 402.3 401.7 405.6 412 418.3 420.3 412.2 407.1 407.6 406.2 406 405.3 406 407.1 413 423.1 436 447.3 460.3 469.5 468.9 459 452.1 450.6 449.5 441.3 438.8 439 438.5 441.8 445.7 448.3 454.4 458.9 458 456.4 457.7 460.9 461.5 460.3 457.8 453.4 452.7 455.3 448.4 444.7 443.7 442.9 440.7 438.5 427.2 422.5 419.8 419.3 419.3 419.3 419.3 419.7 419.9 418.8 418.5 415.4 412.9 409.6 408 408.4 405.3 400.1 397.6 401.7 405.3 409 411.2 412.8 412 407.3 402.1 399.6 397.2 399.3 400.6 400.5 395.4 388.6 381.1 371.9 363.1 346.1 342.6 342 348.3 356.9 363.4 372 379.4 383.4 391 393.9 395.5 394 392.4 390.9 385.3 383.6 387.2 391.4 391.8 392.6 392.1 391.8 392.8 391.8 392.2 393.5 395.1 395.7 395.3 396.4 398.8 400.1 401 404.4 411.8 417 418.6 418.8 419.1 420.1 422.1 422 421.8 420.4 419.5 419.2 417.1 415.5 411.8
242.4 245.7 253 258 262.4 267 274 281.3 286.2 292.1 297.1 295.3 291 287.6 285.7 287.3 289.1 290.6 290.6 292.6 296.4 297.2 299.9 302.8 305.2 307.8 308.8 310.4 311.3 313.6 315.5 317.5 319.9 322.6 326.2 328.4 329.2 333.7 339.3 343 353.8 365.9 377.1 388.6 398.1 403.4 406.8 410.1 421.2 430.9 436.6 434.7 429.8 424.5 412 394.9 381.3 382.7 395.1 390.6 389.3 389.3 383.5 384.9 390 395.6 404.1 410.5 413.4 407.6 400.1 403.5 401.5 401.5 397.3 398.4 394.8 401.8 409.2 421.5 432.5 442 446.2 445.4 439.9 439.5 437.5 438.3 432.1 430.4 437.5 442.9 446.7 452 453.3 451.8 455.2 456.1 456.3 457.2 461 464.1 460 455.6 450.1 449.5 449.1 445.4 442.5 440 438.2 435.5 433.9 433.3 426.9 420.3 419.3 419.3 419.3 419.3 421.5 421.3 421.8 421.3 418.5 415.8 410.2 408.2 407.2 405.7 402 398.3 400.9 406.5 409.2 411.8 413.5 412.1 408.4 403.3 400 399.2 400.9 401.3 401.2 400.1 389.3 380.2 371.8 365.2 353.9 340.4 332.2 340.4 348.8 355.5 363.1 372.1 381.1 382.6 387.6 389.9 388.7 385.7 384.7 380.8 382.1 379.4 385.6 389 391.6 391.9 390.7 389.7 389.9 389 389.7 390.3 391.9 390.9 393.2 394.6 394.7 398.7 406.4 411 415.7 416.4 416 416.1 416.1 417.1 418.6 418.7 418.3 417.6 417.6 416.9 415.4 411.1
238.7 243 247.3 252.3 256.9 262.1 269.6 275.1 278.6 283.6 288 288.8 286.6 283.4 282.5 283.5 287 291.1 283.3 290.2 295.5 297.4 298.9 302.2 302.9 305.8 308.4 310.1 310.1 311.8 313.9 316.6 317.7 320.9 324.5 330.5 333.9 339.2 341.9 344.8 352.4 362.7 372.4 384.2 396.8 405 403.6 399.8 407.4 419.5 423.1 427.4 423.6 412.1 396.9 381 366.6 381 382.9 377.7 375.1 370 372.7 376.4 382.9 388.8 393.6 399.5 396.2 394.2 388.7 394.3 396.2 396.1 390.3 388.9 388.4 391.4 395.7 406.7 416 424.1 422.9 421.8 421.8 422.7 425.1 423.3 426.9 434.1 441.8 447.4 451.4 458.7 456.7 455.5 455.4 456.4 456.3 457.3 457.8 458.7 457.3 450.7 446.4 445.2 447.4 444.3 441.1 439.2 438.3 436.6 429.1 425.5 422 421 426.3 424.6 419.6 419.3 424.9 430.6 424.9 425.4 421.2 416.3 409.8 407.4 406.9 406.1 403.3 399.5 398.5 403.5 408.1 411.5 414.5 412.3 409 404.3 401.3 401.3 401.6 401.6 401.4 400.3 394.4 381.5 371.6 364.3 354.6 348.7 336.8 330.8 343.4 349.6 356.1 360.9 368.5 372.2 378.2 380.8 381.9 376.3 374.9 375.7 374.6 379.8 384.6 390.1 394.4 395.4 390.5 386.6 386.6 386.6 386.6 387.1 386.6 388 389.4 390.3 395.4 400.9 406.5 410.5 413.6 413.8 412.6 411.5 411.6 411.9 413.2 414.1 413.5 413.1 414.1 415.8 414.5 409.3
235.1 240.7 244 247.9 252 257.3 263.5 267.9 271.5 274.8 278.2 279.9 279.6 278.4 279.1 278.2 277.4 281.9 289 292 296.8 298.7 300.5 301.6 302.1 303 305.4 306.7 308.3 309.6 312.1 314.6 317.8 319 320.7 322.5 327.1 337.3 344.3 353 358.3 363.7 371.1 379.6 387.9 396.1 402.6 397.4 400.8 410.5 410.5 407.9 406 400.7 380.8 368.6 369.3 376.9 374 370.2 367.5 365.5 368.3 371.8 377 379.9 381.6 384.9 385.1 383.4 380.2 380.6 382.6 384.1 382.3 379 379.7 382.2 384.8 390.9 398.1 404.3 408.6 410.4 407.6 406.6 410.5 420.1 429.2 436.5 445.1 452.3 456.6 462.2 458.8 458.1 458.4 457.4 457 457.1 457 458.3 455.2 448.8 446.2 445.2 445.3 445.6 445.3 440.8 436.4 431.8 428.7 426 419.7 424.4 435 434.9 426 423.2 428.8 431.2 431.3 431.5 421.9 415.7 409.7 405.9 404.9 403.8 403.7 400.5 399.6 400 406.6 410.1 416 413.8 411.2 407.6 404 402.2 401.9 401.4 399.5 398.6 393.3 381.2 371.3 368 355.9 348.1 338 324.4 335.9 343.5 349.5 353.1 354.6 358.8 366.5 369.3 370.4 368.3 370.5 371.1 371.6 378.3 385.8 392.6 398.9 401.2 395.2 386.6 386.6 386.6 386.6 386.6 386.6 386.6 387.8 391.9 396.6 401.5 405.3 409.1 412 411.7 410.3 408.7 407.9 407.8 408.1 409.1 408.7 408.4 408.2 410.1 409.5 403.2
232.6 238.4 241.4 245.2 248.7 252.5 256 260.5 263.8 266.8 269.2 270.4 270.6 272.4 274.1 275.4 281.5 285.3 287.9 287.7 294.7 296.9 300 302.2 303.6 304.5 304.2 304.3 304.8 307.3 309.9 312.7 314.8 318 319.6 318.6 322.7 327.9 334.2 345.5 356.6 365.7 373.8 380 386 392 397 395 395.4 400.6 406.1 400.6 388.5 377.4 365.5 360.4 361.8 368.6 368 363.1 361.4 364.4 367.7 371.6 374.6 377.8 376.4 376.5 375.6 375.1 377.2 372.6 371 371.2 372.4 370.8 372 375.1 377.6 381.7 390.1 399.2 404.8 402.3 393.8 408.7 422.7 430.5 432.8 441.1 449.7 456.2 461.2 460.8 459.9 462.8 462.7 461.5 459.5 467.5 461 457.4 453.7 451.4 451.8 450 448.1 446.7 445.3 442 435.9 433 427 421.5 419.7 421 431.4 429.1 428.4 434.6 435 432.6 428.5 424.9 421.9 415.1 409.4 405.9 403.3 402.3 401.1 401.9 400.4 401.8 405.5 410.7 415.8 415.4 412.8 408.6 404.7 402.7 401.7 400.4 397.5 396.9 392.3 380.3 370.4 365.6 354.8 346.7 336.2 327.5 323.6 337.6 343.2 345.9 347.2 350 353.4 361 364.1 362.6 362.5 364.1 371.1 378.4 386.6 393.3 399.6 403.5 398.6 389.5 386.6 386.6 386.6 386.6 386.6 386.6 386.6 392.9 396.6 400 403.7 407.5 409.9 409.7 408.3 406.3 405.5 403.6 403.4 404 404.8 405.8 404.6 404.8 404.2 402.2
230.2 234.6 236.7 239.9 243.9 248.3 251.4 254.9 257.9 261.7 264.8 264.1 262.4 266.6 274 277.9 281 284.5 284.4 284.8 291.8 295 298.9 300.5 301.5 302.1 302.4 302.1 303.4 305.7 308.1 310.8 312.5 314.2 315.2 315.3 316 320.7 327.5 329.7 336.1 355.9 367.5 375.9 381.7 389.2 392.9 392.9 392.9 392 390.3 387.8 374.5 363.2 360 353.7 359.1 360.9 359.6 354.4 357.5 361 363.3 363.4 363.1 365.6 367.6 370.2 370.3 371.9 372.1 368 366.5 364.7 366 365 365.3 368.7 371.2 375.5 385 396.7 398.5 384.6 400.2 418.4 430.8 437.9 441.5 446.1 453.9 461.1 465.1 466.3 466.9 470 468 469.6 469.9 472.6 462.9 458.3 457.6 456.8 452.7 450.5 447.9 446.6 445.7 443.9 438.7 433.6 428.7 423.9 419.7 419.7 423.4 428 430.9 442.4 442.6 435.2 429.5 426.6 419.5 414.2 408.8 405.1 403.5 403 405 405.1 406.7 403.9 407.5 412.7 415.5 416.3 414.9 410.7 406.8 404.5 401.4 399.5 394.8 392.4 387.3 378 368.3 363 352 341.7 330.8 324.3 322.8 336.4 339.2 340.5 341.8 344.3 346.3 348.9 349.2 354 362.9 365.6 370.2 378.8 386.3 393.2 399.3 402.1 398.7 393.1 386.6 386.6 386.6 386.6 386.6 386.6 386.6 391 396 398.7 402.3 405 407.5 407.8 407 405.3 404.1 401.5 399.3 399.9 401.4 401.1 401.3 401.5 402 401.1
226.6 228.3 231.7 235.3 240.9 244.2 247.6 250.8 254.5 257 258.4 259.6 264.3 267.1 270.9 274.5 275.8 278.8 281.5 284.4 288.2 293.4 296.1 298.4 300.6 300.6 301.2 300.7 301.6 303.9 306.8 309.9 312.4 313.8 314.8 315.3 315.6 317 325.1 325.7 333.3 344.2 352.6 363.5 372.7 381.8 388.9 392.7 390.2 379.6 372.7 368.6 362.7 357.8 354.7 341.6 355.3 353 352.1 351.6 348.2 351.2 354.2 355 354.7 356.7 358.5 358.9 361.6 366 363.9 361.7 362.6 363.5 361.7 362.9 360.3 362.6 365.4 369 371.5 370.8 382.2 394.9 407.9 426.3 440.1 445.1 449.1 451.9 460.9 468.8 471.5 472.2 472 471.6 476.6 475.9 476.1 472 465.6 463.6 461.5 460.8 456.1 452.7 450.7 449.7 445.8 444.5 440.7 437.2 434.8 426.7 419.7 419.7 422.1 432 441.1 446.1 441.4 436.8 433.4 427.1 420.5 414 408.5 405.1 404.4 403.2 404.9 407.4 408.8 407.7 409 412.4 414.8 416.5 415.1 413.7 409.8 406.8 402.5 398.5 391.2 387.9 385.1 376.2 366.7 360.1 349 336.7 325.7 320.4 322.7 332.3 333.9 335.4 336.9 338.7 336.7 343 357 364.3 369.7 370.6 370.5 378.5 386.1 393.2 397.8 399.2 397.6 393.7 389.3 386.6 386.6 386.6 386.6 386.6 386.6 389.9 392.5 395.3 398.7 401.2 403.5 405 405.3 404.3 402.4 400 397.3 396.1 396.4 396.1 397.2 398.3 398.2 394.9
220.5 224.6 227.1 232.3 235.4 239.4 243.5 246.3 250.1 253.1 253.8 258.2 260.3 263.7 267.4 270.7 272.3 275.8 275.7 278.4 283.3 288.3 293.6 296.5 299.4 296.5 297.8 299.3 301 302.4 303.7 306.8 309.8 313.3 315.4 315.8 316 317.1 323.9 322.3 328.6 337 344.9 352.9 361.8 371 378 382.1 377.8 368.9 364.5 361.2 357.3 353.4 349.1 333.2 347.5 350.1 351 344.6 342.4 343.7 344.9 344.8 345 347.1 349.4 350.3 355.6 360.1 360.1 356.8 358 360.4 358.3 357.5 358.3 356.9 359.7 363.8 372.6 385 394.2 404 417.2 433.3 445.9 450.8 454 457 465.1 471.3 475.6 477.1 478.1 483 487.5 481.6 477.8 474.4 467.7 461.7 461.5 461.9 455.1 452.6 453 448.6 444.9 443.1 441.7 441.1 436.2 429.7 424.3 422.8 423 427.9 441.9 449.9 443.8 440 437.2 431.1 427.2 419.6 413.6 407.2 405.4 404.2 404.7 407 407.1 411.1 419.9 412.7 413.6 416.7 416 412.7 409.3 404.2 403.7 398.5 389.8 383.6 378.7 371.7 363.3 353.9 342.2 330 319.9 316.9 320 329.2 329.7 329.9 331.8 331.9 341.8 351.1 363.6 370.2 374.4 376.8 374.6 377.9 385.4 391.7 395.5 397.9 396.8 394.9 390.5 389 387.4 387.7 388.9 386.6 386.6 387.4 390.4 391.3 393.6 397 398.7 401 402.9 403 401.1 398.1 395.9 391.7 391.4 391.8 391.8 392.2 392.3 392.5
215.6 219.6 224 228.7 230.9 234.1 236.8 240.4 245.1 249.2 252.7 253.6 256.9 260.4 263.1 266.6 268.8 273.2 272.3 273.6 282.1 286.7 291 294.3 289.6 296.6 297.9 299 300.3 301.9 303.2 304.8 305.6 310.1 311.9 315.8 314.3 316.2 317 321.2 325.4 330.7 335.3 344.8 354.5 361.9 370.1 368.3 361.3 358.1 353.9 350.8 346.9 340.5 330.8 336.4 342.2 345.5 344 339.7 334.8 337.2 336.9 337 337.6 338.8 340.5 343.8 349.5 354.7 357.4 352.9 354.5 355.8 354.8 350.6 352.2 354.1 358.9 373.9 382.8 392 401.2 411 423.1 436.2 447.4 454 455.4 458.5 465.5 474.7 480.8 482 480.3 486.8 489 483.4 477 474.6 469.3 461.2 459.6 457.5 451.2 449.8 449.5 447.5 445.3 443.2 444.1 442.2 439.2 434.7 428.5 426.3 426.9 434.9 453.1 452.4 446 444.3 441 436.2 431.7 426.1 418 410.7 409.7 408.8 404.8 405.7 406.1 410.4 411.8 412.7 412.1 412.5 414.1 410.2 406.5 403 399.1 395.1 388.4 380.7 372.5 364 355.3 345.2 334.8 322.9 316.9 314.9 313.6 324.1 322.5 324.4 332.8 340.7 347 357.5 370.5 375 378.5 381.6 381.3 378.6 386.7 391.8 395.7 397.3 396.5 395.5 394.4 394.4 392.5 391.7 391.7 390.3 388 386.7 387.8 389.1 391 392.5 394.1 397.1 399.6 400.6 399.2 397.4 395.1 391.8 386.2 385.2 385 385 385 383.8
211.6 213.5 216.6 223.5 226.4 231.4 231.4 235.1 238.9 245.7 249.4 252.2 254.2 255.7 257.4 260.5 264.9 268.5 269.1 271.4 279.8 281.7 285.2 283.9 292.7 296.4 298.1 299.5 300.1 301 302.8 304.9 305.7 306.7 307.5 311.6 313 313.2 315.9 319.8 324.5 329.6 335.5 339.6 344.4 351.6 356.4 359.7 354.2 350.4 347.2 342.4 337.7 324.8 319.2 331.2 330.9 335 334.7 330.7 328 328.9 328.8 328.9 330.3 332 334.7 338.5 342.7 347 349.2 348.5 348.9 348.5 349.2 346.2 349 352.3 366 374 381.8 391.7 401 414.3 425.8 436.7 447.4 453 454.3 458.7 463.8 474.7 481.5 481.7 478.6 485.9 484.1 478.3 474.1 472.4 465.9 461.3 457.8 454.3 448.9 448.2 446.5 444.7 444.2 444.2 443.6 442.7 444.1 438 432.1 431.4 435.5 443.7 456.4 461.1 457.2 450.1 440.7 434.8 431.2 426.2 421.1 416 414.5 416.5 408.2 406.4 406 409 417.3 419.9 420.4 406.9 409 407.9 405.8 402 397.5 390.9 384.1 377.3 367.4 357 345.4 334.5 324.1 314.9 312.8 312.2 309.8 313.9 324.3 333.4 337.7 342.5 351.3 362.7 376.1 377.7 380.7 383.7 384.5 382.6 390.5 394.8 398 398.8 398.8 397.7 397.9 398.3 396.8 395.5 395.2 393.3 390.8 389.4 390.3 389.8 386.7 389.2 391 393.6 397.4 399 399.8 398.7 395.2 390.9 385.7 380.7 380.1 379.2 378.2 377.2
207.6 208.7 214.5 217.6 220.5 224 232.1 236.2 240.5 244.6 248.2 250.8 253.6 255.1 255 257.2 259.4 262.4 265.6 268 275 276.9 272.2 283.2 286.7 290.7 293.8 296.1 297.3 299.1 300.7 303 305.9 308 309.1 310.5 311.4 313.4 316.1 318.8 322.2 326.7 331.8 335.6 340.6 346.4 348.1 348.4 347.9 341.7 338.9 328.7 326.7 306.8 318.1 322.1 321.2 323.5 323.8 324 324.8 327.5 328.8 327.5 328.1 330.4 332.4 332.9 335.5 340.1 342.1 342.9 342.7 340.4 341.8 343.6 351.9 356.9 364.6 373.7 381.6 390 403.3 414.7 423.8 432.8 442.2 445.3 453.6 455 458.6 465.8 472.1 472.8 474 479.1 477.3 474.5 472.7 474.4 468.5 460.7 456.7 452.3 448.2 447.4 446.2 443.1 440.8 443.4 442.3 445.7 446.7 438 434.5 435.9 438.3 453 462 462 456.3 447.6 442.1 435.6 432.5 427.6 425.5 425.3 418.5 420.4 416.2 408 406.2 410.7 416.1 421 419.9 405.3 404.3 404.4 402.3 400.8 393.9 388 381 371.9 359.1 347.1 331.8 320.8 314.3 310.4 310.4 310.4 309.2 319.5 329.7 332.4 336.3 342.1 350.7 362.9 376 379.7 381.8 385.3 386.4 386.6 392.4 398.3 399.7 400.5 401.4 401.2 401.6 401.9 401.2 399.9 398.7 396.7 394.8 393.6 393.5 392.4 388.8 386.9 387.7 390 393.8 397.2 398.8 399.5 396 392.2 386.4 380.4 376.9 376 375 374.1
206.7 210.1 213.8 216.2 224.8 227.6 231.6 234 236.2 239.6 241.9 247.2 251.1 251.6 252.9 256.5 257.2 259.4 259.9 263 271.6 269.7 271.9 277.1 279.5 282.8 285.5 287.4 290.4 293.3 296.4 297.8 301.8 306.8 309.6 312.5 314 315.6 316 318.7 321.6 324.2 327.8 332.4 336.8 340.1 342.9 341.9 341.3 337.5 328.6 316.7 311 303.8 310.3 316.4 320.2 321.3 321.6 322.7 323.6 326.5 326.8 324.6 326 328.4 329.8 331.2 330.4 334.1 336.7 338 338.5 332.1 340.1 345.9 348.8 353.7 360.3 370.8 380.2 390.3 403 413.1 422.2 425.1 433.6 439.1 448.5 448.1 450.8 457.9 466.7 471.4 471.8 472.3 469.8 469.4 472.5 473.2 469 462.3 458.5 456.4 449.9 446.3 444.9 444.4 435.3 436.9 438.7 442.2 442 440.1 436.1 436.7 437 444.2 447.8 451.1 452.3 443.2 442.8 441.3 440.1 436.4 433.8 432 433.1 431.3 431.5 418.3 413.7 411.7 413.3 422.1 419.5 402 399.1 404.4 401.6 397.4 391.2 385.3 375.8 364 349.5 334.6 321.5 313.3 310.2 308.9 309.3 309.8 308.6 309.5 323.1 332.3 339.5 344.4 349.6 359.1 371.5 378.5 382.8 386.9 389.3 391 395.8 401.5 403.1 403.4 404.2 405.1 405.2 405.5 405.6 404.2 403.1 401.9 400 396.4 394.9 392.1 389.3 387.4 386.5 387.3 389.9 393.3 396.2 398.4 398.2 394.7 390.2 380.7 378.9 379.1 376.2 374.8
206 209.3 211 215.1 221.5 224.9 228.9 230.6 230.9 233.9 239.4 244.4 246.7 248.9 250.7 252.8 252.7 254.1 255.7 258 263.2 260 268.3 272.4 275.4 278.5 282.2 284.6 286 289.1 288.5 290.6 293.8 299.8 305.4 308.8 313.7 317.6 318.7 319.7 321.2 323.2 324.7 328 331 333 331.6 331.3 332.2 329.1 322.7 312.8 298.3 303.7 310.2 317.9 316.6 319.6 322.5 320.6 323.2 325.3 324.1 322.4 323.3 327.7 326 325.9 327.5 330.6 333.1 333.1 334.3 330.6 339.6 343.6 344.8 348.4 353.5 363.6 373.4 382.8 393.7 403.5 407.9 416.7 423.5 430.5 436.7 440.4 444.7 451.2 461.5 468.5 467.7 464.9 462.4 465.3 470.4 469.1 463.5 459.1 453.5 455.7 453.1 449.3 445.3 443.3 433.2 430.6 436.9 432.4 437.9 437.6 435.9 436 436.5 443.9 446.7 447.1 447.4 450.9 452.7 448.1 445.7 443.4 440.2 434.3 436.9 441.2 438.2 434.7 421.3 409.6 409.6 408.5 406.4 399 394.8 398.2 402.1 397 388.3 380 368.2 352.8 336.9 324.8 318.3 312 308.1 307.3 307.3 307.8 306 317.8 327.4 334.4 342.3 348.9 354.7 361.7 369.7 377.4 385.4 390.5 394.7 398.6 398.7 404 407.3 407.4 408.3 408.4 409.4 410 409.7 408.7 407.7 406.4 404 400.6 398.9 393.1 390.9 389.4 390.8 387.3 386.8 389.4 392.2 394.3 395.2 393.3 389.6 383 384.8 382.6 380.5 377
206.9 209.7 210.2 212.5 215.2 217.1 218.8 225.6 230.3 235.1 239.4 243.6 246.5 247.9 248.3 249.2 250.3 251.6 252.4 254.1 257.2 263.5 264.9 267.9 271.4 274.5 278.1 281.8 284.8 282.4 284.5 286.4 287.9 291 295 302 308.7 314.1 319.4 321.3 323.6 323.7 323 322.6 321.6 322.2 319.9 320.8 322.3 320.1 317 309.5 292 300.9 306.6 308.9 313.1 318.1 318.9 318 322.3 321.7 321.5 321.2 321.2 326.1 324.1 323.7 324.2 328.2 327.8 328 327.4 330.1 336.9 338.8 339.7 343 348.4 357 364.2 370.2 382.3 387.3 390.6 403.4 414.9 418.4 421.9 428.9 437.4 446.8 459.6 465.1 462.4 457.5 458.3 461.4 466.7 467 459.9 452.9 448.9 450.2 453.8 454.8 449.5 438.7 425.8 426.8 435.5 428.7 435 437.9 435.1 434.4 440.5 447.8 450.1 449.9 450.6 454.8 456.4 450.7 446.8 444.8 437.2 436.1 439 440.4 433.4 426.1 422.1 410.1 407.1 408.3 405.6 403.3 393.5 390 388.3 386.4 383.7 372.4 357.5 341 328.3 321.6 314.8 309.9 306 305.7 305.5 303.7 310.8 323.4 333.2 341 348.4 356.5 360.7 365.4 373 387.4 394 398 402.8 405.9 406.2 405.3 410.3 411.5 412 412.1 412.7 413.6 412.9 411.7 410.4 409 407 404.9 402.6 399.4 398 398 397.8 395.1 386.3 386.3 388 389.7 391.1 390.3 386.5 384.5 386.4 387 381.6 378.3
205.4 209 208.6 210 212.6 215.5 218.8 222.8 230.2 232.9 237.8 241.5 245.1 249.2 248.9 249.7 249.9 249.8 250.5 252 254.7 258.5 260.8 261.7 264.9 270 273.8 277.6 279.3 284.8 288.5 288.4 287.9 288.7 291.1 295.5 301.4 305.6 312.2 316.9 323 323 322 319.8 312.8 310.8 310.6 311.6 311.4 310.5 309.1 303.4 290.7 296.4 305.3 307.5 311.6 315.2 315.9 315 318.8 319.9 321.2 320.7 320.8 322.2 322.4 321.8 321.3 323.2 324.4 325 323 328.1 333.4 335.2 333.4 337.3 341.1 349.6 356.1 360.9 366.4 368.1 379.2 385.9 395.6 403.4 409.6 417.2 430.5 443.6 455.6 460.5 460 456.9 456.7 459.7 460.7 456.3 451.3 450.9 445.7 443.8 450.9 450.9 441.9 434 426.1 423.5 428.4 425.6 427.7 430.8 430 442.7 457.6 465.7 460.6 457.6 455 455.6 454.3 452.3 445.6 443.9 437.9 437.1 441.2 434.8 429.3 427 417.1 410.9 406.4 410.2 406.9 399.7 394.4 386.8 382 377.8 378 365.2 347.4 332.3 321.2 315.5 310.1 305.5 303.8 303.6 303.8 307.8 321.3 332.5 342.2 348.7 354.6 364 367 371.4 381.7 397.7 402.7 406.4 411.4 412.4 413.1 410.1 413.5 415.1 415.7 415.8 416 415.9 414.9 414.2 413.2 411.6 409.5 407.5 405.8 403.2 401 400.4 399.1 396.2 391.5 389 385.6 385.5 386 383.7 383.6 387.6 390.1 388.6 383.9 383.4
201.9 207 206.9 205.5 210.1 214.6 215.7 218.7 226.7 231.6 235.7 238.2 241.6 244.4 246.5 248.5 251.2 251.1 251.5 251.4 252.1 252.9 254.4 257.5 261 263.8 267.1 268.5 275.5 282.2 286.2 289.5 291.5 293.1 291.8 293 293.6 296.1 301.2 307.6 313.5 318.1 319.1 311.3 307.3 305.1 302.8 302.4 303.2 302.9 299.9 291.2 284.1 289.4 300.9 303.9 307.3 310.2 312.9 313.3 316.8 318.8 320.3 321 320.2 321.7 321 319 319 320.9 322.4 321.6 320.7 326.3 330.8 335.2 330.5 329.8 334 339.5 345.7 351.1 352.1 357.3 368.9 378.8 386.4 394.5 399.7 409.1 422.2 435.8 451.8 455.5 458.8 456.9 456.4 457.8 456.4 453.6 449.5 447.5 445.3 441.5 439.1 438.7 434.4 431.4 428.9 419.4 421 420.9 422 420.5 429.2 447.2 465.9 474.3 474.1 467.7 461.4 454.8 452.6 451 441.9 440.4 440 441.7 444.6 434.9 425.3 418.5 415.5 408 403.4 406.3 401.5 395.8 389 384.8 375.5 367.1 360 349.4 332.6 322.9 313.3 309.2 305.9 302.7 302 302.4 305.9 318.7 330.3 340.5 349.2 358.3 365 370.6 373.5 381.1 394.4 408.4 414.1 415.6 418.4 423 420.3 415.9 420.2 419.1 419.7 419.8 419.8 418.6 417 416.2 415.6 414.1 412 410.1 407.8 404.8 402.6 400.7 398.9 398.3 397.2 394.5 388.9 387.5 386.2 385.2 385.7 387.9 390.3 390.3 392.4 393.7
200.1 201.4 204.7 210.2 210.9 217.4 220.1 217.4 221.3 225.5 230.3 233.1 235.9 238.2 240.7 244 247.5 250.2 250.9 250.7 252.6 253 254.4 256.1 257.8 258.8 261.9 266.4 271.3 276.5 281.1 285.8 289.8 293.9 296.7 297.1 295.1 294.8 294.8 298.2 300.3 306.3 306.4 301.4 298.8 296.4 291.9 290.8 291.9 292.2 289.1 281.6 281.1 282.4 297.9 298.5 301.9 304.2 308.9 311.5 316.6 317.7 318.5 317.5 318.8 319.9 317.9 317.4 318.3 320.2 319.9 318.8 321.4 323.6 328.8 336 331.1 326.6 328 330.2 335.3 337.3 343.1 351.4 362.6 372.9 379.4 386.4 392.3 402.6 417.6 431.7 447.5 455.4 458.8 455.5 455.6 457.7 453.9 451.7 451.1 446.1 442.8 440.8 436 436.7 431.6 428.2 422.3 417 420.2 416 416.9 417 429.5 446.2 462.2 467.1 463.2 459.7 452.3 451.6 450.3 452.9 450.7 445.8 442.6 444.2 442.3 434.5 431 429.8 429.4 422.8 410.6 401.6 401.3 392.1 379 380.2 372.1 358.5 349.8 331.9 317.2 308.5 306.4 304.2 301.6 301.6 301.4 299.9 311 324.6 338.1 349.6 360.8 374.8 379.5 380.8 384.4 391.3 404.5 416.8 421.8 424 426.3 427.9 426 421.2 425.8 425.6 424.5 424 423.9 423.6 422.5 420.4 418.9 417.7 415.1 412.3 409.6 406.7 404 403 401.7 402.5 401.8 399.1 393.1 389.6 388.3 385.3 386.1 388.6 393.6 396 399.7 401.9
197.5 200.1 207 214.8 215.7 221 219.7 217.3 217.4 218.7 223.1 227.3 229.9 232.7 236.3 239.6 242.9 245.5 245.6 249.5 253.1 253.7 254.9 257.3 257.2 258 261.6 262.9 266.1 268.7 275.5 280.8 285.7 289.9 293.7 296.9 297.1 296.8 294.7 292.6 291.9 293.5 293.6 291.5 289.4 285.1 280.3 280.1 280.8 280.1 279 278.7 279.6 281.7 297.7 300.3 301.3 304.3 305.9 310.8 312.2 312.7 314 314 314.6 315.6 315.9 316.1 317 319.7 318.3 316.8 321.4 324.7 328.6 332.8 329.4 325.7 329.2 328.3 329.9 332.7 340.9 352.3 364.5 372.8 383.9 383.6 387.5 397.2 413.6 428.1 441.8 447.1 450.9 452.6 454.6 453.5 447.8 451.9 448.3 444.9 443.9 439 431.5 435 427.3 420 416.1 410.3 413.8 411.9 412.8 416.7 428.8 442.6 447.9 456.1 452.1 441 441 441 449.8 451.6 452.5 445.7 448.7 448.1 447.9 446.6 440.5 436 435.5 426.8 412.5 400.2 403.6 385.1 363.9 367.6 360.1 347.9 336 322.8 309.9 303.7 301.4 299.7 300.2 299.4 300 309.2 317.5 330.4 343.5 358.7 371.5 383.7 387.2 390.3 395.3 401 411.9 425.3 429 430.6 432.3 432.9 430.4 426.7 429.5 431.7 430.4 431.5 430.6 430 429.1 427.6 425.5 422.8 420.9 418.3 412.9 408.7 405.8 405 404.4 403 402.9 398.4 395.1 393 390.6 387.5 387.3 392.6 397.1 401.5 406.4 410
196.6 202.8 209.7 211.4 211.4 213 213.1 217.2 216.8 216.6 217.5 222 225 227.7 231.5 234.5 236.7 237.5 240.2 247.9 250.2 251.7 252.7 255.8 260.3 265 264.5 264.2 266.1 266.9 269.2 274.8 279.7 285.2 289.5 292.8 294.5 294.7 292.1 288.1 285.6 284.6 284.1 282.5 278.6 278.1 276.7 276 275.5 275.9 276.9 277.7 278.4 287.8 292.9 299.6 301.3 305.6 304.8 307 308.8 309.3 311.7 312.5 312.2 312.9 315.1 314.5 315.2 315.4 316 316 320.6 323.7 324.6 326.9 328.4 323.9 330.3 329.8 329.1 331.6 342.8 354.7 365.9 375.2 385.5 386.5 389.3 393.5 407.9 419.4 427.2 435.9 441.4 449.3 456.8 454.9 447.9 447.2 447.7 445.6 443.8 439.1 427.2 422.3 421.5 417.4 411.8 406.4 409.2 407.3 414.8 420.1 435.3 446.7 443.6 441 441 441 441 441 441 447.8 443.6 443.7 445.7 449.4 448.5 447.5 440.5 436 434.3 425.5 414.5 397.1 385.2 369.4 348 346.3 342 330.2 320.8 314.6 304 299.2 297.3 297.9 297.5 300.6 305.3 316.7 326.1 339.3 348 362.8 373.8 382.5 388.9 394.8 401.2 408.3 415.8 426.8 433.2 436.2 438.3 438.4 435.5 431.2 432.6 435.4 436.7 437.5 437.9 436.3 436.4 436.2 433.7 428.8 426.5 424.5 419.4 413.4 410.5 408.9 407.2 404.3 401.5 399.6 397.9 395.4 392.7 389.9 388.1 396.5 402 406.6 411.6 416.2
196 197.6 199.4 199.7 200.6 206.6 213 216.8 218 217.2 216 217.8 220.5 223.9 227 227.8 227.9 230.1 236.8 241.9 245.3 248 250.7 258.1 264.1 267.4 268.6 266.7 267.3 267.7 268.1 269.8 273.7 277.6 282.2 284.4 286 286.5 286.6 282.7 281.6 280.5 280.2 279.2 277.1 276.2 275.8 275.9 275.3 274.7 275.6 276.6 277.5 290.1 292 299 301.3 306.4 306.4 304.8 305 305.6 307.5 309.8 309.6 312.5 313.8 313.2 313.6 313.1 313.5 314.2 319 321.6 320.1 319.7 320.7 321.4 325.2 326.9 328 336.2 346.9 358 367.4 377.2 386 392.7 390.3 393 407.8 419.5 427.5 431.1 440.3 447.8 453.9 454.7 449.5 444 445.8 444.4 439.2 437.9 427 417.8 414.2 414 406.5 405.7 402.6 413.5 427.9 436.5 446.5 453.6 448.5 441 441 441 441 441 441 441 441 441 441 449.8 447.3 446.4 440.9 436.4 429.7 418.5 410.8 389.5 373 356.4 333.6 318.7 312.4 310.4 316.4 312.5 297.1 296.8 295.7 296.5 301.3 309 315.8 325 338.2 355.2 361.2 367 378.1 384.2 390.1 396.1 403.3 410 418.8 426.4 434.2 438.5 441.6 443.2 442.3 437.2 436.8 440.5 443 443.6 444.3 444 444.5 444.4 441.4 435.7 430.8 429 424.5 419.5 415.3 413.2 411.4 407.4 405.3 402.2 400 397.5 395 390.5 390.9 401 405 410.3 415.4 420.5
196 196 196 198.7 199.6 203.3 211.2 216.5 219.2 215.9 214.7 215.6 219.2 220.6 220.4 222.3 222.3 224.4 228.9 233.2 238.6 243.7 247.9 254 259.9 263.4 266.8 265.1 267.2 269.7 271.2 272.6 272.4 272.5 274.1 275.8 277.5 278 281.7 282 281.1 280.3 279.4 279.4 277.1 275.8 275.2 275.9 275 274.3 274.5 275.4 281.5 289.5 294.6 298.4 300.9 302.7 303.2 303.5 303.9 305.2 306.1 307 307.6 308.2 309.9 310.8 312 311.1 312.4 313.4 315.9 317 316.6 318.8 323.9 328.2 329.1 330.7 327.7 334.6 346.2 358.4 368.2 378.5 389.9 397.8 395.1 401.5 414.5 421.9 425 429.5 436.4 444.3 445.8 450.2 445.8 440.2 444.6 439.8 434.9 432.4 420.8 412.1 407.9 409.5 404.5 399.2 407.3 430.1 450.8 453.4 456.4 455.3 454.8 443.1 441 447.4 446.9 441 441 441 441 441 441 441 442.6 452.2 443.9 435.1 423.7 411.2 401 372.8 348.4 335.2 313 306.3 303.2 300.7 300 300.4 295.2 294.3 296.7 301.7 311.6 318 325.4 339.7 361 376.8 372.8 374.1 383.1 385.7 391.4 396.5 401.8 409.5 416.8 424.8 433.8 440.7 444.3 447.6 445.5 442.1 442.1 445 449.6 450.2 450.7 452.3 453.3 453.2 446.8 440.3 434.7 432.3 429 426.3 421.9 418 415.6 413.4 411.2 406.2 402.1 399.4 396.9 393.2 395.4 403.9 408 411.5 415.4 421.5
196 196 196.3 198.9 199.9 202.6 214 214.4 213.4 215.3 213.3 214 214.8 217.1 215 217.1 216.3 218 222.5 227.8 233.4 238.2 243.8 249 254.5 258.9 262.8 266 267.5 270.3 273.2 273 270.4 269.8 269.1 269.6 272.2 275.5 276.8 278.7 281.2 280.2 279.2 281.1 281.1 275.8 275.8 275 274.3 273.6 273.8 276.2 283 293 299.3 307.1 308.2 307.7 304.3 303.3 306.7 306.7 308.1 309.4 307.4 307.6 307.8 308.3 309.6 309 309.3 312.1 315.1 319.6 322.8 326.3 331.1 336.1 336 336 330.5 328.1 340.1 354.2 363.7 376.1 390.1 398.4 397.2 405 412 416.9 420.7 423.3 428.8 434.5 440.6 443.2 439.7 434.6 435.3 432.8 426.2 422.2 413 402.5 400.8 402.2 396.5 403.8 420.3 448 461.3 463 462.3 460.3 458 457 453.5 456.9 452.7 451.4 441 441 441 441 442.5 449.7 445.3 450 443.7 431.9 418.4 399.4 379.3 351.7 330.3 314.3 300.6 297.7 291.8 291.5 292.1 292.6 296.4 301.9 308.7 310.8 321.9 330.8 344.2 366 378.5 382.2 379.5 370.6 383.3 387.6 392.4 398.2 405.1 413.3 422.1 429.6 436.5 442.7 446.6 450.3 450.5 448.3 447.9 449.2 453.9 456.7 457.4 459.3 459.9 458.6 454.2 448.1 440.6 438.4 434.5 431.4 427.3 422.2 420.3 418.7 418 413.8 408.8 404.3 399.1 396.1 393.6 402.3 407.4 411.6 415.5 419.7
196 196.6 199.5 200.9 201 201.9 210.9 208.6 216.4 215.9 211.3 209 210.5 212 211.7 210.6 213.2 213.8 219.9 224.2 227.3 232.2 237.7 243.6 249 253.6 257.7 261.6 264.9 267.3 269.9 269.4 267.6 267.7 266.3 267.9 269 273.1 274.9 278.5 280 279.3 279.6 283 281 276.8 275.1 274 272.7 272.8 274.3 276.8 284.6 299.3 306.3 304.6 308.1 309.5 306.5 306.2 306.3 305.3 305.1 305.2 306.3 306.1 306.3 306.5 306.8 308.9 311.9 317.4 323.9 327.3 331.5 334.3 338.3 341.8 344.9 345.8 337.3 328.2 335.8 351.6 360.4 367.7 380.1 389.6 388.9 393.6 404.9 410.3 411.9 417.2 422.3 421.9 428 433.7 430.8 426.7 422.4 421.1 417.5 410.6 400.5 393.8 394.6 391.4 390.8 407.3 426.3 445.4 461.2 467.7 465.8 464.5 461 462.7 462.3 458.4 453 452.8 443.6 441 443.8 448.7 459.6 459.5 455.7 448 440.2 425.2 411.8 399 365 335.2 313.1 302.2 295 290.3 290.3 292.4 298.7 306.5 311.1 315.4 315.6 324.5 334.7 345 362.9 382.6 385.8 387.2 383.8 383.2 382.6 389.1 394.2 399.8 410.5 428.7 435.7 439 444.1 448.3 454.2 455.6 459.3 456.3 451.7 453 458.4 463.2 464.3 465 465 463.3 460 453.5 445.3 441.3 438.1 435.5 431.4 427 425.6 426.3 424.3 420.4 415.2 409.1 403.5 394.2 398.1 396.6 403.2 408.1 413.3 418
196.5 197.9 203.8 204.2 201.1 201.1 202.9 207.5 215.5 213.9 207.5 205 204.9 206.4 207.2 210.9 209.9 213.5 220.4 226.8 229.5 231.4 232.6 235.4 240.4 245.6 250.3 253.7 256.6 259.6 263.5 263.9 261.4 262.6 265.3 264.5 266.1 269.6 274.8 281.2 280.2 278 278.6 282.5 283.3 277.9 276.2 273.2 271.9 273 274.1 275.1 286.2 296.9 304.1 304.5 307 314.6 310.8 310.8 308.4 305.2 304.9 304.7 305.5 305 304.8 305 307.1 312.5 319.9 327 334.2 333.2 337.3 339.8 342.6 354.6 358.7 355.7 350.3 334.9 338.6 349.8 357.9 362 372 385.1 384.4 394.7 399.5 407.1 410.9 418.3 414.9 415.7 417.7 420.7 423.6 419.8 410.3 411.7 408.6 404.2 392.8 382.8 375.9 371.2 387.1 406.9 426.1 446.1 457.7 465.7 463.1 457.8 461.7 469.1 462.9 456.5 453.1 451.2 450.2 441 446.4 449.2 455.3 455.6 451.9 444.3 439.6 423.6 405.8 392.8 351.5 319.3 303 295.7 291.1 289.4 291.1 294.4 302.2 308.4 313.6 320.6 323.8 339.7 347.2 359 381.9 393.9 394.1 393.7 389.9 387.5 383.8 390.7 396.1 403.4 414.8 426.5 437 445.2 448.8 453 457.2 459.5 463.4 462.5 457.5 456.9 462.2 467.3 471 470.4 470.1 467.6 463.3 457.9 450.8 445.5 441.7 439.4 435.5 431.2 430.8 430.8 426.7 421.4 416 410.4 404.8 398.7 402.8 402 400.5 405.2 410.8 416.7
196 198.1 209.3 212.3 209.6 203.4 201.8 202 205.8 205.6 203.1 202.9 203.7 206.3 205.3 208.9 210.7 211.9 216.3 226.6 231.9 234.4 235.9 237.2 242.8 246.6 249.3 248.7 249.4 252.2 253 257.4 260.2 268.4 265.2 262.8 264.6 267.3 271.1 267.9 265 267.3 274.3 283 281.7 278.9 278.7 273.8 272 274.4 274.2 276.1 284.1 297.5 307.8 312.3 316.9 318.4 317.6 321.1 314 306.9 304.8 304.6 304.2 303.7 303.9 306.9 310.1 311.4 319 330.5 335.8 341.2 346.9 344.6 354 361.8 366.4 364.6 355.3 340.2 339.9 340.6 345.5 358.2 368.6 377.3 379.9 390.1 399.5 410.1 413.7 413.3 410.7 410.8 412.5 412.6 410.6 413.8 404.8 398.4 400.3 395.4 384.6 374.6 362.4 362.2 383.5 397.6 412.6 429.2 441.3 452.6 451.9 454.1 462.3 470.2 462.8 457.2 457.5 450.3 444.7 441 445.1 447.5 450.9 451.1 449.1 447.1 437.2 416.7 398.9 370.4 336.5 308.5 297.3 291.1 288 287.6 290.9 296.8 304.7 310.3 317.1 324.7 333.8 349.6 361.7 375.7 393.6 399.4 399.4 399.2 394.8 391.9 385.4 393.4 398.8 405.6 414.1 423.8 433 442 450.6 454.9 459.5 462.8 465.9 473.7 464.8 460.9 465.9 471.2 475.3 475.5 474.3 471.5 468.5 463 457 450 443.9 440.5 437 434.8 433.7 431 426 420.4 414.8 409.7 403.5 402.2 407.3 406.3 402.6 402.7 409 415.5
196 196 208.8 215 215.1 213.4 205.3 202.5 203.5 204.7 203.7 202.2 202.5 202.5 206.1 207.2 209 209.4 212.5 221.2 229.3 235.3 239.8 243.4 249.6 251.7 251.6 248.6 247.7 245.7 250.8 254.5 256.6 261.6 263.2 261.9 261.1 261.9 260.8 260.3 260 261.4 263.2 266.6 270.4 272.3 274 271.7 275.6 278.9 277.9 276.8 283.4 295 306.9 311.6 316 315.9 316.5 323.3 317.1 309.8 304.7 305.5 305.5 302.9 306.1 306.4 309.4 310.3 318.5 330.1 336.4 338.5 343.1 349.5 357 359.5 365.8 366.3 359.7 344.4 338.1 333.3 343.5 354 361.1 366.6 370 380.6 396.3 406.1 412.6 410.1 408.7 406.2 406 402 397.1 398.5 398 386.5 387.1 382.8 373.5 366.1 353.2 360.4 381.1 385.9 397.8 407.3 424.7 433.2 437.8 443.5 451.4 460.7 463.3 450.6 452.6 454.3 445.4 441 447.1 447.7 444.8 441.3 448.5 440.6 431.7 410.6 385.5 348.8 319.9 298.1 292.3 286.9 287.3 288.1 290.9 299.4 306.9 312.6 320 331 345.4 361.9 378.9 391.7 400.8 404.3 404.8 404.5 399.8 395.7 387.7 397.7 402.3 407.1 413.2 422.4 429.9 438 448.3 457.5 461.7 465.5 468.7 474.4 471.5 468 471 475.9 479.2 480.1 476.9 474.3 471.9 467.2 459.9 452.6 445.5 441.9 438.7 435.8 433.7 429.7 425.6 419.4 413.1 407.7 401.5 406 409.5 409.6 406 402.5 408.6 415.1
196 196 204.7 212.3 216.7 217.2 214.9 210.7 204.4 206.2 205.7 201.6 200.5 202.1 205.9 207.1 207.9 208.6 210.6 213.1 219.8 225.9 232.6 237.5 242.1 242.8 242.1 242.5 243.8 247.3 251.6 250.6 251.3 254.1 258.9 257.7 256.6 256 256.1 258.3 261.8 265.5 263 263.6 264.5 266.7 267.2 270.5 275.7 279 279.7 278.6 287.5 298.7 307.5 312.2 314.6 315.6 318.2 325.7 319.7 312.1 306.7 307.4 301.9 301.5 302.1 304.4 308.6 310.1 316.9 328.1 335.2 333.5 339.4 345.2 349.8 350.5 356.5 360.6 359.4 350.9 340.1 332.5 334.3 337.9 349.2 359.1 367.7 374 390.9 403.2 408 408.1 401.2 397.4 396.1 393 388.4 386.3 388.8 382.9 372.5 368.8 362.6 355.2 342.3 354.7 367.9 375.8 382.1 390.9 401.2 415.4 430.7 440.5 452.3 457.2 460.9 453.4 439.3 446.7 446.3 443 442.9 442 439.9 435.9 442 434.2 423.7 400.7 369.3 332.9 303.3 288.6 285.7 286 286.3 289.7 291.4 301.9 309.1 317.5 330.7 344.3 360.6 373.5 393.3 402.2 407.4 408.9 410 409.5 405 398.9 392.4 398.8 403.5 408.7 414.5 420.7 428.5 436.9 445.2 455.5 463.3 466.4 468.6 473.4 476.2 473 474 476.6 478.8 478.9 476.2 472.9 470.7 468.4 458.9 452.8 448.7 444.6 441.5 437.7 433.5 429.4 425 421.1 415.1 410 409 411 412 412.7 407.4 406.6 407.1 414.3
196 196 202.4 208.4 213.3 217.2 217.6 215 209.3 205.7 204.1 201.5 200 201.5 202.3 204.7 205.6 207.2 210.1 216.6 221.7 223 223.7 229 233.8 236.8 241.8 244.7 244.4 248.3 254 252.6 255.4 253.9 254.3 254 252.6 252.5 254.7 257.6 260.2 263.6 264.9 261.5 262.5 265.1 269.9 274.6 277.8 278.9 281.2 281.4 288.1 299.7 307.4 315.8 322 323.5 322.9 321 318.9 313.7 309.7 302.8 300.5 300.7 301.3 302.1 306.4 309.4 312.5 318.6 323.8 335.7 339.7 341.1 342 343.7 349.3 353.4 356.8 357.4 344.5 333 333.9 332.9 341.7 356.4 364.3 363.8 382.8 396.8 403.4 399.5 392.8 389 387.6 383.4 378.1 375.5 370.5 367.5 361.8 358.3 353.4 346.4 336.4 344.5 356 360.7 368.7 377.3 389.6 408.9 425.5 438.3 444.6 452.8 456.2 448.8 426.2 426.5 426.7 426.9 439.4 431.7 429.7 431.9 431.7 424.7 409.7 384.6 348 316 292.5 284.1 285.8 286.6 289.1 288.2 296.4 303.9 311.7 325.9 343 357.3 372.5 381 402.7 406.8 412.6 413.2 413.8 414.8 408.3 400.9 391.9 399.5 404.7 410.3 415.5 422.3 428.6 436 441.9 450.7 461.5 466.3 469.6 474 480.6 476.8 476.1 477.7 480.8 477.3 474.8 470.5 468.2 464.4 459.6 456.1 453.3 449.2 444.5 439.7 434.5 429.7 425.1 420.3 415.3 415.8 407.3 413.7 414.4 414.4 410.2 411.6 413.8 413
196 196 200.5 204.3 209.6 214.1 215.7 214.5 211 205.1 204.5 201.7 200 199.9 200.5 201.2 204.4 206.5 209.7 216.1 222.4 225.2 226.6 230.1 232.9 236.1 241.2 245.2 245.9 249.3 253.2 253.1 255.6 252 251.1 252.8 247.4 248 251.4 255.1 257.8 256.6 262 265.3 268.5 268.4 268.1 273.6 276.3 278.3 281.5 285.3 290.6 302.1 312.4 317.5 326.7 327.6 327.7 324.9 321.7 315.9 314.4 301.5 299.3 300.2 300.9 302.6 307.5 310.9 311.9 314.8 326.1 334.2 342.4 340.8 341.9 342 342.8 348.4 354.3 354.1 348.7 340 333.5 331.2 336.3 353.1 363.9 356 371 384.2 393.8 390.4 384.2 379.9 378.6 375.9 369 364.4 359 358.4 352.9 348 345.2 335.6 335.5 333 337.6 347.7 359.5 375.3 391.2 401.1 415.2 429.8 436.9 445.7 448.5 441.5 419.5 408.9 402 410.6 422.6 427.4 401.2 418.4 411.9 407.7 393.8 355.9 328.7 301.8 283.5 284.8 286.3 288 287 291.1 298.7 305.8 317.9 337.4 353.7 367 378.4 388.7 404.2 411.1 417.2 416.8 417.3 418.7 409.2 401.7 393.5 398.7 404.4 410.9 417.1 423.4 428.2 434.4 439.6 447.4 458.2 465.7 469.4 473.9 478.4 479.5 480.1 482.8 483.1 479.6 475.7 470.3 467.4 464.9 462.5 460.7 457.8 453.5 448.1 441.5 434.7 429.6 424.5 420.9 421.3 420.2 418.5 411.5 416.4 416.8 415.8 415.3 419.7 416.2
196.5 196 196 198.1 204.9 208.6 210.1 210.2 208.8 205.1 204.7 204.7 200.9 198.8 199.8 201.5 204.1 206 212.3 214.1 213.5 216 216.1 220.3 224.9 230 237.7 243.2 251.2 253 252.8 252.9 251.7 248.6 243.1 249.7 249.1 252.2 249.8 252.5 252.8 259.2 263.4 268.5 273.4 273 271.9 278.6 278.3 279 282.8 288.8 295.3 302.4 311.9 319.7 325.9 332.2 335.8 332.7 325.7 321.6 317.1 302.9 298.7 298.9 300.3 303 307.1 312.4 311 319.7 324.4 329.1 336.9 346.5 345.8 343.1 342.9 344.3 350.4 350 349.7 339.9 332.2 330.4 325.3 345.4 357.5 349.8 360.6 373 370.9 374.1 373.5 372 370.8 363.4 359.1 355.5 351.7 352.5 346.8 340.6 332.9 326 323.4 323.1 332.5 348.4 361 374 385 397.1 404.4 422.8 423.7 430.3 429.9 426.1 403.4 400.6 391.4 395.4 401.9 398.1 390.4 369.9 400.1 382.4 360.7 338.6 308 289.8 284.1 284.7 286 286.4 288.6 292.8 299.6 311.2 328.1 348.2 362 377.3 385.3 396.1 412.5 419.7 420.8 420.5 420 419.7 412.8 405.9 401.2 409.6 408.7 413.6 419.6 423.3 427.8 432.8 438.3 444.4 454.1 463 469 474.5 478.5 480.8 484.6 485.6 485.4 484.9 482 473 466.5 464.8 463.3 461.5 458.8 454.8 449 442.5 436.2 429.9 427.3 427.7 425 423.5 418.1 419.6 420.6 421.3 420.2 419.6 423.6 421.5
200.2 196 196 196.6 200.3 202.7 202.6 205.1 206 206.1 207.6 206.5 200 198.9 199.6 201.1 203.3 205.7 204.9 206.2 208.9 207.1 208 210.5 215.8 223.1 229.8 236.3 244.5 247.4 242.9 239.8 237.4 242.3 251.2 253.6 251.4 250.6 251.9 253.2 254.4 258 264.8 269.7 276.2 279.9 282.6 293.4 290.1 285.5 284.9 292.9 298.8 305.1 321.2 328.1 330.2 332.3 336.1 334.2 330.1 326 317.9 302.9 298.6 298.4 299.7 304.6 309.1 306.5 307.2 309 315.2 325.1 334.7 338.8 342.9 344.1 343.3 343.8 344.2 342.1 339.5 330 316.5 317.7 318.2 338.1 352.9 346.9 351.1 365.1 361.2 361.3 363 362.7 358.7 354.5 352.1 352.1 344.3 344.1 341.1 332.6 325.3 317 310.2 320.2 332.7 350.1 362.9 372.5 377.6 386.6 399.7 407.7 405.9 402.1 411.3 415.2 393.9 394.7 383.3 379 375.5 361.3 353.3 338 336.1 333.2 331.3 316.5 291.7 281 285 285.1 286.4 286.7 289.4 293.7 299.4 316.4 339.2 355.2 369.4 383.1 393.2 401.7 414.4 421.9 422.6 423.8 423.3 419.5 412.7 409.3 410.3 416.7 417.4 414 419.2 423.6 427.9 433.4 438.5 443.9 449.7 457.2 467.8 475.8 481.9 488.7 493.8 489.7 489.1 489.7 485.7 474.9 468.3 462.3 459.6 457.5 454.9 451.6 447.6 442.8 435.1 436.4 436.7 433.6 430.8 426.8 420.4 424.2 425.4 425.9 424.7 423.4 427.7 428.1
199.9 196 200.5 199 197.4 196 196 199.6 200.7 202.2 204.4 203.7 198.3 199.1 199.8 200.7 201.7 205.7 208.4 210.6 213.4 208.1 210 209.1 209.2 212.1 219.9 225.5 231.8 228.6 229 235.5 241.6 249.3 255.9 259.1 253.3 251.3 253.1 258.9 255.4 266.8 272.3 276.1 282.2 284 287.1 292.3 298.7 294.1 292.7 295.1 301.3 308.6 327.6 333.3 334.4 335.2 337.6 340.8 333.8 326.6 318.3 303.8 299.5 296.8 297.1 302.6 305.8 305.8 306.1 306.3 309.7 318.3 325.4 333.1 336.8 338.6 347.6 340.8 339.7 338.1 331.8 323.5 307.4 307.1 311.1 332 346.2 344.2 340.8 357.2 353.6 352.8 351.7 350.9 351 346.2 345.5 346.5 338.4 335.7 336.1 326.6 319.1 312 309.1 320.6 335.2 347.5 360 367.3 368.4 372.1 382.3 383.3 379.6 378.9 389.3 391.3 385.2 385.8 371.1 360.9 341.2 328 316 304.6 304 297.1 296.8 289.5 280.9 284 283.6 284.2 285.9 286.5 292.1 300.8 311.7 325.4 340.8 353.9 372.7 387.7 398.9 407.6 417.3 426.3 427.3 428.2 426.6 420 412 407.9 410.3 420.2 422.3 419.1 420.2 424 429.1 434.4 439.3 444.5 449.6 455.4 463.8 476.2 487.5 494.7 501.5 494.5 491 490.2 488.3 473.6 466 458.5 454.6 452.7 451.2 448.4 444.2 437.7 441.1 443.8 443.5 441.4 436.3 431.3 424.7 429.5 430.4 430.4 429.2 428.9 432.8 432.7
199.4 196 196 196 196 196 196 196 196 196 196 196.9 198.2 199.5 200.3 201.9 206.9 215.4 218.4 218.5 220.3 221.8 218.3 212.1 215.2 215.7 218.9 222.5 227.3 233.5 238.9 239.7 243.7 252.8 257.4 262.1 259 257.2 258.3 260.9 262.4 263.1 271.6 276.5 283.5 288.6 299.1 302.2 303.5 301.8 301.7 300.6 302.2 311.7 326.2 329.5 336 340.5 343.2 345.6 340.3 332.1 319.1 308.1 300.9 297.9 298.1 301.2 303.2 304.9 305.4 305.7 306.9 310.7 316.6 326.3 333.3 331.5 332.4 331.9 330.6 333.6 329.1 321.4 307.1 307.1 307.1 326.7 335.5 339.9 336.5 349.6 348.6 344.9 342.5 342.3 340.3 339.4 337.5 332.7 328.1 327.4 326 320.9 315.4 310.5 304.6 316.2 325.2 334.8 349.1 354.4 357 366.5 361.5 366.2 359.4 353.1 358 362.1 358.1 352.1 340.2 331.1 309.1 296.7 293.1 290.3 289.3 285.9 281.1 281.8 282.7 282.5 283.1 284 290.3 292.9 303.7 315.6 326.7 342 352.5 368.6 376.2 391.5 402.1 411.9 425.4 431.3 431 432.3 429.7 420.5 411.7 410.2 416.8 424.1 423.7 422.5 424.7 426.6 430.8 436.3 441 445.5 450.1 455.2 464.4 476.4 489 492.8 502.6 500.2 495.9 492.8 484.8 474.6 466 456.8 452 449.5 447.8 445.2 440.6 444.6 447.2 450.1 450.3 448.6 443.9 436.4 431.3 434.2 434.8 434.3 433.7 434 438.1 438
196 196 196 196 196 196 196 196 196 196 196.5 196.6 197.4 198.4 200.2 202 206 216.1 221.6 224 224.6 223.8 219 217.5 221.3 221.7 222.5 227.4 232.3 237.4 242.1 243 245.5 256 263.4 265 262.2 263.9 266.3 265.4 269.5 268.6 267.2 272.2 280.2 288.3 299.8 304.5 305 310.2 309 304.7 308.8 322.4 326.5 331.7 339 346.4 350.1 350.5 344.8 333.2 318.4 314.1 303.4 298.2 296 299.7 301.1 302.8 303.6 305.6 305.8 307.3 309.6 313.4 320.8 325.8 328.2 328.5 328.2 331.4 329.6 323.1 310.5 307.1 307.1 312.5 332 335.2 335.7 341.8 342.7 337.8 336.6 334.1 331.6 331.6 329 323.1 318.8 316.4 316.5 312.4 308.9 308 305.8 307.9 315.5 321.8 327.6 330.7 333.6 337.4 331.2 327.4 326.2 329.4 331.9 333.4 329.8 319.1 310.2 296.2 288.7 282.6 277.3 278.7 278.3 280.3 281.9 281 280.1 282.1 287.8 295.9 307.2 314.6 325.7 336.9 350.5 357.7 373.4 383.3 395.6 404.1 407.7 417.8 431.1 434.4 435 434.1 428.9 420.6 411.8 418.9 425.1 426.6 426.5 428.8 429.7 431.4 432.8 438.4 443 446.8 450.9 456.8 467.9 479 491.5 496 496.4 497.6 494.7 488.7 483.9 477 466.8 458.1 453.6 448.7 445.6 442.2 443.4 448.4 451.5 454.9 456.5 453.6 448 440.7 435.9 437.9 438.8 439 439.2 437.5 442.3 441.8
196 196 196 196 196 196 196 196 196 196 198.2 198.6 197.5 198.8 198.7 202.6 208.6 215.2 219.2 221.2 222.3 220.9 217.9 217.7 223.2 225.2 226.3 230 237.1 241.7 244.3 249.3 255.7 264.9 270.2 266.3 269.9 272.6 271.6 270.7 272.1 277.8 271.1 270.1 277.8 283.4 294.8 304.9 304.8 315 314.5 307.9 312.3 328.5 328.5 334.8 340.4 348.7 354.2 347.4 340.2 332.8 321.7 314.8 304.8 295.3 293.6 298.2 299.6 299.8 299.9 300.7 301.2 302.9 305.5 309.1 312.3 315.5 319.6 327.7 323 325.7 329.9 328 319.3 307.1 307.1 307.1 321.9 333.9 333.1 331 334.8 331.7 328.3 325.7 325.3 322.6 321.1 319.4 315.2 310.2 308.1 307.4 306.4 307.1 306 297.7 308.6 315.7 320 319.8 320.4 318.4 310 306.5 306.3 309.6 313.5 316.5 303.9 292.5 287.8 286.3 280.5 276.7 279.2 280.4 282.9 283.2 281.7 284.1 289.3 298.7 308 316.8 327.4 338.1 351.6 363.3 376 381.4 386.8 390.6 400.6 408.4 414.1 427.8 434.9 439.3 436.6 435.8 427.1 421.1 419.8 424.5 426.3 428.2 428.9 431.7 433 434.8 437.9 440.6 443.6 448.3 453.8 459.2 470.8 483.5 492.9 496.6 498 496 492.5 488.8 486 479.8 466 460 456.1 450.1 445.1 444.3 447.1 451.7 454.5 458.6 459.3 454.1 447.1 442.9 442.3 444.7 444.7 444.3 444.8 441.1 445.5 445.6
196 196 196 196 196 196 196 196 197.8 199.7 199 198.9 198.7 203.2 201.5 204.4 211.2 216.2 219.9 220.9 222.6 223.5 221.1 219.6 225.8 232.8 232.4 237.3 239.6 246 248.8 253.5 261.1 266.7 269.6 275.8 283 279.6 277.4 276 274.2 282.6 280.7 277.3 276.7 279.9 285.8 291.5 300.3 304.7 308.8 307.8 314.9 333 331.8 336.7 342 348.9 353.1 347.6 336.7 330.5 325.6 316 301.9 292.3 290.2 294.2 294.7 294.2 294.4 295.3 296.4 298.6 301.3 305.1 308.5 311.7 314.9 316.2 319 322.8 327.2 330.9 327.6 310 307.1 307.1 309.6 321.7 325 325.2 326.7 324.4 322 319.1 316.4 314.9 312.6 311.9 310.3 306.4 306.6 307.2 308 306.1 305.4 301.8 303.9 310.1 315.8 314.6 307.5 299.5 296.2 298.5 298.9 298.8 301 292.6 287.2 281.7 279.3 278.2 274.2 277.8 279.4 281.9 284.9 289 294.3 298.8 310.8 319 328 337.8 349.7 362.3 377.1 388.4 395.3 397.9 397.6 403.2 412.5 410.4 420 433.4 439 439.8 438.1 435.2 427.2 426 425.1 421.5 427.2 428.9 430.7 434.6 436.5 436.3 439.4 442.5 446.3 450.7 455.4 461.4 476.9 489.2 496 500.5 503.4 499 493.8 490.3 487.9 482.9 468.9 461.1 456.7 451.1 449.4 449 449 454.5 457.7 461.1 458.7 454.5 451.3 449.6 449 450 449.7 449.7 449.8 447.8 447.6 448.1
196 196 196 196 196 196 196 196 196 197.9 198.6 198.8 198.8 205.3 204.6 204.6 208.2 215.3 218.5 222 223.9 227.7 227.8 228.1 229 236.9 237.4 243.4 245.5 251.4 255.5 260.7 266.2 268.1 279.9 288.5 295.2 293.5 290.8 284.5 284.2 289 284.2 283.7 282.7 279 280.5 284.4 289.5 296.8 299.7 305.1 315.2 335.7 335.6 337.6 342.6 345.8 343.9 343.5 336.3 332.3 328.6 316 297.8 290.9 288.3 289.5 290.3 288.6 289 289.8 291.3 295.7 300 304 307.3 310.1 313.1 316.5 318.7 321.6 326.4 330.1 332.3 318.5 307.1 307.1 307.1 312.9 317.5 318.7 319.2 316.7 315.4 311.6 309.7 307.8 306.8 305.6 308 305.7 306.3 309.2 312 310.3 304.6 300.6 290.5 297.9 302.5 302.5 297 291.3 291.4 296 293.9 291.4 288 282 275 272.7 274.4 274.2 277.3 279.8 284.4 289.3 298.3 308.3 315.7 322.9 332.3 341.5 352.5 364.5 379.1 391.1 399.8 408.2 417.1 415.6 413.1 407.7 416.7 425.8 432.1 440.6 440.5 437.4 438.4 433.1 430.7 428.1 427.7 423.8 427.8 430.6 432.9 436.4 438.4 439.4 441.5 445.1 449.2 453.6 458 467.5 482.4 494.5 502.5 506.9 508.5 503.9 495.3 492.1 488.4 484.2 472.6 462.7 460.3 457.1 455.4 455.7 453.7 456.1 460 462.1 459.7 456.3 455.7 455.4 454.7 455 454.9 455 455.3 452.8 451.5 451.3
196 196 196 196 196 196 196 196 197.4 202.4 201.1 198.9 199.2 202.3 204.6 203.2 203.7 210.8 217.6 222.6 225.6 229.2 233 235.2 236.4 242.4 247 248.3 250 258.3 264.1 271.7 276.4 274.4 284.9 297.9 301.5 303 299.3 294.8 291.8 292.2 288.6 285.1 283.4 280.3 279.7 280.3 281.8 289.4 295.4 303.2 319.9 334.8 339.1 340.2 345.2 345.7 338.2 338 334.3 330.4 324.2 312.3 299.4 283.6 286.8 287.6 285.8 284.8 284.8 285.4 289.6 294.4 298.9 303.5 307.9 310.2 312.4 317.2 319.1 321.8 326 329.9 332.3 321.4 307.1 307.1 307.1 308.2 311.7 312.6 312 312.7 309.2 307.3 299.1 298.3 297.7 299.2 302.3 305.8 306.8 310.7 316.4 309.8 302.1 298.4 293.6 282.8 287.7 289.9 290.2 286.7 288.9 300.1 290.1 283.4 275.6 270.1 276.1 280.2 279.9 284 287.2 290.8 294.4 302.3 318.2 333.9 344.3 349 355.4 362.9 376.1 400.5 406.5 411.1 418.6 424.9 428.7 430.3 424.4 421.6 426.3 439.3 441.9 443.3 438.6 436.5 436.2 432.3 430.4 429.4 427.4 425 428.2 430.4 434.4 438.7 441.3 443.3 445.2 447.8 452.1 456.6 461.2 471.6 491.1 500.5 507.5 511.6 511.8 510.9 498.5 492 489.8 486 479.6 467.5 465.9 463 461.5 461 458.9 460.5 463.2 462.7 461.4 460 460.7 460.5 461.1 460.6 460.4 460.7 461 459.3 457.2 457
196 196 196 196 196 196 196 196 202.7 205 202.5 199.5 201.1 205.5 207.4 210.1 202.5 206.1 215.3 222.4 226.7 231.7 236.4 241.3 243.7 246.5 256.2 259.4 259 269.1 276.3 281.9 283.7 290 299 304.1 307.6 307.1 305.5 300.5 294.2 295.3 295.6 291 284.7 283.5 284 280.8 281.1 285.5 293.1 303 319.2 335.2 343.1 342.9 343.5 342.7 337.6 336.2 331.2 324.1 316.4 310.4 303.1 288.1 283.1 286.6 286.5 284.6 282.5 284.4 288.3 292.8 297.4 302.1 306.8 311.6 313.4 316.3 319.5 321.9 325.9 329.8 331.1 323.6 310.2 307.1 308.6 308.6 310.3 310.4 310 309.4 304.5 298.4 291.3 291.6 293.1 295.8 298.7 300.5 303.4 305.9 310.6 304.7 296.3 294.1 293.4 285.2 278.9 278.7 279.1 278.8 280.2 281.4 278.7 270.4 271 277.8 286.2 289.8 293.4 297 301.5 305.6 309.3 319 341 359.1 372.9 376.9 381.5 389.9 399.7 419.8 425.6 432.3 437.1 438.3 438.9 435.8 431.6 429.7 429.6 435.1 447.2 442.6 438.4 435.6 435.1 432.6 430.1 428.9 426.1 425.5 429.8 432.3 435.6 439.2 442.7 446 448.5 451.1 455.5 459.9 465.5 478.3 498.1 506.2 514.6 519.4 517.8 516.3 507.6 495.7 494.7 491.1 483.4 472.2 470.5 467.8 465.6 464.4 462.5 463.2 464.8 464.5 464 464.1 465 466.1 466.9 467.9 467.2 467 467 465.1 462.7 462.1
196 196 196 196 196 196 201.5 202.9 206.1 204.2 202.2 205.2 209.9 209.2 215.1 218.4 207.9 204.8 210.8 221.5 227.6 235 241 245.7 249.2 251.5 266.2 266.6 268.5 280.6 284.9 288.5 287.7 302.9 305.9 309.1 311 308.9 307.2 301.4 297.8 296.5 297.1 293.6 285.2 284.6 284.9 284.6 284.3 283.5 291.8 301.4 318.7 333.5 340.6 344.2 343.9 341.1 336.4 333.1 329.8 324.1 315.4 312.3 303.7 292.9 286.5 283.6 283.4 285.5 282.8 280.6 286.4 291.3 295.9 300.6 305.1 309.9 314.6 318.5 321.2 322.3 326.4 329.4 330.2 324.5 314.3 309.7 308.4 308.7 312.6 309.4 308.4 305.1 298.9 292.1 287.4 288.6 288.4 290.9 291.5 293.7 296.8 298.6 302.2 298.1 291.9 290 289.8 283.8 277.2 273.6 270.5 271.9 271.4 270.3 267.5 270.7 275.8 281.4 288.8 296.3 303.1 308.7 319.3 328.3 328.6 343.8 367.7 390.1 401.3 405.8 404 413.3 423.3 425.2 435.1 439.5 443 443.8 445.9 442.7 436.7 434.6 431.7 430.8 434.1 440.3 439.6 434.9 434 436.6 429 426.9 426 426.9 429.8 432.6 436.2 439.8 443.3 446.7 450 454.2 458.5 462.9 469.6 486.9 507.1 513.9 521.5 524.1 524.4 523.8 517.2 504.3 502.9 496.5 490.5 478.7 475.4 472.4 468.9 467.3 463.6 466.2 467.4 467.9 468.3 468.2 468.8 471.1 472.9 474.3 474.5 473.9 472 470.5 468.7 467.2
196 196 196 196 196.4 196 201.2 197.7 199.1 201.3 201.7 206.4 212 209.4 218.6 223.1 217.6 205.7 209.5 218 228.5 237.3 245.3 251 255.5 260.1 276.7 273.9 278.2 285.7 291.7 294.7 298.7 311.6 316.5 315.9 314.9 313.4 311 307.2 301.9 296.7 293.4 290.6 286.9 286.3 288.1 287.3 286.2 285.2 291.4 301.5 316.3 333.4 342.6 348.1 344.4 341.4 340 336.4 328.1 321 315.5 313.2 304.5 294.1 287.2 282.8 280.5 282 279.6 276.6 283.5 288.3 294.4 298.6 302 306 312.4 316.9 321.7 322.8 325.3 329.5 332.2 327.8 319.2 307.8 304 305.8 309.1 305.1 303.5 301 294.6 287.7 284.8 281.6 282.8 282.1 285.2 287 288.5 292.6 295.3 292.3 288 288.3 286.5 281.2 276.9 275.5 274 268.9 264.8 268.2 269 272.3 278.4 285.9 295.1 307 315.2 320.6 329.1 344.9 350.2 367.1 391.9 411.5 415.6 422.2 426.7 427 428.5 443.4 447.2 450.6 450 448.9 447.9 445.2 441.8 439.5 434 432.7 432.7 434 439.4 434.9 435.2 437.6 432.2 427.9 425.7 427.6 430.6 433.9 436.8 440.5 444 447.3 451.3 455.5 461.1 468.1 479.7 497.3 514.8 520.7 524.9 529.1 533.4 528.3 523.6 509.2 506 503.2 497.1 485.7 481.6 475 469.2 467.1 464.5 468.2 470.7 471.3 472.5 472.5 473.4 475.4 478.7 480.3 480.9 480.5 477.9 474.5 472.8 472.3
196 196 196 196 196 196 196 196 198.3 199.8 203.1 206 207.1 209.9 222.9 225.4 225 214.7 211.5 215.7 227.8 237 243.9 251.9 258.4 265.3 276.2 284 286.8 291.7 296.1 300.1 306.8 315.9 321.1 325.3 320.9 316.6 313.7 309.5 304.4 300.8 295.7 293.1 290.2 288.7 291.7 291.6 292.5 289.3 290.7 303.8 317.2 337 345.7 344.1 346.2 342.4 343.8 341.5 329.1 325.2 320.5 313.7 307.2 295.7 288.2 280.6 274.9 279.8 276.8 278.1 280.6 284.1 288.4 292.6 299 303 305.7 310.9 317.4 325.5 324.3 326.5 329.6 327.3 323.2 311.6 302.7 299.5 302.8 298.9 296.2 292.6 288 280.9 279.6 276.9 270.9 273.7 276.2 278.3 279.5 282.8 284.5 285.5 284.4 286.4 282.8 277.8 275.8 275.6 272.5 264.5 266.4 268.1 270 275.9 283.1 294.3 309.9 323.5 326.8 330.8 344 357.3 367.3 382.2 406.6 418.8 425.4 434.9 439.5 439.8 441.5 455.1 454.5 456.3 451.6 447.7 444.9 444.9 444.7 442.3 438.8 434.7 434.2 434.4 436.6 435.4 435.2 439.2 435.2 430.3 427.6 428.2 430.8 435.1 438.2 441.3 444.6 448.8 452.9 457.3 465.5 477 491.3 507.9 521.5 527.1 533.3 536.1 537.4 532.1 522.7 515.5 509.1 505.5 502.7 491.8 486.8 480 469.9 466 466.5 472 473.8 474.7 475.6 476.8 478.7 481.5 484.3 486.5 487.9 487 484.2 478 478.3 477.2
196 196 196 196 196 196 196 199.8 200.5 202.3 204.2 205.9 206.9 211 216.3 218.7 220.2 222.6 220.9 218.1 226.3 234.2 241.6 251.2 262.2 269.1 276.6 290.3 291.7 297.7 300.3 304.1 309.3 317.5 320.1 323.2 321.2 314.6 306.7 299.4 298.7 294.5 291 293.4 290.4 292.2 294.5 298.5 291.5 288.7 291 300.7 317.2 336.4 342 345.3 344.5 340.6 339.9 335.2 331.2 329.7 324.7 314.6 306.4 297.4 289.7 283.8 279.1 270.5 268.4 275.6 278 281.4 285.2 288.9 290.6 295.8 297 303.8 310.7 317 323.3 324 324.5 324 320.2 310.1 303 298.6 293.2 295.2 287.8 283.7 278.8 276.8 274.4 270.8 265.6 264.8 268 272 272.4 274.7 276.8 277.6 279.8 280.2 277.2 273 271.7 271.3 262.8 265.6 265.8 268.2 272.2 283.6 292.7 302.4 312.5 321.1 331.6 342 351.5 363.1 380 393.6 409.4 427.4 437.4 442.2 447 450 450.6 451.4 453.8 452.9 450.4 445.4 443.1 444.8 444.2 443.3 442.8 439.7 438.9 436.2 435.7 435.6 435.4 437.2 438.4 433.3 429.4 429.3 430.9 435.7 439.6 442.6 446.2 450.2 454.5 460.5 471.3 485.3 501.1 519.8 527.7 533.6 540.5 546 538.8 531.9 526.3 523.1 514.1 508.7 504.6 499 489.6 480.2 471.9 468.3 470.4 475.2 477.1 477.8 478.8 482.5 486.7 489.3 492.1 494 494.7 492.7 490 487.7 484.7 481.2
196 196 196 196 196 196 201 202.8 203.3 204 206.8 206.7 206.5 212 215.2 220.4 223.8 230.1 223.7 222.5 225.2 233 240.4 248 260.3 270.2 276.8 300.7 292.8 297.9 301.4 306.3 311.1 318.7 324.1 319.9 311.4 301.2 289.6 285.8 285.4 286.4 286.6 290.1 290.6 296.6 294.3 293.3 291.1 288.9 291.2 299.9 318.7 331.4 340.9 350.3 344.1 342.1 339.9 335.2 333.5 328.2 324.1 316.1 304.9 294.4 288.2 283.1 278.6 274.5 271.2 271 275.8 279 282.3 285.4 287.1 287.2 290.5 295.2 301.2 307.3 314 322.1 320.4 320.8 315.9 304.2 294.9 291.2 282.3 278.9 271.4 273.6 273.6 272.8 270.3 266.7 261.5 259.8 261.9 264.9 269.7 272.1 271.4 271.7 272.4 270.4 268.5 267.7 267.5 263.7 263.1 265.2 269.6 274.4 277.3 288.4 300.5 312 321.3 329.3 339.5 349.8 360.8 370.9 391.5 412.7 429.6 443.1 445.6 446.8 452.3 457.4 457.3 455.2 452 450.2 446.9 440.6 439.5 442.5 446.4 450.7 453.2 444 441.9 437.9 435.2 435.3 435.3 437.6 440 435.6 432.1 432 430.9 435.5 440.9 444.2 448.1 451.6 457 466.3 476.8 493.5 510.8 527.5 535.6 539.7 545.5 547.6 541.7 535.6 532.1 529.9 520.2 513.1 508.1 503.8 497.1 484.4 477.3 474.7 474.4 478.7 481.1 481.5 484.2 490.1 494.4 497.5 500 500.9 500.3 498.2 495.1 492.7 490.6 487.1
196 196 196 196 196 196 200 201.5 205.5 206.5 209.7 212.4 212.1 215.9 221.4 225.8 230.7 235.8 232.4 224.4 220 234.3 239.4 248.2 256.5 268.7 279.2 301.3 297.9 301.5 301.1 306.9 317.6 313.1 312.4 305.5 294 290.4 285.4 280.6 279.8 281.1 284.1 287.5 291.4 291.5 292.2 291.6 289.9 288.4 291.4 298.5 315.8 326.4 338.7 340.8 343.8 344.5 342 334.8 330.3 325.4 314.9 312.8 303 292.4 284.5 278.9 275.5 273.3 271.4 264.7 272.7 276.1 279.5 281.8 283.4 286.1 286.1 287.8 292.6 295.8 301.4 309.8 314.3 315 306.8 301.2 284.1 283.1 277.5 261.3 262.2 267.8 268.9 267.5 265.8 262.9 259.7 257.9 259 261 263.6 264.7 265.3 264.3 262.2 262.2 264.9 265.9 264.9 262.6 263.6 265 272.8 279.9 285.1 297.5 307.8 314.3 322.7 331 345.8 359.1 373.7 387.2 402.6 426.1 440.9 447.6 449.1 450.4 453.7 459 459.2 455.6 452.1 448.5 444.3 436.1 434.8 439.5 445.9 451.1 449.8 442.7 443.1 439.9 435.4 435.4 436.3 439.8 440.4 438.3 436.3 439.3 442.5 439.6 440.7 444.8 449.9 454.7 461.6 469.9 480.2 497.7 515.2 531.2 537.4 544.9 548.2 548.2 543.7 541.9 541 532.9 523.7 515.4 510.7 507.4 503.4 493.7 485.3 483.1 482 484.6 487.2 488.1 491.5 499 502.1 505.3 506.6 507.2 505.6 503.3 500 497.8 495.8 492.2
203.9 196 196 196 196 196 202 206.3 212.2 211.1 214.9 220.9 220.2 218 226.1 227.9 234.1 239.3 241.8 230.7 224.6 229.8 235.6 244.8 256 266.3 279.6 294.2 306.1 306 303.3 305.5 315 311.1 302.8 294.2 288.8 282.7 278.6 277.1 275.8 276.1 278.6 287.3 289.3 290.6 293.1 293.9 291.7 287.9 289.7 298.4 315.7 326.4 330.6 335.1 337.1 341.2 340 330.9 326 320.8 309.4 305.7 299.1 288.6 282.2 275.1 271.8 269.6 267.5 263 269.3 272.2 274.6 277.4 279.2 282 282.6 283 284.4 286.5 292 297 299.8 302.6 301 292.8 283.3 274.6 264.7 256.9 262.1 267.4 267.4 265.4 263.4 261.9 259.3 256.1 255.2 256.3 255.7 253.7 256.5 257.1 259.4 259.2 262.8 266.3 261 264.9 265.1 270.6 277.2 288.1 295 305.3 310.3 313.5 323.9 337.4 351.2 364.4 377.2 390.3 404.3 425.1 436.8 441.9 445.8 451.9 453.1 455.6 458.5 458.6 453.8 447.8 440.2 431 429.8 433.6 433.8 437.9 438.8 439.2 442.3 444.4 438.5 436.7 438.9 444.1 446.9 442.9 440.6 444.3 445.9 443.8 442.5 444.7 449.9 457.6 467.6 474.4 484.1 502.2 521.3 533.7 542.4 553.2 552.2 549.1 546.3 545.7 542.4 531.7 523.3 517.7 512.2 509.4 506.2 500.4 490.7 488.4 487.7 489.6 492.7 494.9 497.1 502.5 507.1 510.4 511.4 512.7 511 509.2 506.5 503.7 501.1 497
205.6 201.6 196 196 196 197.4 204.7 212.8 217.7 219.2 224.5 230.2 230.2 218.9 225.8 229.5 237.9 243.2 245.6 237.6 230.3 223.8 233.9 240.1 254.3 267.6 276.2 293.4 310.2 309.4 306.7 307.1 316 309.4 300.8 293 286.9 279.5 275.2 273 271.8 273 278.3 283.6 286.5 292 295.9 297.9 294.4 293.7 285.6 291.7 311 317 326.2 333.9 331.8 335.9 333.3 323.1 318.2 318.5 310 303.8 296.6 285.9 279.4 271.6 268.1 265.6 263.4 252.7 264.3 266.4 268.9 271.4 271.6 273.3 277.4 278.7 279.6 280.5 282.1 281.3 285 290.2 291.6 284 272.3 260.2 253.8 257.2 262.5 263.1 261.7 258.5 249.7 251.8 253.6 250.7 251.7 251.9 253.1 256.9 262.6 264.3 264.1 259.1 260.8 260.7 263.9 266.2 268.6 272.3 282.4 291.9 299.6 306.9 308.3 314.7 328 340.9 351.4 363.5 377.1 387.9 402.9 420.6 426.8 438.8 438 448.1 448 450.9 452.9 452.8 449.6 443.8 435.2 427.5 427.4 428 428.6 431.4 434.6 440.1 446.7 453.9 454.4 446.2 445.4 444.3 446.7 448.7 446.3 451.8 451.4 448.7 451.2 457.4 454.3 459.4 473.6 480.8 492.4 511.2 527.3 534.3 545.6 552.6 552.6 548.6 547.2 544.5 537.7 529.9 522.2 518.1 514.6 511.4 508.4 506.6 501.4 495.3 493.2 493.5 495.9 497.9 500.5 505.5 512 516.7 518.9 517.9 516.5 515 512.6 509.3 505.9 502.5
202.9 204.3 196 196 196.4 201.8 208.8 211.1 216.5 222 226.9 231.2 231.5 222.9 226.2 232.4 237.1 241.8 245.4 245 238.1 226.8 229.7 236.2 246.1 265.8 279 287.5 302.5 308 310.4 308.3 309.7 313.4 301.4 293.3 287 280.4 274.8 270.6 270.5 272.5 274.2 277.3 281.3 290.2 296.2 298.8 294.4 292.1 283.3 282.1 292.9 307.2 316.2 320.4 320.5 319.9 317.6 312.2 310.8 310.2 307.3 301.3 290 280.3 276.2 269.2 263 262.5 259.4 254 256.3 256.5 261.8 264.3 264.2 266.1 268 271 271.2 271.5 272.4 272.6 270.3 271.5 274.7 273.2 264 257.5 249.8 254.7 257.2 257 253.1 244.9 245.1 245.8 248.2 248.7 250 250.2 259.1 263.6 272.6 273.9 271 269.6 265.9 265.6 266.8 268.2 268 273.8 282.3 291.1 297.8 304.5 314.5 320.3 329 340.5 350.6 359.3 373.9 384.6 390.1 400.3 411.1 419 427.2 434.4 441.3 443.9 442.7 443.7 441.7 435.4 430.4 424.5 424.3 423.7 425.7 430.5 436.9 443.9 450.7 457.3 461.9 454.7 452 447.7 448.7 450.3 451.1 454.7 456.1 459.5 463.7 467.3 463.4 468 477.6 488.2 501.5 518.9 532.1 537.6 539.5 541.4 546.3 546.2 543.8 538.2 534.4 527.9 522.6 519.8 517.7 514 511.4 510 505.4 500.5 497.1 496.7 498.7 501.1 504 508.4 515.7 519.1 522.3 523 521.5 519.9 516.9 513.3 510 507.3
196 196 196 196 201.6 203.7 202.6 202.9 209.6 214.9 220.8 225.8 226 223.6 223.5 228.7 233.9 237.8 242.6 247.6 245.7 233.4 226.3 235 241.5 256.9 282.5 288.5 298.3 303.1 300.9 300.5 299.7 306.6 301.3 295.7 285.1 276.5 272.6 269 266.1 267.5 271 275 280.4 285.5 292.9 298 294.8 291.5 283.4 276.8 284.7 293.5 301.7 302.9 302.1 301.8 301.7 302.1 302.7 303.2 301.4 292.6 285.9 278.2 271.2 265.3 257.9 256.5 254 249.1 243.5 246.7 251.8 256.6 257.9 259.7 261.6 263.8 264.8 265 262.9 261.1 261 261.9 260.1 257.8 255.5 252.5 247.1 247.6 249.6 248.4 243.7 245.9 247 248.8 250.7 252.4 253.7 259.4 266.9 273.1 279.9 282.5 277.5 276.1 273.6 272.6 275.1 277.4 274.1 275.1 281 292.6 301.7 309.4 314.6 320 326.5 334.9 342.3 350.3 362.1 372.5 383 390.3 401.9 402.6 410.7 418.9 427.8 428.3 430.5 431.8 429.1 427.1 424.4 420.6 420.3 423.5 427.4 432.4 440.4 447.6 453.6 460.1 467.2 462 459.6 456.5 454.6 456.2 455.3 458.1 461.5 465.4 471.3 474.3 475.4 482 486.4 499.3 513 523.9 531.9 535.2 537.5 539.9 542.5 542.9 543 538.4 536.4 528.3 522.6 521.1 519.8 518 515.3 512.2 508.7 504 501.3 500.2 502.1 504.3 507.3 511.6 518.3 521.3 524.2 525.7 525.3 522.7 520.2 516.3 514.3 512.2
196 196 196 196 196 196 197.7 200.7 204.1 208.6 214 219.5 221 221.2 221 224.8 230.4 236.4 240 245.7 247.9 237.2 225.6 231.7 237.9 247.2 255.4 281 297.7 299.5 294.4 295.6 296.8 296.4 295.2 289.5 279.4 273.6 271.5 266.7 262.2 262.9 266.5 273.2 280.6 283.1 286.7 291.3 291.6 290.7 282.1 274.7 283.2 286.2 288.1 294 295.3 294.9 295.4 296.4 298.2 297.3 291.5 285 280 271.4 266.8 258.3 254.1 248.9 244.1 241.9 240.9 238.1 245.8 249.2 251.9 253.9 255.8 257.6 258.1 256.9 254.3 252.5 253.6 251.2 249.1 249.1 246.6 243.1 241.6 242.3 243.4 242.7 245.3 246.9 248.9 254.3 257.7 259.7 260.3 264.4 270.5 276.5 281.9 284.4 283.1 279.6 283.2 281.8 285.3 289 285.2 281.2 284 293.6 302.4 311.1 315.6 319.3 325 331.8 339.8 348.7 354.7 364.2 374.3 382.2 389.6 392.5 399.4 405 409.2 413.1 414.7 417.5 419.9 420.6 418.9 415.4 422.1 426.7 431.7 438.9 444.2 451.2 457.4 465 470.7 467.4 466.4 468 461.8 462.7 462.5 464.4 467.6 473.8 476.9 480.2 484.9 493.6 503 511.3 517.1 523.2 529.4 532.9 535.5 537.6 538.6 537.8 536.7 539 537.7 526.8 520.3 519.2 518.2 517.7 515.2 513.9 510.3 505.9 504.3 501.8 504.9 507.3 511.1 514.1 519.2 522.5 525.2 527.2 526.8 525.4 521.4 518.9 518.1 517.7
196 196 196 196 196 196 196 199 204.9 207.9 211.4 214.3 212.9 214.2 217.2 223.3 227.7 235.3 241.2 244.5 247.7 243.3 231.5 230.1 240 244.8 252.2 260.2 272.9 287.3 292.3 289.4 296.8 293.6 289.1 289.4 284.8 274 269.2 262.6 259.5 258 259.8 266.5 276.5 283.4 285.1 286.3 286.6 288 282.7 274 281.3 282.3 283.3 284.2 286.2 288.5 289.8 291.3 290.3 289.4 282.7 275.7 271.1 265 260.6 257.1 252.6 247.5 243.3 239.5 237.9 235.3 239 241.8 243.8 246.7 249.3 249.7 248.4 247.3 246.2 244.8 245.6 244 242.4 242.6 240.2 239.7 241.5 242 241.8 244 245.6 247.8 255.1 259.1 262.4 265.6 268.5 270.3 274.8 276.8 283.1 283.5 286.2 292.1 293 290.5 296.1 303.1 304.5 299.4 284.2 295.2 302.8 310.7 316.8 322.5 327.1 332.3 339.9 343.8 347.8 356.6 364.8 371.7 381.6 383.2 388 391.4 396.9 401.3 403.5 405 409.2 412.5 411.3 417.8 422.9 430.6 434.9 439.9 447.6 457.5 465.9 475.5 477.1 476.3 472.2 470.1 468 468.9 471.5 475.1 477.3 477.9 480.8 484.3 489 500 512 520.6 524.6 526.5 529.2 532.8 534.5 535.3 536.1 532.9 531.1 530.9 531.1 520.2 516.5 515.6 516 516.4 514.3 513 509.2 507.1 504.9 503.8 506.4 509.5 512.6 515.6 519.8 523.8 526.5 528.7 528.3 527.5 523.8 522.5 522.8 523
196 196 196 196 196 196 196.9 200.3 203.5 205.2 209.3 213.9 217.3 217.6 222.6 219.9 227.3 234.7 237.4 243.4 248.5 248.2 237.2 229.3 237.2 241.5 246.1 254.6 259.6 267.3 278.6 284.4 284.4 287.5 283 278.6 275.9 277.9 267.7 256.6 255.2 254 253.5 256.1 263.3 269.4 269.7 274.4 282.1 290.1 286.7 272.7 277.1 279.2 278.6 278.9 281 283.1 284.8 285.3 283 281.5 276.3 272.8 266.6 262.4 258.5 253.2 249.8 246.4 245.3 238.2 235.5 233.6 235.1 236.5 237.4 240 240.5 241.6 239.8 239.8 240.1 237 237.2 237.2 238 239.2 240.3 239.1 239.6 240.5 242.8 248.8 251.5 253.9 258.8 261.5 264.2 269.6 272.2 274.5 274.8 277.7 282.4 288.1 292.5 297.2 299.8 302.5 309.8 314.6 317.3 310.4 301.9 293.6 304 311.3 317.7 324.2 329.4 333.5 339.8 342.4 345 352 358.7 364.4 375 375.7 379.1 383.5 386.4 392.3 397.8 398.5 402.1 406.1 411.8 416.9 423.1 430.3 437.8 444.5 450.8 461 471.3 477.9 483.7 483.4 475.4 472.8 471.6 473.3 475.7 479.5 482.3 484.1 486.6 490.3 495.2 503.9 513.2 521 526.6 529.6 532.7 533.3 532.7 532.9 531 526.7 524.5 523.8 520.7 513 512.4 512 512.7 513.4 512.7 510.2 507.9 505.7 505.9 506 508.2 510.8 513.9 517 520.4 525 527.6 530.1 529.9 529.9 527.3 527.1 527.7 528.4
196 196 196 196 203 197.3 200.1 204.4 208.6 213.3 216.7 219.9 223.4 222.8 224.9 224.3 224.6 230.8 233.9 239.1 248.1 253 242 231.5 237.3 242.4 244.2 250.3 252.8 255.8 266.9 275.1 275.3 275.5 275.3 272.2 269.3 269 265.8 259.2 252.8 252.1 250.9 251.2 252.7 255.1 258.7 264.4 274 276.7 275.3 267.5 270.2 275.4 276.2 274.9 276 278.4 279.9 279.8 276.9 274.9 271.4 265.8 259.4 256.5 252.5 249.3 246.8 244.7 241.9 236.6 235.4 233.6 232.4 233.4 234 235.3 236.2 236.2 234.1 235.2 234.7 236.4 237.8 237.6 237.8 238.5 239.9 238.9 239.6 241.3 247.1 251.9 255.2 258.5 262.4 265.9 267.5 271.2 275.3 278 281.3 280.4 282.8 288.3 295.5 300.9 304.3 314 319.3 320.4 321.8 316.9 312 305.2 304.2 313.8 318 324.3 330.5 334.5 338.2 341.1 345.3 350.9 355.4 360.2 365.1 370.8 372 377.7 379.9 386.1 388.9 395.8 401.6 409.6 414.2 419.7 427 435.8 444.3 453.1 457.9 463.1 471 477.9 485.9 489.5 481.5 475.6 473.1 475.7 479.5 482.4 486.1 487.8 492.2 496.1 501.1 509.3 517 524 531.1 537.1 535.1 533 530.5 528.2 523.7 519.9 518 515.4 512.9 512 511.2 510.6 510.6 510.8 510.7 508.3 506 504.4 504.6 505.9 507.8 510.5 514.1 517.7 521.3 526.1 528.7 531.2 532.3 532.3 532.2 532.8 533.3 534.5
196 196 196 202.3 203.5 202.3 202.9 207.9 210.7 215.6 222 224.4 227.6 226.1 226.5 228 224.7 226.1 229.9 236.1 246.2 256.3 250.8 238.4 236.8 244.4 242 245.8 249.5 254.7 258.3 261.2 263 265.8 265.5 265.7 264.6 263.7 262.1 262.2 253.7 253.9 252.9 250.6 252.5 256 256.7 257.5 261.1 263.2 261.4 256.6 263.7 267.1 272.6 271.3 270.7 273.3 275.2 273.3 267.3 261.6 261.1 259.7 257.3 252.1 247.3 245.7 243.6 241.5 233.9 234.4 233.8 232.7 232.5 233.2 233.4 234.3 234.5 234.1 235.1 236.1 235.7 235.4 237 237.3 237.6 238 238.7 241.7 241.3 242.1 247.3 253.3 259 262.9 268.4 273.5 275.1 273.9 278 282.2 284.9 284 285.4 289.1 298.1 305.4 310.5 316.8 320.1 322.4 324.3 320.4 318.8 311.8 306.8 312.9 317.5 322.8 330.8 335.3 337.9 341 345.4 349.9 353.2 356.6 362.7 367.4 367.9 372.1 379.3 386.4 393.3 397.4 405.9 413.8 420.4 424.1 431.2 438.8 448.8 461.5 466.6 467.2 472.8 479.9 487.2 488.3 488 483.4 483.8 483 486.7 489 492.7 493.8 497.3 503 508.6 516.5 524.4 535.4 541.9 540.9 537.8 534.9 532.4 524.8 520.4 517 514.9 513.5 512.2 511.3 510.5 509.7 509.4 510 510.4 506.8 505 503.8 503 505.2 507.7 510.3 514.2 518 522.2 527 530.6 532.8 534.7 535.1 536.3 537.3 538.3 540.7
196 196 196 203.7 203.2 204.2 205.9 211.1 215.5 219.1 223.1 225.2 230.4 232.8 232.8 231.3 226.7 224.3 226.5 233.2 241.8 250.9 254.6 242.9 237.3 237.7 243.3 242.9 246.9 251.4 253.5 258.1 263 267.9 265.8 261.8 262.2 261.3 257.9 254.2 251.4 251 251.2 253.6 254.6 254.3 253.8 254.1 254.7 254.9 252.2 249.8 257.3 257.9 259.7 262.6 263.8 264.3 267.5 265.4 261.8 254.8 254 255.6 252.7 247.2 243.3 241.6 239.4 231.1 230.9 231.7 233.4 232.2 232.3 233 233.7 235.8 240.4 242.1 242 237.6 239 239.5 237.4 237.3 237.8 238.9 240 243.6 247.6 246.1 248.3 256.4 264.2 270 275 278.4 280.9 282.3 281.5 286.8 289.1 289.5 289.4 295.5 302.4 306.5 311.4 316.8 320.2 323.3 325.9 322.5 321.7 316.2 309.3 317.4 319.9 324.4 331.3 336.3 337.9 336.2 342.8 347.5 350.8 354.2 357.6 359.4 366.6 371.8 378.4 384 392.6 400.5 409.2 418.4 425 430.7 435.5 441.4 452.1 462.4 470.7 477.6 481.4 485.7 491.1 491.1 491.7 491.3 493.7 496 496.7 498.9 501.8 503.5 507.8 513.8 518.4 524.2 532 542.5 544.5 541.3 537.9 534.4 528.8 521.5 516.2 513.6 512.6 511.6 510 508.2 507.4 506.6 505.8 507.5 508.9 504.8 502.4 501.4 501.7 504.6 507.2 509.6 514.6 518.4 523 527.3 530.7 534.3 537.2 538 539.5 540.9 542.5 545.7
196 196 196 198.8 202.8 206.6 211.9 214 216.6 220.1 224.3 227.9 233.2 237.2 238.9 232.3 228 224.2 224.8 229.5 238.2 247.4 252 244.3 236.9 235.5 238.3 242.2 244.2 246.5 248.8 248.7 252.6 256.9 259.4 257.4 258.6 257.6 255 248.6 246.1 244.9 249.2 251.2 252.9 254.3 256.6 256.7 252.6 251.9 246.6 245.7 250.8 252.6 254.1 257 257.5 257.1 260.2 262.8 259.1 252 247 243.9 240.8 240.2 239.7 238.3 234.8 229.4 231.6 230.3 231.4 231.6 232.6 233.4 234.4 238 242.2 242.3 241.2 240.4 241.7 242.6 240.2 238.8 239.9 239.9 241 246.4 253.9 254.6 251.2 261.5 270.1 276.2 279.9 283 285.5 287.5 287.2 290.9 295.4 296.4 297.3 302.7 306.8 311.5 317.1 319.2 321.3 323.9 326.7 324 323.7 321.1 314.2 314.8 321 325.5 329.2 332.1 333.6 340.5 345.8 347.7 353 357.6 361.9 365.3 366.9 371.5 376.7 384 394.7 405 414.2 424.1 431.3 440.1 443.1 448.1 454.7 467 476.3 487.6 490.5 494 495.1 498.2 499.1 498.5 504.6 507.7 509.9 509.3 509.9 512.6 518.5 527.8 536.3 535.8 539.4 546.4 547.2 543.2 537.1 532.5 525.2 517.7 511.8 508.8 508.6 508.3 507.3 505.7 504 503.2 502.4 503 503.4 500.3 498.7 498.8 500.1 502.9 505.6 508.5 513.4 518.7 523 527.4 531.7 535.8 539.1 540.9 542.7 544.4 546.8 551
196 196 196 196 201.2 206 208.4 211.9 217.7 222.3 227.7 231.1 233.5 239 239.4 230.6 223.9 222.5 223.1 226.3 234.1 243.6 248.5 247.8 237.5 232.2 233.7 236.5 239.3 244.3 245.6 246.2 246.8 248 251.8 252.1 254.1 251.4 249.5 244.4 240.2 243 246.4 249.4 251.7 257.3 258.5 257 253.4 252.2 243.2 241.5 244.8 247.1 249.8 251.5 250.9 252.6 258.9 263.3 261.1 251.3 245.3 241.3 238 235.9 236 233.8 230.9 227.1 237.5 240.9 239.8 235.4 233.4 234.7 235.2 237.8 239.7 240.5 241.9 243.2 246.6 247.7 246 245.2 244.7 242.8 242.7 251 261.1 265.5 262.9 264.5 272.3 279.5 287.3 288.7 292.3 294.1 293.6 297.5 301 304.3 305.9 307.2 309.7 314.8 319 322.1 323.2 325 327.8 325.2 325.7 322.5 318.9 314.3 319.1 322.4 327.3 328.2 334.8 338.2 343.6 346.6 352.5 357.5 363 367.6 369.5 372.8 377.8 386.6 396.6 408.3 417.4 427.2 437.7 447.1 451.7 455.6 464.7 473.6 483.6 490.9 500.7 501.3 499.3 500.8 502.8 509.4 511.7 513.7 515.7 515.1 516.3 519.9 526.1 538.3 550.6 556 548.3 550.1 549.3 543.6 537.3 529.6 518.3 511.8 506.7 502.5 500.2 498.1 497.1 499.2 499.4 498.2 496.9 497.4 496.1 494.6 493.3 494.1 496.3 499.3 502.4 506.5 511.3 517.2 522.3 526.8 531.8 536.7 540.8 543.9 545.8 548.1 551.8 557
196 196 196 196 196 200.9 206.8 215 220.5 226 229.4 233.2 232.7 237 238.5 231.3 222.8 222.3 221.1 222.8 228.5 238 245 245 238.5 229.9 229.1 230.3 233.6 237.8 239.2 243.4 243.7 245.4 245.9 247.2 249.7 247.8 246.9 240.9 235.9 237.2 241.4 246.1 251.4 256.8 258.7 258.9 256.2 253.9 246.8 237.9 240.9 243.4 245.1 245.4 247.2 252.2 259.6 264.6 262 256.2 246.8 242.2 237 233.6 232.1 230.8 229.4 226.6 236.2 240.9 242.9 241.8 238.9 235.7 236.1 237.4 239.7 240.7 243 245.6 252 253.5 252.6 249.7 247.2 246.3 245.4 256.4 266.2 275.4 275.1 272.7 273.4 281.6 287.6 295.3 299.2 301.1 302.4 303.9 308.3 311.8 316 319 320.6 321.4 324.1 326.3 327.9 327.9 330 328.1 326.9 324.9 321.8 316.8 321.4 323.8 327.1 329.7 333 340.1 343.4 347.3 351.3 357 363.2 368.6 372.4 376.2 380.1 389.5 399.4 410.3 421.9 431.6 445.7 451.4 456.2 464.8 475.6 484.8 497.7 497.7 497.8 503.3 503.7 504.9 507.3 512.4 519.7 517.8 519.3 520.5 521.6 525.2 529.8 540.7 553.1 560.4 552.6 550.4 548.1 542.7 533.7 522.5 512.9 506.1 500.6 496.2 493.6 491.6 489.7 490.2 492.8 490.8 491.2 492.5 491.5 490.1 489.1 490.5 493.2 495.7 500.1 506.6 509.7 515.5 521.4 526.3 531.8 537.3 542.9 546.2 549.6 553.4 556.9 562.5
196 196 196 196 196 200.3 209.6 226.8 227 230.5 231.8 234.9 233.2 234 236.5 231.6 222.1 222.6 220.4 220.6 221.9 233.7 245.8 246.2 239.2 229.7 228.6 228.5 228.7 231.3 234.1 237.8 238 238.1 238.9 242.1 243.1 242.4 241.1 237.5 232.9 231.3 236.2 242.3 247.5 251.1 254.8 259.4 259 257.5 247.1 239.4 236.9 239.5 240.7 241 243.1 249.6 256.8 262.6 262.5 258.6 254.1 247.9 242.7 237 231.8 230.3 228.5 226.1 230.2 238.5 243.1 246.7 248.3 245.2 239 240.1 242.8 243.6 243.8 247.1 252.9 257.4 257.6 254.2 250.2 250.4 248.9 262.8 272.5 280.2 282.3 283.3 284 285.1 289.2 294.6 300.9 304.9 307.7 307.8 311.7 315.9 320.1 325.5 327.3 329.3 331.5 332.8 333.3 333.7 333.3 331.6 330.4 328.5 324.9 319.1 323.9 328.1 329.5 331.1 333.8 342.8 346.7 349.4 353.3 358.2 364.4 369.8 375.9 380.2 384.4 392.4 402.6 413.5 421.9 435.3 452.5 461.5 464.2 475.3 485.7 496.3 504.4 504.7 501.8 503.8 505.4 508 512.2 514.7 518.7 520.5 521.2 522.9 525.1 528 532.5 538.3 546.5 554.4 552.8 550 546.3 542.4 531.7 518.4 507.6 499.2 493.5 490.7 488.8 486.9 484.5 484.5 484 483.4 485.4 486.4 486.3 486 485.8 487.3 489.9 493.6 498.2 505.3 509.9 515.8 521.4 527.4 533 538.6 544.1 548.4 552.8 557.9 562.1 567.6
196 196 196 196 197.8 203.1 215.4 225.5 230 233.4 236.2 236.3 234.9 235.6 237.2 231.8 222.6 221.7 221.1 216.8 215.9 226.2 237.5 249.4 243.8 230 227.4 226.8 227.3 228.2 230.2 232 231.2 231.2 233.3 235.4 236.8 236.7 233.7 230.7 228.2 228.1 230.1 235.3 242.6 244.9 248.2 253 260 257.8 250.4 247.4 235.5 236.5 237.8 238.1 240 246.6 251.9 256.6 259.1 259 256.9 254.4 250.3 243.9 236.8 232.6 227.3 226.2 226.7 233.4 242.4 247.6 252.4 252.6 251.1 245.7 245.5 247.6 248.1 248.4 254.2 260.8 262.8 260.3 257.1 258.6 261.8 272.7 280.9 284.4 289.4 292.8 295.8 299.5 298.9 299.3 301.7 306.7 310.4 314.4 316.1 320.1 325.6 330.7 332.7 335.2 337.3 338.7 339.1 340.1 337.8 334.1 336.4 333.1 326.4 321.5 325 330.5 331.7 335.9 337.9 343.4 345.8 350.3 354.4 360.3 366.5 372.7 378.1 383.9 389.5 395.4 405.9 414.4 421.3 435.7 455.2 467.1 473.4 485.2 499.4 509 512.2 510.9 505.6 505.5 507.2 512.3 510.7 509.9 511.8 515.1 519.4 521.4 523.9 528.1 535.5 542.3 547.7 555.9 554.5 551 545.9 540.1 529.9 515.9 503.9 494.6 489 486.1 484.4 481.8 479.2 477.8 477.1 477.2 479.7 481.7 482 482.1 484 486.2 489.3 493.6 498.8 504.3 509.7 516.1 522 527.7 534.2 539.8 545.2 550.7 554.7 559.7 564.4 571.5
196 196 196 196.1 198.8 202.9 209.5 225.6 230.1 233.2 237 234.3 234.7 236.3 238.7 234.3 225.5 223.1 221.7 216.2 214.6 218.5 227.7 240.3 243.4 235 228.6 226.8 226.9 228.3 229 228.9 228.9 230.1 231.7 232.7 231 228.7 226.3 224.9 224.3 228.1 231.3 231.7 233.6 236.8 241.1 241.4 240.7 241.7 242.9 241.2 235.5 234.1 235.6 234.5 236.4 242.4 246.2 250.5 253.3 254.6 255.2 255.3 251.4 248.5 244.2 236.4 230.8 225.6 226.4 229.2 241 247.6 253.1 256.7 255.8 252.6 249.4 252.8 254.4 253.1 254.2 262.7 267.9 267.9 268.5 269.2 272.4 280.3 286.5 291.6 300.5 305.9 306.5 311.5 308.7 308.8 309.9 312.6 314.1 319.4 322.7 324 327.8 332.3 338.3 341.1 342.9 345.4 345.7 346.1 343.1 341.4 342.4 341.1 331 323.2 326.1 337.1 334.7 344.9 345.1 349.7 352.6 357.7 357.8 362.3 371.1 377.7 381.9 386.8 392.2 397.7 406.5 413.9 421.6 439.3 458.7 472.6 477.8 490.7 506.3 516.9 516.2 516.1 510.3 507.3 506.8 508.7 506.7 505.4 504.4 507.8 511 516.1 521.4 532.4 546.9 553.4 552.1 555.7 555.3 552.6 547.1 538.4 529.8 519.8 507.2 494.9 488.7 484.1 480.4 477.8 474.2 473.4 474 474.5 476.4 476.9 477.6 479.3 482.3 485.3 488 492.4 497.4 503.2 508.9 514.6 521 526.4 534.3 540 545.3 551.1 556.6 561.5 566 573.9
196 196 196 196 202.2 204.4 209.9 219.5 234.7 232.2 229.7 229.7 232.6 235.1 235.8 232.1 225.3 222.7 221.3 216.8 213.6 213.4 218.5 226.3 233.6 231.1 226.8 225.4 228.9 229.6 231.3 230.5 228.1 228.9 232.6 229.3 226.7 222.9 220 219.4 221.3 227.7 234.2 235.6 234.3 230.7 230.4 231.3 229.3 229.5 230.8 230.1 228.6 233.5 234.4 230.5 231.4 235.8 239.8 243.6 246.1 248.2 249 249 247.9 247.5 244 239.6 235.4 226.3 225.4 228.6 240.1 246.7 252.6 256.9 258.6 257 254.2 259.9 263.4 265.4 263 258.1 268 272.7 274.4 277.1 280.2 285.4 292.3 302.1 313.1 316.4 315.8 320.9 320.7 324.3 321.3 322.2 324.3 323.8 327.2 330.3 332.7 336.2 341.6 347 350.7 353.3 355.8 355.1 351.3 348.2 346.1 341.8 334.7 326.2 333.1 341.2 340.6 348.1 349.8 353.3 358.7 364.9 369.9 372.8 378.6 380.7 384.6 389.3 395.4 401 408.8 416.1 424.1 438.7 457.7 471.7 479 495.2 510.1 518.5 516.6 513.1 507.2 504.9 504.5 503.8 503.2 501.9 500.8 503.3 507.9 513.6 522.7 539.2 552.4 562.3 559.9 559.2 559.5 554.4 547.3 536.4 528.4 519.7 509.2 495.7 489.9 485.4 477.9 473.9 472.5 471.4 470.9 472 473.3 474.5 474.8 477.4 480.5 482.7 485 489.7 495.3 499.6 505.4 511.5 517.9 525.3 534.5 540.1 544.8 550.7 556.3 561.8 567.6 575.5
196 196 196 199.2 205.5 207.6 211.8 221.4 228.8 228.4 227.1 226.3 230.2 232.7 231.4 229.2 226.1 224.1 221.5 217.1 212.8 210.4 210.6 215.3 223.8 224.8 224 223.5 225.9 227.2 229.6 233.9 228.8 225.5 226.3 226.4 223.7 219.6 216.4 215.8 217.7 222.1 227.3 230.9 235 234 230 227.4 225.6 223.7 222.9 222.9 222 229.5 229.9 226.9 226.6 230.9 234.1 236.7 239.3 241.1 241.9 241.5 240.8 240.7 239.5 236.9 233.8 230.5 225 224.7 238.4 245.6 252.1 256.8 259.9 259.3 258.5 263.2 267.7 269.8 269.5 270.5 266.7 273 278.1 282.8 287 293.6 302.2 310.8 320.1 323.4 323.3 327.5 330.1 328.2 331.2 332.7 331.8 332.6 334.5 338.5 341.1 343.6 348.2 352.2 356.2 359.5 362.4 363.7 361.8 358.1 350.7 345.7 342.8 330 341.3 341.5 345.1 348.1 353.9 357.2 361.6 369.3 374.3 377.5 381.7 385.5 389.5 392.5 397.6 404.5 412.2 419.9 428 437.7 454.7 469 481.6 497.6 517.1 519.6 515.5 512.6 505.5 502.7 502.7 500.5 497.7 498.1 497.6 497.7 501.3 508.5 524.8 540.3 555.7 569 568.2 560.2 555.5 548.7 542.5 534 528.8 520 505.9 494.6 487.9 481.3 475.4 472.3 470.8 469.7 468.6 469.5 470.3 471.6 473.2 475.9 478.5 480.5 482.7 486.2 491.9 497.3 502.6 508.8 515.2 522.9 532.9 538.5 543.3 548.2 553.5 558.6 565.4 572.6
196 196 196 196 206.6 212.1 214.7 219.1 222.5 225.1 226.1 224.6 225.2 228.2 227.1 226.6 224.9 224.6 222.3 216.6 211.3 209.4 208.6 208 210.9 216.4 216.3 220.2 223.5 226.7 228.2 229.1 229 223.5 221.3 221.4 219.4 216.6 213.6 213 212.9 215.8 220.9 224.6 230.1 235.1 235.7 232.8 230.2 229.5 223.6 220.4 219.8 223.2 223.5 222.9 223.5 224.5 228.6 231.6 234 234.2 234.8 234.1 233.4 232.7 232.2 230.8 230.3 224.2 224.1 225.7 237.4 245.2 251.7 256.6 259.4 261.4 264.5 266.5 271.7 274.9 276.2 275.7 275.1 274.5 278 283.8 292.5 301.5 311.8 320.1 329 334.4 332.3 334.5 337.5 335.6 340.3 342.8 341.5 342.3 344.7 347.4 349.4 351.7 353.7 356.3 359.4 362.8 365.1 366.5 365.2 361.8 356.2 353.4 347.5 333.8 341 341.7 345.9 351.3 354.2 360.6 363.8 368.6 373.8 378.4 382.8 386.8 390.7 396.2 402 407.8 414.4 421.7 429.3 438.1 452 468.6 481.3 499.6 520 517.2 510.8 503.5 502.9 502 499.5 495.2 490.9 493.7 492.8 491.9 492.1 506.5 523.5 536.3 551.1 562.4 564.7 563.4 552.4 538.8 535.3 530.6 527.1 516.5 501.3 494.8 491.9 484.5 475 469.5 468.1 466.9 466.6 467.3 467.9 470.1 472.2 474.6 476.5 478.5 480.4 483.2 488.1 493.8 499.8 505.3 511.3 519.4 529 535.2 540.4 545.6 550.2 555.1 562 571.7
196 196 196 197.3 203.1 216.1 218.4 219.4 220.2 223.3 223.5 220 221.2 224 224.4 224.3 222.9 219.9 221.4 217.6 210 210.5 207.5 205.9 205.9 211.6 213.8 220.8 225.4 227.8 229.1 228.1 227.3 224.1 218.3 215.5 214.6 214.5 214.1 211.5 211.1 212.8 214.1 219.3 225.1 230 232.1 232.8 232.4 230.4 226.6 220.3 219 218.7 219.5 219.8 220.1 220.1 221.7 226 227.7 226.6 223.5 223.6 224.9 225.6 224.8 223.6 220.5 224.7 229.6 235.2 241.8 246.8 251.6 256 260 263.3 266.9 272.6 278.9 284.9 288.7 285.2 283.2 282.8 283.4 283.5 294.3 303.3 313.6 321.2 332.7 338.6 341.3 340.1 344 344.7 344.8 351.3 351.7 353 354.3 358.2 360.9 360.8 359.9 362.5 363.6 364.2 366 367.2 366.2 362.6 357.4 353.5 341.5 334.9 340.3 343 346.7 354.1 359.5 361.7 368.5 368.7 375.3 381.3 385.3 388.7 392 396.4 404.9 410.5 419 425.8 430.3 438.4 452.7 468.9 479.6 497.2 512.1 510.5 505.9 501.6 501.2 499.1 495.8 490 484.8 485.6 486.2 486.5 488.2 504.1 525.4 534.7 544 550.3 561.3 557.7 550.8 536.6 525 519.9 515.2 514.8 500.5 493.8 488.3 481.2 470.9 467.2 465.8 465.1 464.9 465.5 466.5 468.5 469.6 471.5 472.8 475.7 478.4 481.5 484.5 490.1 495.6 500 507.7 517.5 524.7 531.6 537.2 542.1 546.9 552.1 558.5 567.3
196 196 196 196 202.4 209.1 210.9 211 215.2 217.7 213.7 215.3 214.5 220.1 220.9 221.2 220.1 216.4 217.7 219.1 211.4 209.8 206.4 204.9 204.9 207.9 210.2 214.1 221.2 224.9 227.3 227.7 226.3 223.8 219.8 213.1 210.6 211.1 214.3 210.8 208.9 210.9 211.1 212.5 218.8 224.3 224.4 225.8 225.8 226.2 225.1 222.5 219.6 217.2 218.5 217.9 217.7 217.7 217.9 215.4 214.1 216.9 218.2 220.5 219.3 221.4 220.3 223.7 225.3 226.8 234.4 239 244.7 248.8 253.8 258.8 263.5 267.8 271.2 277.9 284.3 290.6 295.4 295.1 292.1 293.5 294.7 292.5 296.3 303.8 311.5 319.8 328.3 337.4 341.5 345.3 351.7 354.1 352.1 356.8 360 362.7 364.3 366.4 368.1 368.6 366.9 368.2 367.4 367.7 368.1 367.9 366.9 363.2 357.5 346.6 339.8 340.4 344.9 346.6 349.1 351.8 358.7 366.4 370 371.4 373.3 382.3 387.7 390.6 393.1 395.6 404 412.5 418.9 423.1 428.4 439.8 454.3 469 475.6 492.9 501.6 500.3 503.1 499.4 497.1 492.1 487.3 482.4 478.7 478.6 479 482.9 492.3 510 526.6 539.3 547.3 547 547.8 551.4 543.5 531.9 516.7 509.2 508.8 507.4 494.3 487.8 482.4 475.9 468.4 465.9 464.2 463.7 463.1 463.4 465 466.4 467.1 467.9 469.4 471.4 474.9 479.3 482.4 486.9 493 498.1 503.1 511.5 518.6 525.1 530.1 537 543.3 549.1 555.2 562.7
196 196 196 196 202.1 205.8 206.8 207.4 213.1 212.1 212.4 215.9 214.5 216.2 217.3 217.5 217.2 214.2 213.5 212.7 208.1 205.8 205.4 205.9 206.3 208.7 208.7 209.9 215.3 221 224.8 226.3 224.9 221.3 218.8 213.8 210.1 207.9 210.2 207.3 207.9 208.7 209.7 209.4 210.1 213.4 216.4 218.4 219.4 220.6 221.1 219.8 216.2 215.2 216.1 216.2 216.4 214.3 216 218.6 217.6 219.9 225.6 227.4 228.7 229 230.3 228.8 231 235.2 237.6 239.3 244.9 250.4 256.1 262.3 269 272.5 275.1 281.5 287.8 293 299.9 299.6 298.9 300.2 300.7 299.5 298.4 300 307.9 318 325.9 335.6 342.7 348.7 354.9 360.2 359.4 361.4 367.1 369.9 372.5 374.7 376.3 376.1 374.7 373.8 372.3 370.6 370.8 370.2 367.6 363.9 359.6 347.9 346 346.3 348.7 351.5 351.6 353.5 358.2 363.7 370.2 371.6 373.6 378.1 384.6 391.7 394.2 395.7 398.6 407.4 414.1 418.8 426.8 438.8 452 461.2 469.3 483.8 495.7 495.8 495.4 491 488.7 479.9 479 471.5 467.7 467.3 473.2 482.7 495.6 515.2 526 534 538.3 540.4 542.3 538.1 533 525.6 513.8 507.7 492.9 487.2 484.5 482.8 478.1 474.8 466.1 464 462.2 460.8 460.4 461.6 463.1 464.6 464.6 464.7 466.2 469.4 473.7 478.8 482.8 486.9 491.9 496.5 500.6 508.4 514.5 519.8 526.7 533.8 540.5 546.3 551.9 558.3
196 196 196 196 198.7 205.3 208.3 210.5 210.6 212.3 214 217.4 218.1 214.2 213.3 210.8 210.8 209.3 208.4 206.5 204 203.5 204.4 206.4 207.8 211.6 210.3 205 209.3 215.1 220.1 221.6 219.8 216.2 214.4 213.3 211.8 205.6 207.8 208.2 208.1 208.7 209.5 209.7 209.9 209.9 210.3 213.1 213.9 217.8 217.3 215.6 213.7 214.3 214.9 215.3 214.7 215.1 216.3 217.6 219.1 224.1 228 231.5 233.1 236.2 236.8 235.8 237.7 241.4 243.5 247.3 248.4 250.6 253.6 261.1 268.4 273.3 278.5 285.1 291.3 296.3 300.7 303.8 303 305 307 307.4 307.2 308.6 311.4 313.4 325.1 334.9 343.6 350.5 358.7 366.2 369.5 366.6 371.4 374.9 379.2 382.8 383.6 383.2 382.8 380.4 376.8 375.3 373.8 371.2 368.5 363.8 360.7 354 347.6 350.3 351.6 353 354.9 355.8 359.2 364 366.8 368.7 372.5 377.8 383.1 390.7 396.6 398.7 399.5 404 410.4 414.1 424.7 437.4 446.4 457.1 467.1 478 485.6 485.3 481.9 479.7 476.1 465.3 464.8 462.3 457.3 461.5 471.9 486.1 504.1 520.6 528 539.8 542.5 539.1 538.5 532.5 521.7 517.9 514.9 506.8 496.9 479.4 474.1 474.5 473.4 471.1 464.1 462.2 460.5 458.8 458.7 460 461.8 463.3 462.4 461.6 463.9 469.1 474.7 479 482.6 486.5 490.3 494.3 497.3 505.7 510.4 517.1 522.9 529.8 536.4 541.1 549.1 557.2
196 196 196 196 196 200.7 208.5 212 213.5 214.9 215.8 220 220.8 214.4 214.4 207.3 207.8 207.5 206.2 204.1 202.7 202.6 203.3 205.3 207.8 208.1 207.4 204.4 206.4 208.6 211.7 213.9 213.3 209.5 210.1 208.4 205.1 206.7 207.4 208.1 208.5 208.9 209 209.5 209.7 209.9 210.2 210.2 210.6 211.3 212.1 213.2 213 213.7 214.3 214 214.1 215.2 216.2 217 218.1 229.4 229.9 234 237 239.4 241.4 242.4 243.4 249.4 253.2 254.3 260.7 261.9 257.5 255.6 266.4 271.6 279.5 289.7 296.5 301.8 303.8 306.7 308.2 312.1 315.3 317.6 317.9 318.3 321.2 322.5 328.5 336.6 343.4 352.7 361.9 371.1 378.5 372.2 375.6 380.5 384.9 388.5 391.4 391.6 389.2 386.5 381.9 379.5 378.1 373.5 368.2 362.8 357.7 353.7 351.9 353.8 353.8 355 356.1 356.8 358.6 361.1 363.2 365.5 369.9 376 382 390.7 397.4 402 401.4 401.7 405.8 410.7 421.2 432.3 440.8 453.1 460.9 469.7 472.8 469.1 465.1 465.3 460.6 453.8 452.5 450.5 449.1 459.6 470.6 486.4 503.3 525.5 536.5 544 542.9 537.5 538.6 533.7 520.6 514.4 511.7 506.9 497.8 481 471 468.6 469.4 467.7 462.3 460.4 458.6 457 457.2 458.3 460.1 460.2 459 459.9 463.6 468.4 473.7 477.3 479.7 482.9 486.4 491.3 494.4 500.7 505.9 512.5 518.8 526.4 532.8 539.2 547.2 554.8
196 196 196 196 196 196 206.6 210.4 213.4 212.6 212.3 219.9 220.9 215.1 213.3 207.1 206.8 206.4 205.4 203.9 202.5 202 201.5 202.9 204.4 203.6 202.3 202.2 202.7 202.6 203 202.7 206.3 205.3 204.5 205.4 206 206.7 207.5 210.6 210.9 213 209.5 209.5 209.4 209.8 210 210.5 211.4 210.5 211 211.7 212.4 213.1 213.8 213.6 214.5 215.4 217.1 219.9 227.9 232.2 234.8 238.1 240.8 242.6 244.9 249.5 253.2 255.9 260.2 262.1 265.7 270.6 271.4 272.3 267.3 270.9 280.2 287.5 295.8 301.9 307.8 312.7 314.9 317.6 321.3 324.2 326.8 328.5 329.6 331.7 331 341.5 350.5 358.1 363.4 373.1 383.4 382.8 381.5 386.4 391.1 395.4 401.3 401.3 396.6 390.5 387.6 386.7 383.4 377.8 370 362.6 358.2 354.4 354.5 356.3 358.7 359 359.9 359.2 358.8 360.2 361.8 363.4 367.3 373.2 379.1 388.6 395.2 397.8 400.7 401.7 403.2 405.8 416.3 426.4 435.2 446.2 453.2 457.1 459.3 452.2 455.3 452.9 449.7 446.4 446 444.1 442.9 455.8 468.5 482.3 500 523.9 540.5 546.3 540.4 535.2 533.4 527.3 517.9 510.7 504.6 498.5 493.7 479.9 468.2 464.8 463.5 462.2 460.3 458.6 457.3 455.3 455.1 456 456.5 455.8 456.3 458.5 461.3 464.4 467.8 471.3 474.7 478.6 482.7 487.4 492.3 499.6 505.9 511.2 516.5 522 528.4 535.9 543.3 549.8
