ncols 200
nrows 90
xllcorner 270000
yllcorner 372900
cellsize 50
-2.3 -2.3 -2.3 -2.3 -2.3 -2.3 -2.3 -2.3 -2.3 -2.3 -2.3 -2.3 -2.3 -2.3 -2.3 -2.3 -2.3 -2.3 -2.3 -2.3 -2.3 -2.3 -2.3 -2.3 -2.3 -2.3 -2.3 -2.3 -2.3 -2.3 -2.3 -2.3 -2.3 -2.3 -2.3 -2.3 -2.3 -2.3 -2.3 -2.3 -2.3 -2.3 -2.3 -2.3 -2.3 -2.3 -2.3 -2.3 -2.3 -2.3 -2.3 -2.3 -1.4 -0.7 0 0.7 1.4 2.1 2.8 9 9.8 10.6 14.2 19 22.8 23.7 24.9 26.1 27.1 27.4 27.2 26.7 25.3 24.3 21.3 17.1 16.8 20.4 23.3 25.5 28.3 33.6 43.6 69.1 104.5 143.2 180.5 192.4 212.3 224.8 231.1 224.2 211.8 203.1 199.6 195.1 188.2 177.3 171.1 172.5 176.4 184.3 191.8 189.1 181.2 179.1 178.8 176.2 176.1 178.6 178.8 174.6 178.9 172.5 176.5 183.7 181.7 168.4 147.6 131.7 122 117.3 106.2 99.7 97.6 93.7 86.9 81.7 77.9 75.9 76.9 76.7 75.9 77.2 79.6 82.1 79.7 73 66.6 61.6 60.5 63.2 63.4 65.4 65.8 65.2 65.8 67.1 67.4 64.9 60.8 56.9 50.1 42.1 35.2 29.3 23.3 17.8 11.9 5.6 5.7 5.3 6.4 4.3 5 -2.3 5.4 -1.7 -0.5 -2.3 -2.3 -2.3 -2.3 -2.3 -2.3 -2.3 -2.3 -2.3 -2.3 -2.3 -2.3 -0.5 0.9 1.7 2.3 2.8 2.9 3.6 4.8 7.1 5.2 7.3 7.9 9.3 7.3 7.4 7.3 7.5 7.7 8.5
-2.3 -2.3 -2.3 -2.3 -2.3 -2.3 -2.3 -2.3 -2.3 -2.3 -2.3 -2.3 -2.3 -2.3 -2.3 -2.3 -2.3 -2.3 -2.3 -2.3 -2.3 -2.3 -2.3 -2.3 -2.3 -2.3 -2.3 -2.3 -2.3 -2.3 -2.3 -2.3 -2.3 -2.3 -2.3 -2.3 -2.3 -2.3 -2.3 -2.3 -2.3 -2.3 -2.3 -2.3 -2.3 -2.3 -2.3 -2.3 -2.3 -2.3 -2.3 -1.2 -0.5 0.1 0.8 1.6 2.2 4.1 8.1 9.9 11.9 13.6 18.3 23.1 25 26.6 27.3 28.4 28.9 28.9 27.5 26.8 26.3 25.4 22.7 17.9 17 22 24.8 26.9 31.3 36.1 44.2 69 102.4 143.8 169.3 191.8 212.7 237.8 235.7 237.7 226.4 218.5 216.1 201.2 195.6 184.7 175.5 168.5 170.5 177.2 182.3 181.5 175.2 170.3 171.8 174.7 173.2 171.1 174.3 170.4 168 165.3 165.2 174.7 168.3 150.3 128.6 115.5 108.5 103.3 99.3 93.4 91.7 84.7 81.8 79.9 81.4 80.8 77.8 78.9 80.3 80.7 81.7 82.7 80.2 74.9 67.4 61.7 62.8 63.5 64 66.3 68.5 68.9 70.3 72.7 74.7 73.1 69.3 63.8 58.1 45.5 32.5 24.9 17.8 12.4 6.6 5.6 5.4 4 3.3 2.7 3.4 -2.3 5.8 4 4.8 5.3 -2.3 -2.3 -2.3 -2.3 -2.3 -2.3 -2.3 -2.3 -2.3 -2.3 -2.3 -2.3 -0.5 0.4 1 1.7 2.2 2.7 3.7 5 6.2 5.2 5.2 5.2 6.4 7.1 7 6.1 7.4 7.2
-2.3 -2.3 -2.3 -2.3 -2.3 -2.3 -2.3 -2.3 -2.3 -2.3 -2.3 -2.3 -2.3 -2.3 -2.3 -2.3 -2.3 -2.3 -2.3 -2.3 -2.3 -2.3 -2.3 -2.3 -2.3 -2.3 -2.3 -2.3 -2.3 -2.3 -2.3 -2.3 -2.3 -2.3 -2.3 -2.3 -2.3 -2.3 -2.3 -2.3 -2.3 -2.3 -2.3 -2.3 -2.3 -2.3 -2.3 -2.3 -2.3 -2.3 -1.1 -0.4 0.3 1 1.7 2.4 7.2 9.5 10 14 16.1 18.5 20.2 26.2 28.3 29.2 29.5 30.3 30.9 31.5 30 28.8 27.7 25.3 23.1 19 18.8 22.6 27 31.4 34.3 40.3 48.4 66.1 91.9 123.1 159.7 183.8 203.7 227.9 248 247.2 229.9 216.4 209.2 200.8 190.4 185 175.7 169.8 167.2 169.6 172.7 169.4 166.5 166.6 171.1 172.6 167.5 164.4 164.9 168.6 170.1 167.5 150.3 150.8 143.2 125.1 111.5 106.9 104.8 100.4 94 88.5 84.6 82.6 80.9 81.1 83.8 83.4 83.7 82.6 83.7 83.8 81.3 81.9 79.8 74.5 67.3 62.9 64.8 65.7 63.5 63.8 64.9 66.5 67.9 68.7 67.8 68.1 67.4 66.3 59.5 50 33.9 18.9 13.2 6.1 5.7 5.6 6.9 9.4 8.9 12.6 15 11.6 13.3 12.9 11.9 12.8 9 3.8 -2.3 -2.3 -2.3 -2.3 -2.3 -2.3 -2.3 -2.3 -2.3 -2.3 -2.3 -0.5 0.3 0.9 1.3 1.9 2.4 2.6 2.7 4.4 5.2 5.2 5.2 5.2 5.5 5.2 6 6.9
-2.3 -2.3 -2.3 -2.3 -2.3 -2.3 -2.3 -2.3 -2.3 -2.3 -2.3 -2.3 -2.3 -2.3 -2.3 -2.3 -2.3 -2.3 -2.3 -2.3 -2.3 -2.3 -2.3 -2.3 -2.3 -2.3 -2.3 -2.3 -2.3 -2.3 -2.3 -2.3 -2.3 -2.3 -2.3 -2.3 -2.3 -2.3 -2.3 -2.3 -2.3 -2.3 -2.3 -2.3 -2.3 -2.3 -2.3 -2.3 -2.3 -1 -0.2 0.5 1.2 1.9 2.6 9.8 11.5 12.5 14.9 18.5 20.6 22.6 26.6 29.4 30.8 32 32.3 32.3 32.9 33.5 33.4 32 29.5 26.7 23.6 20.8 19.5 22.7 27.6 33.5 37.7 43.9 49.6 67.4 84.5 111.2 142.9 170.5 199.2 230.7 233.8 228.4 206.9 197.2 197.9 191.3 182.5 169.4 160.5 158.5 155.6 154.7 152.6 152 155.5 160.3 165.7 161.5 163.9 159.3 157.4 161.7 163.3 157.1 145.9 132.5 127.3 117.8 111.5 104.1 100.1 95.7 92.4 89.2 87.1 83.8 82.1 83.1 86 87.9 87.4 86.3 85.7 85.7 82 80.2 77.5 73.7 67.7 66.3 68.3 69.5 65.8 60.4 59.7 59.7 60.1 61.5 57.3 56.1 56.1 53.3 52.7 35.3 31.8 19.3 10.7 5.3 4.1 9.8 14.9 15.8 21.1 27.4 30.9 24.7 28.8 28.8 25.6 20.4 17.6 10 -2.3 -2.3 -2.3 -2.3 -2.3 -2.3 -2.3 -2.3 -2.3 -2.3 -2.3 -1.1 -0.4 0.2 0.7 1.3 1.8 2.2 2.6 2.8 3.2 5.2 5.2 5.2 5.2 5.2 4.7 4.7
-2.3 -2.3 -2.3 -2.3 -2.3 -2.3 -2.3 -2.3 -2.3 -2.3 -2.3 -2.3 -2.3 -2.3 -2.3 -2.3 -2.3 -2.3 -2.3 -2.3 -2.3 -2.3 -2.3 -2.3 -2.3 -2.3 -2.3 -2.3 -2.3 -2.3 -2.3 -2.3 -2.3 -2.3 -2.3 -2.3 -2.3 -2.3 -2.3 -2.3 -2.3 -2.3 -2.3 -2.3 -2.3 -2.3 -2.3 -2.3 -0.6 0.1 0.7 1.4 2.1 2.8 12.2 13.3 14.7 16.9 18.9 22.5 25.7 27.5 30.6 33.8 34.8 35 35.6 35.1 34.9 35.4 36.8 35.5 32.5 29.5 26.9 23.3 22.5 22.4 25.7 33.6 38.4 45.3 51.9 69.5 88.2 109.8 136.1 165.6 192.3 218.5 219.1 195.6 179.2 179.3 178.8 179.5 167.5 160.6 158.8 156.5 155.2 157.6 154.5 148.2 148.6 150.7 157.5 156.3 156.2 155.4 150.4 152.9 151.8 148.9 139.7 126.2 122.5 115.2 103.8 100.6 98 94.1 91.1 90.4 87.9 84.3 83.1 85.6 90.3 92.6 91.1 88.5 87.5 87.4 82.4 78.4 75.4 71.9 69.3 69.1 70.7 72.7 70.2 65.1 58.2 54.2 53.5 52.5 51.1 49.2 43.1 43.2 41.1 40.4 32.1 17.5 8 5.5 8.1 16.4 19.8 27.2 31.1 35.2 36.4 37 41.4 42.4 40.6 36.6 32.7 27.2 14.5 5.7 1.6 -2.3 -2.3 -2.3 -2.3 -2.3 -2.3 -2.3 -2.3 -1.5 -0.9 -0.2 0.3 0.9 1.6 1.9 2.2 2.5 2.8 5.1 5.2 5.2 5.2 5.3 4.7 4.7
-2.3 -2.3 -2.3 -2.3 -2.3 -2.3 -2.3 -2.3 -2.3 -2.3 -2.3 -2.3 -2.3 -2.3 -2.3 -2.3 -2.3 -2.3 -2.3 -2.3 -2.3 -2.3 -2.3 -2.3 -2.3 -2.3 -2.3 -2.3 -2.3 -2.3 -2.3 -2.3 -2.3 -2.3 -2.3 -2.3 -2.3 -2.3 -2.3 -2.3 -2.3 -2.3 -2.3 -2.3 -2.3 -2.3 -1.2 -0.3 0.5 1.3 1.7 2.3 7.5 15 14.9 18.6 19.8 22.9 24.5 27.6 29.7 31.5 35.1 38.8 39.9 40.1 40.1 38.3 37.1 36.8 38 37 34.4 32.3 28.6 25 24.1 24.3 24.5 28.1 36.9 43.3 51.5 71.3 95.5 116.4 139.9 166.4 185.8 194.8 180.7 164.2 150 148 142.1 137.6 147 156.5 163.9 171.7 171.2 169.5 162.1 152.3 147.2 147 148.7 151 147.9 143.3 141.2 136.2 136.9 134.9 127.9 120.9 111.9 104.9 100 97.4 95.6 92.4 89.8 88.1 86.4 84.8 84.8 86.8 91.1 94.2 93 89.8 87.8 88.1 83.3 76.2 74.1 73.4 71.7 70.4 71.8 74.4 73.3 66.6 59.1 50.4 48.3 46.2 45.2 43.3 40.6 37.3 35.4 33.7 25.2 17.8 6.9 5.6 8.7 17.8 22.6 31.3 35.3 40.1 46.5 58.1 62.8 63.9 62.4 58.5 50 40.3 33.2 22.5 18.4 15.8 12.8 -2.3 -2.3 -2.3 -2.3 -2.3 -2.3 -1.7 -1 -0.4 0.3 0.8 1.1 1.4 1.8 2.1 2.5 2.8 4 5.2 5.2 4.7 4.7 4.7
-2.3 -2.3 -2.3 -2.3 -2.3 -2.3 -2.3 -2.3 -2.3 -2.3 -2.3 -2.3 -2.3 -2.3 -2.3 -2.3 -2.3 -2.3 -2.3 -2.3 -2.3 -2.3 -2.3 -2.3 -2.3 -2.3 -2.3 -2.3 -2.3 -2.3 -2.3 -2.3 -2.3 -2.3 -2.3 -2.3 -2.3 -2.3 -2.3 -2.3 -2.3 -2.3 -2.3 -2.3 -1.1 -0.4 0.2 0.9 1.7 2.5 2.8 9.9 17.4 17.7 17.4 19.4 26.7 27.5 29.6 33.7 36.9 37.2 40.6 43.1 45.1 45.2 44.7 42.9 40.8 38.9 36.4 35.6 35.2 34 30.3 27.9 25.4 25.3 26 27.7 29.1 37.4 46.9 67.5 93.6 116.3 130.8 156.2 180 180.5 150.1 131.2 117 111.3 107.7 99.8 108.3 129.9 154.5 173.3 176.9 169.7 165.1 160.1 148 146.3 147 149.5 146.1 140.6 135.9 131.6 128.2 122.5 117 111.8 108 104.8 98.6 95.5 93.4 91.2 89.6 87.3 86.2 86.3 85.9 87.3 91.4 93.7 93.7 91.1 88 88.9 84.7 77.5 75.5 74.1 72.7 71.1 71 73.6 71.5 65.1 58.8 50.4 44.1 40.8 37.8 37.4 34.6 31.8 28.8 24.2 19.7 13.4 5.6 5.8 12.1 23.1 27.3 32.4 39.1 46.6 54.6 76 87.3 89.1 86.2 79.9 75.1 68.1 58.6 46.2 38.9 34.6 30.1 28.9 16.1 1.1 -2.3 -2.3 -2.3 -1.6 -0.9 -0.3 0 0.4 0.8 1.1 1.5 1.9 2.2 2.5 2.8 4.5 6.2 4.7 4.7 4.7
-2.3 -2.3 -2.3 -2.3 -2.3 -2.3 -2.3 -2.3 -2.3 -2.3 -2.3 -2.3 -2.3 -2.3 -2.3 -2.3 -2.3 -2.3 -2.3 -2.3 -2.3 -2.3 -2.3 -2.3 -2.3 -2.3 -2.3 -2.3 -2.3 -2.3 -2.3 -2.3 -2.3 -2.3 -2.3 -2.3 -2.3 -2.3 -2.3 -2.3 -2.3 -2.3 -1.1 -0.4 0.2 1 1.7 2.3 4.6 14 16.7 18.2 19.2 22.1 26.6 29.7 31.5 33.1 35.9 40.9 43.2 44.5 47.3 48.9 49.7 49.8 49.3 47.5 44.8 41.8 37 33.5 33.4 35.3 34.4 31.6 28.6 27.6 28.4 29.5 28.7 32.4 38.3 56.6 78.9 99.4 116.2 141.1 161.3 156.9 131.6 100.3 88 83.2 98.3 108.6 118.3 136.1 145.9 158.1 166.6 169.1 164.6 156.7 148.5 146.3 146.2 146.6 144.7 140.5 134.8 130.9 127.1 122.8 122.2 120.9 113 108.5 99.9 95.7 94.8 94 90.3 87.7 89.1 90.8 90.5 89.6 91.2 93.9 94.3 91.8 88.8 88.6 84.4 78.8 77.6 76.6 73.9 70.8 69 71.8 70.3 62.1 55.7 50.4 43.6 37.7 32.9 30.1 26.9 24.5 20.6 18.7 15.3 8.9 5.1 6.1 16.5 26 29.1 33.5 44.2 49.8 66 83.8 93.4 96.9 94.2 90.4 86.8 82.2 77.8 73.2 64.9 59 55.3 49.9 38.6 13.8 -2.3 -2.3 -2.3 -1.5 -1 -0.6 -0.2 0.2 0.6 1 1.3 1.6 1.9 2.2 2.6 2.7 5.4 4.7 4.7 4.7
-2.3 -2.3 -2.3 -2.3 -2.3 -2.3 -2.3 -2.3 -2.3 -2.3 -2.3 -2.3 -2.3 -2.3 -2.3 -2.3 -2.3 -2.3 -2.3 -2.3 -2.3 -2.3 -2.3 -2.3 -2.3 -2.3 -2.3 -2.3 -2.3 -2.3 -2.3 -2.3 -2.3 -2.3 -2.3 -2.3 -2.3 -2.3 -2.3 -2.3 -1.3 -0.6 0 0.8 1.5 2.4 5.9 14.8 9.2 18.6 15.2 25.1 27 30.4 32.9 35.6 37.3 40 43.6 46.7 50.1 52.6 54.6 54.9 54 54.1 54.1 51.1 48.6 46.1 38.3 36.4 35.9 34.9 34.3 33.1 31.5 30.5 31.3 31.6 31.1 31.6 33.4 38.4 55.3 74 96.5 112 128.1 128.4 107.6 80 82.2 98.8 123.1 141.8 152.1 156.5 166.9 168.1 170.1 169.4 164.1 154.9 149.6 148 147.7 145.1 141.8 138.4 137.7 138.7 141 135.3 131.4 129.1 116 111.3 100.8 99 100.5 99.3 89.9 89.5 92.2 94.7 94.6 94 92.6 94.5 95.6 93.3 89.2 89 84.8 81.3 79.4 78.7 75.1 69.9 65.1 68.3 66.9 57.2 53.4 49.8 42.9 37.3 32 24.8 17 11.3 7.5 8.5 8.9 7.4 6.1 9.1 17 28.5 30.6 36.3 43.1 54.9 68.8 86 93.9 98.8 99 97 93.6 92 85.8 83.1 79.7 76.9 73.1 66.4 50.9 25.8 -2.3 -2.3 -2.3 -1.6 -1.2 -0.7 -0.3 0.1 0.4 0.7 1 1.4 1.7 2.1 2.4 2.8 3.6 4.7 4.7 4.7
-2.3 -2.3 -2.3 -2.3 -2.3 -2.3 -2.3 -2.3 -2.3 -2.3 -2.3 -2.3 -2.3 -2.3 -2.3 -2.3 -2.3 -2.3 -2.3 -2.3 -2.3 -2.3 -2.3 -2.3 -2.3 -2.3 -2.3 -2.3 -2.3 -2.3 -2.3 -2.3 -2.3 -2.3 -2.3 -2.3 -2.3 -2.3 -1.3 -0.8 -0.3 0.5 1.2 2 2.8 10.3 13.3 16.1 14.1 17.4 25.4 26.6 27.7 33.4 37.9 42 46.5 50.5 55.4 57.6 57.7 59.1 60.3 59.5 58.5 58 57.1 55.1 52.5 50.4 45 41.9 41 39.8 36.8 35.3 34.5 34.5 34.4 34.8 34.1 35.3 35.8 36.9 38.7 47.9 62.5 76.6 90.2 87.7 72.2 72.6 89.3 108.5 122 140.9 165.2 176 175.1 185.7 187.1 183.5 166 158.6 153.6 153 154.4 147.6 149.8 154.6 155.4 157.5 158.9 160.4 154.2 139.4 122.4 113.4 105.3 101.9 99.8 93.8 89.9 90.4 93.8 97.2 98.2 95.5 94.2 95.9 96.3 94.4 90.6 90 87 83.2 80.9 81.9 78.3 70.2 63.5 61.8 58.6 53.9 51 47 42.3 36.7 30.3 23.6 13.6 10.2 10 7.6 6.1 6.5 11.1 18.9 33.6 33.2 36.2 40.7 52.5 65.2 82.3 87.2 93.1 95.4 97.5 98.3 96.6 95.2 91.8 88.6 87.7 86.5 84.8 77.5 54.5 29.3 -2.3 -2.3 -2.3 -1.6 -1.2 -0.9 -0.5 -0.2 0.2 0.6 0.9 1.3 1.6 2 2.3 2.6 2.9 4.3 4.7 4.7
-2.3 -2.3 -2.3 -2.3 -2.3 -2.3 -2.3 -2.3 -2.3 -2.3 -2.3 -2.3 -2.3 -2.3 -2.3 -2.3 -2.3 -2.3 -2.3 -2.3 -2.3 -2.3 -2.3 -2.3 -2.3 -2.3 -2.3 -2.3 -2.3 -2.3 -2.3 -2.3 -2.3 -2.3 -2.3 -1.5 -1.1 -0.6 -0.2 0.2 0.8 1.5 2.3 5 11.8 8.5 11.4 16.2 18.8 20 25.1 27 32.2 39.2 43.8 47.2 50.7 57.4 65.7 86.2 81.9 64.8 64.9 64.9 63.1 62.3 61.3 59.4 57 57.8 55.1 51.7 48.3 44.4 41.2 39.3 37.8 38.4 38.6 38.1 37.6 37.9 38.8 40 41.8 43.2 44.3 48.9 57.6 62.3 67.9 82.7 104.2 124.7 139 151.1 160.7 173.2 187 196.3 192.2 188 175.3 163.8 160.7 159.7 157.6 156.5 154.4 161.5 170.6 174.5 179.9 181.8 177.2 167 149.3 122.5 110.3 104.1 98 94.5 91.9 94.2 96.9 100.1 100.3 96.6 95.2 97.1 98.1 96.5 93.8 93 89.8 86.6 82.1 81.3 81.1 70.9 63.1 56.1 51.7 49.6 46.3 44.4 40.7 34.6 22.5 9 8.9 12.9 11.7 12.2 10.9 8.8 15.8 26.7 36.7 42.5 46.9 52 63.8 75.2 85.4 90.3 92.4 93.7 97.3 98.8 98 97.4 95.8 93.3 90.7 89.1 83.8 76.4 61.4 30.7 -2.3 -2.3 -2.3 -1.8 -1.4 -1 -0.6 -0.3 0.1 0.5 0.8 1.1 1.5 1.8 2.2 2.5 2.8 2.8 4.2 4.7
-2.3 -2.3 -2.3 -2.3 -2.3 -2.3 -2.3 -2.3 -2.3 -2.3 -2.3 -2.3 -2.3 -2.3 -2.3 -2.3 -2.3 -2.3 -2.3 -2.3 -2.3 -2.3 -2.3 -2.3 -2.3 -2.3 -2.3 -2.3 -2.3 -2.3 -2.3 -2.3 -2.3 -1.5 -1 -0.5 0 0.5 1 1.3 1.8 2.6 6.9 11.1 8.9 15.1 18.1 22.1 22.6 25.8 29.7 31.3 37.1 43.8 49.6 52.5 55.5 63.1 78.3 98.8 109.4 93.2 82 72.6 71.8 69.2 66.9 64.6 63.7 65.6 66.4 60.8 54.6 50.3 46 43.4 42.3 43.4 42.9 42.1 42.1 40.8 41.9 42.9 44 46.6 48.7 51.1 57 63.6 74.3 92.6 113.6 143.2 169.7 183.9 184.8 190 191.4 204.1 200.9 194.9 189.4 168.9 164 169.4 168.1 161.4 159.9 161.7 176.3 191.3 194.7 196.8 189.7 177.1 161.1 127 116.1 107.8 103.7 98.9 97.2 97.2 100.4 103.2 102.1 98.4 97.6 98.7 99.5 99.7 99.1 98.9 104.2 96.7 83.2 77.3 76.3 69.9 62.9 50.6 45.7 44.9 42 39.7 36.2 28.2 12.6 16.9 19.2 17.9 17.3 16.4 15.4 15.8 19.2 30.6 36.2 50.7 56.7 65 77.6 85.6 91.1 94 94.5 94.1 97.1 99.4 99.4 99.3 98.6 96.3 92.1 87.1 79.7 69.9 58 28.3 -2.3 -2.3 -2.3 -1.8 -1.5 -1.1 -0.7 -0.4 0 0.3 0.7 1 1.4 1.7 2.1 2.4 2.8 3.1 4.4 4.7
-2.3 -2.3 -2.3 -2.3 -2.3 -2.3 -2.3 -2.3 -2.3 -2.3 -2.3 -2.3 -2.3 -2.3 -2.3 -2.3 -2.3 -2.3 -2.3 -2.3 -2.3 -2.3 -2.3 -2.3 -2.3 -2.3 -2.3 -2.3 -2.3 -2.3 -2.3 -1.5 -0.9 -0.5 0 0.6 1.1 1.5 2.1 2.5 2.9 11.9 10.3 13.6 19.6 22 24.1 27.5 29.5 31.5 35.4 39.4 42.1 47.5 53.5 56.7 60.1 65.2 75.5 96.5 133.2 126.7 104.6 91.4 78.1 78 79.8 78.4 82.7 86.3 85.9 78.5 65.6 59.9 53.7 50 48.2 48.6 47.8 47 46.4 46 46 46 46.5 49.8 51.9 55.4 59.5 65.9 75.8 92.7 122.4 161.6 193.6 200.4 206.4 207.3 209.3 206.5 203.4 194.4 187.4 173.2 169.4 173.5 170.4 165.2 161.4 164.5 167.9 187.8 200.8 199.5 189.1 172.5 156.6 124.7 116.4 109.4 110 105.7 99.9 100.6 103.7 106.2 103.3 100.3 101.2 102.8 104.8 110.7 117.3 124.7 115.7 106.2 89.3 75.6 66.4 63.6 60.5 47.6 39.7 39.8 35.8 34.8 31 19.8 13.8 22 23.3 21.3 21.1 21.7 21 18.1 22.5 28.2 42 50.5 68 73.8 89.1 95.6 99.1 98.7 97.9 96.2 97.6 100.3 99.2 98.9 100.3 97.2 89.1 82 71.7 60.8 55.8 22.9 -2.3 -2.3 -2.3 -1.9 -1.5 -1.2 -0.8 -0.5 -0.1 0.2 0.6 0.9 1.3 1.6 1.9 2.3 2.7 2.8 3.2 4.3
-2.3 -2.3 -2.3 -2.3 -2.3 -2.3 -2.3 -2.3 -2.3 -2.3 -2.3 -2.3 -2.3 -2.3 -2.3 -2.3 -2.3 -2.3 -2.3 -2.3 -2.3 -2.3 -2.3 -2.3 -2.3 -2.3 -2.3 -2.3 -1.7 -1.5 -0.9 -0.5 0 0.5 1 1.6 2.1 2.6 4.5 7.1 12.4 8.5 16 21.6 26.3 28.9 31.7 34.7 35.7 38.4 41.6 45.3 48.3 53.6 59.4 63.8 66.4 70.4 78.3 94.1 126 146.2 127.6 111.7 100.6 94 96.3 100.2 108.8 111.1 107.4 96.2 83.4 77 64.3 59.2 57.2 57 54.3 52.4 52.8 51.3 50.6 49.6 49.4 52.7 54.8 56.1 61.2 69.8 79.9 99.4 127.7 156.3 196.8 209.8 219.7 216.7 217 217.5 208.8 203.8 195.1 189.4 185.3 181 172.2 166.5 162.1 162.4 167.3 169.6 192.1 193.1 185.5 173.9 140.9 124.4 117.2 114.4 117 110.7 104.5 105.8 109.3 109.4 105.2 106.7 104.8 106.6 116.5 127.5 127.9 125.3 122.6 116.6 99.9 81.6 70.5 57.8 50.2 40.9 34.8 33.2 31.6 30.3 25.6 15.7 14.3 26.8 27.5 25.8 27.4 28.4 27.3 23.5 27 34.2 43.3 54.4 67.6 79.8 99.9 102.7 103.6 106.2 103.5 98.1 96.8 100.6 99.2 98.5 100 95.5 87.4 75.3 64.9 57 45.9 19.3 -2.3 -2.3 -2.3 -2 -1.7 -1.3 -1 -0.6 -0.3 0.1 0.4 0.8 1.1 1.5 1.9 2.2 2.6 2.7 2.8 3.5
-2.3 -2.3 -2.3 -2.3 -2.3 -2.3 -2.3 -2.3 -2.3 -2.3 -2.3 -2.3 -2.3 -2.3 -2.3 -2.3 -2.3 -2.3 -2.3 -2.3 -2.3 -2.3 -2.3 -2.3 -2.3 -2.3 -1.5 -1.1 -0.7 -0.5 -0.1 0.4 0.8 1.5 2 2.6 4.8 6.2 11.3 10.4 9 23.1 24.5 28 33.7 36.5 38.8 39.3 42.9 44.1 47 50.6 55.3 58.9 65.3 72.2 71.1 74.1 80.6 99.8 125.4 146.5 143.3 131.3 123.6 118.7 117.5 123.8 133.1 134.2 128.9 112.6 98 90.3 85.1 67.9 66.9 66 63.1 60.9 60.4 58.8 57.3 54.6 53.4 54.3 55.6 59.5 61.6 74.4 86.1 101.8 130.2 157.3 185.9 209.9 225.8 222 218.9 223 215.9 209.2 205.1 206.4 206.4 192.1 176 168.8 163 161.3 163.1 168.5 170.3 186.3 181.6 167.6 141.1 127.7 121.4 116.9 120.5 113.6 108.9 111 113.2 110.2 106.6 113.9 109 108.5 129.9 140.5 131 116.8 115.8 118.4 110.6 91.2 81 65.3 51.8 39 31.8 29.4 31.5 26.8 23.1 14.7 17.2 31.7 32.6 32.6 35.1 36.3 31.5 26.7 31.2 40.2 49.7 58 67 86 97.4 105 107.5 112.5 111.1 100.4 98.5 98.8 98.6 98.9 99.4 94.8 85.1 72.2 60.1 53 41.1 18.1 -2.3 -2.3 -2.3 -2.1 -1.8 -1.4 -1.1 -0.7 -0.4 0 0.3 0.7 1.1 1.4 1.8 2.1 2.4 2.6 2.8 2.8
-2.3 -2.3 -2.3 -2.3 -2.3 -2.3 -2.3 -2.3 -2.3 -2.3 -2.3 -2.3 -2.3 -2.3 -2.3 -2.3 -2.3 -2.3 -2.3 -2.3 -2.3 -2.3 -2.3 -2.3 -2.3 -1.3 -0.6 -0.1 0.2 0.5 0.9 1.3 1.8 2.3 3.8 6.3 8.7 11.6 8.5 10.5 22.3 25.8 28.7 33.8 37.4 41.8 43.8 46.1 48.2 50 51.7 54.3 61.2 66.5 70.1 78 79.1 82.6 91.7 112.9 137.6 162.2 159 152.6 149.5 145.1 144.2 150.4 155.8 153.5 147.6 132.4 116.6 109.9 108.8 100.1 80.9 73.6 71.2 70.6 69 67.8 67.5 67.4 65.3 63.7 65.6 64.7 64.4 77.6 91.1 103.8 129.9 159.5 184.9 209.4 228.4 224.7 225.3 221.2 219 216 223.1 234.8 232.4 216.9 191.1 174 166.2 161.7 161.3 163.4 165.2 178.1 178.2 166.5 154.3 128.5 121.1 121 123.4 116.8 114.7 115.1 114.5 110.7 107.4 120.3 120.9 110.1 116.4 135.1 129.9 116.1 110.4 115.5 110.6 93.6 83.1 72.4 53 38.8 30.6 27.5 26.5 24.1 23.3 14.2 31 40.1 42 41.7 45.2 48.3 35.5 29.5 38 47.6 57.4 60.7 75.4 96.9 99.2 102.5 110 116 114.6 104.7 99 97.3 96.9 96.3 96.4 93.4 84.3 72.3 60.6 45.4 29.8 18.1 2.4 -2.3 -2.3 -2.3 -1.9 -1.5 -1.2 -0.8 -0.5 -0.1 0.3 0.6 0.9 1.3 1.6 1.9 2.1 2.2 2.2 2.4
-2.3 -2.3 -2.3 -2.3 -2.3 -2.3 -2.3 -2.3 -2.3 -2.3 -2.3 -2.3 -2.3 -2.3 -2.3 -2.3 -2.3 -2.3 -2.3 -2.3 -2.3 -2.3 -1.5 -1.1 -0.7 -0.3 0.2 0.8 1.2 1.5 1.9 2.3 2.7 5.8 9.6 10.1 7.9 6 7.1 10.9 19.8 29.1 36.2 38.2 41.3 45.4 48.5 51.6 54 55.6 56.8 59.4 64.5 70.9 76.4 82.3 85 93.2 105.7 125.9 151.4 177.8 184 178.9 172 171.2 170.5 176 176.3 170.6 167.5 159.7 144.2 129.4 122.7 116.1 106.6 92.3 82.5 79.3 80.5 78.8 76.4 81 82.5 80.1 73.7 70.6 71.2 76.5 100.9 116.7 133.2 156.1 183.3 213.7 235.7 236.1 232.9 225.4 224.8 233 234.6 246.5 246.7 232.6 210.5 190.9 180.3 175.9 162.8 161.3 161.3 164.7 166.7 163.4 151.4 133 123.3 130.1 126.9 120.4 117.8 116.1 113.6 109.7 109.6 115.3 132.7 115.2 114.7 119.7 119.1 113.8 107.7 105.4 111.2 93.5 78.8 67.8 54.1 37.2 30.2 26.5 28.1 22.7 14.3 25.1 40.6 49.3 51.3 49.9 51.9 47.8 34.9 37.3 45.6 55.4 69.5 67.6 85.8 107.4 111.8 109.6 108.5 112.7 111.9 108.9 100.3 96.2 94.7 94.8 95 91 86.5 74.4 62.3 51.1 36.5 25.8 6.5 -2.3 -2.3 -2.3 -2 -1.6 -1.3 -0.9 -0.6 -0.2 0.1 0.5 0.8 1 1.3 1.6 1.7 1.7 1.7 1.9
-2.3 -2.3 -2.3 -2.3 -2.3 -2.3 -2.3 -2.3 -2.3 -2.3 -2.3 -2.3 -2.3 -2.3 -2.3 -2.3 -2.3 -2.3 -2.3 -2.3 -1 -0.6 -0.4 0 0.4 0.8 1.2 1.7 2.1 2.5 3.2 6.1 8.1 8.8 6.9 12.5 8.5 7.5 8.1 13.7 20.4 30.2 40.4 44.4 47.1 52 53.5 56.3 60 60.7 62.4 66.8 69.8 77.6 83.9 88.8 93.7 104.4 119 143.2 169 195.7 206.7 209.5 200 196.4 198.1 203.3 205.5 199.5 188.7 182.5 170.7 161.1 146.6 135.4 127.3 117.5 101.7 95.6 94.6 92.2 88.6 94.9 105.1 110.1 109.4 99 75.1 84.2 112.1 139.6 155.7 168.3 181.3 211 243.4 244.2 240.4 236.1 231.3 233.9 239.7 244 246.7 237.7 230.9 214.7 195.5 187.7 179.2 166.6 164.1 164.8 167 166.9 158.6 137.2 124.7 131.9 128.1 122.2 118.4 114.8 111.5 110.2 112.3 117.6 122.2 123.5 117.6 118.7 123.9 113.9 104.8 98.9 98.7 95.4 75.2 60.5 47.1 38.2 30.3 25.5 23.4 18.6 17.3 31.2 46.4 56.4 59.4 54.7 51.2 46.8 44.4 47.2 54.3 65.7 79.1 76.4 88 104.8 115.7 112.9 110.3 110.2 112.4 111.8 103.5 95.3 92.2 93.4 93 90.9 87.8 78.2 63.9 54.8 43.2 31.4 12.1 -2.3 -2.3 -2.3 -2.1 -1.7 -1.4 -1.1 -0.7 -0.4 -0.1 0.2 0.5 0.8 1.1 1.2 1.2 1.2 1.2 1.3
-2.3 -2.3 -2.3 -2.3 -2.3 -2.3 -2.3 -2.3 -2.3 -2.3 -2.3 -2.3 -2.3 -2.3 -2.3 -2.3 -2.3 -1.2 -0.8 -0.3 0.4 0.7 0.9 1.1 1.5 1.9 2.3 2.7 4.7 5.2 7.8 7.3 7.5 11.3 20.8 24.6 21.6 14.5 11.7 16.6 25.5 31.2 40.1 47.3 54.1 59 61.1 62.6 65.3 68.8 75.8 87 87.3 89.8 90.8 94.3 101.8 119.5 134.6 158.7 185.7 215.3 238.4 239.9 231.7 224.4 225.4 234.2 238.3 234 219.2 205.8 200 193.8 172.3 158.5 149.9 138.2 126.5 112.6 109.1 102.6 98.7 113.5 126.4 137.7 129.9 98.9 80.7 101.5 128.7 158.9 182.4 193.9 206.2 211 234.8 252.1 251.6 244.6 240.7 236.5 239.4 238.9 241 246.5 243 227.5 209 191.7 182.7 176.9 175.3 174.9 170.3 177.6 165.1 147.7 126.8 127.2 129.3 122.2 117.5 113.6 109.4 111 113.6 119.7 119.6 119.6 123.3 119 121.4 112.4 103.1 91.2 84.8 88.1 67.9 53.3 45.2 36 29.2 23.1 21.1 15.4 25.7 42.1 53.3 58.5 60.1 55.1 50.4 50.3 52 55.7 62.7 76.3 91.4 90 84.6 95.9 114.8 113.6 111.8 114.3 113.2 112.1 105.5 95.3 89.6 92.1 91.4 91.3 88.3 76.1 65.2 55.8 44.7 34.4 18.9 2.8 -2.3 -2.3 -2.3 -1.9 -1.5 -1.2 -0.9 -0.6 -0.3 -0.1 0.2 0.5 0.7 0.8 0.8 0.7 0.7 0.8
-2.3 -2.3 -2.3 -2.3 -2.3 -2.3 -2.3 -2.3 -2.3 -2.3 -2.3 -1.5 -1.2 -1 -0.7 -0.4 -0.2 0.2 0.6 1.1 1.7 2.1 2.2 2.3 2.6 3.7 5.8 9 8.5 8.9 8.4 13.4 18 23.1 25 26.8 28.6 23.2 23.5 22.9 27.8 32.3 39.8 49.1 58.4 63.7 67.2 67.1 70.1 74.8 77.3 89.9 99.5 109.2 107.2 104.9 113.6 129.4 149.8 172.8 199.1 228.9 256.4 273.6 264.1 257 253.8 265.2 267 256.5 246.1 232.6 219.9 214.6 199 182.6 175 165.3 147.4 134.3 127.4 116.9 121.4 135.7 138.1 148 134.6 93.4 87.6 115.6 142.2 177.1 204.5 220.9 232.2 238.3 240.8 250.9 255.4 255.3 252.6 252.4 249.4 245 249 253 247.9 233.5 219.5 200.6 189.2 186.6 182.5 179.8 174.1 175.9 171.2 151.6 130.4 125.8 126.7 121.6 116.6 112.8 110.3 111.3 115.3 121.9 118.5 117.7 123 121.6 120.3 107.5 99.2 84.4 71.9 65.9 62.8 47.4 37.6 32.8 25.3 21.2 17.6 18.3 32.7 52.3 58.7 58.9 56.6 54.4 54.1 55.5 58.9 63.4 70.7 84.5 99.7 99.8 88.1 94.7 103.8 111.3 112.2 114.9 115 111.8 105.7 97.5 88.3 89 88.1 87.2 84 73.6 65.4 55 48.2 38.8 25.8 10.1 -2.3 -2.3 -2.3 -2.1 -1.8 -1.5 -1.2 -0.9 -0.6 -0.3 0 0.1 0.2 0.3 0.3 0.2 0.2 0.3
-2.3 -2.3 -2.3 -2.3 -2.3 -2.3 -1.3 -1.1 -0.8 -0.5 -0.3 -0.1 0.2 0.4 0.8 1.1 1.2 1.6 2 2.4 5.2 9.8 5 5.8 9.9 9.4 9.1 9.5 12.2 18.7 23.1 23.6 26.3 28.1 31.8 34.3 35.6 32.9 30 27 31 33.9 42.4 49.7 57.3 66.3 70.4 74.5 77 79.7 81.7 89.4 101.4 111.4 117.2 122.4 131.7 148.8 166.7 186.6 216 245.8 274.7 297.2 298.7 291.2 284.3 287.1 286.1 279.1 266 257.3 244.1 234 224.6 209.4 195.9 185.8 172.9 159.6 149 130 147.4 156.8 155.5 148.2 129.1 94.8 87.2 116.2 146.4 177.7 202.2 228.9 252.5 256.5 251 251.2 254.5 259.1 259.9 258.2 257.9 262.4 258.5 258.2 249.7 235.9 227.9 209.4 200.6 195.8 191.6 192.6 183 173.5 157 140.2 131.9 125.8 123.7 120.2 116.2 113.8 111.3 112 116.9 120.6 122.6 116.8 117.1 116.3 120 108.3 90.9 78.1 64.9 54.4 48.4 44 31.2 24.1 19.3 16.2 17.9 24.4 42.5 61.2 61.6 57.6 56.1 55.9 57.2 61.4 65.5 70.5 83.8 93.7 104.9 106.5 95.4 99.6 106.6 111.6 114.9 116.9 118.4 112.4 105 96.9 89.2 86.5 85.4 82.1 78.2 73 64.9 57.3 49.9 40.1 27 11.1 2.2 -2.3 -2.3 -2.3 -2 -1.7 -1.4 -1.2 -0.9 -0.6 -0.4 -0.3 -0.2 -0.2 -0.2 -0.2 -0.3 -0.3
-2.3 -1 -0.6 -0.3 -0.1 0.2 0.4 0.4 0.6 0.9 1.1 1.3 1.5 1.8 2.2 2.6 2.7 4.7 9.2 9 9.9 10.3 10.5 10.7 11.8 17.1 20.4 24.3 26.3 27 28.3 32.2 32.2 35 36.9 39.2 39 37.1 34.5 33 34.8 38.1 44 51 59.1 67.2 73.6 78.1 81.9 84.4 88 92.5 102.6 111.2 121.9 134.9 148 162.1 179.8 202.5 231 261.8 291.6 318.2 328.2 322.6 308.3 305.8 302.4 297.6 287.7 280.5 271.7 259 243.1 229.1 209.9 205.6 197.5 179.2 161 152.8 160.7 166.5 170.4 157.8 130.1 98 93.1 111.8 137.6 167.7 197.7 228.2 260.9 265.1 261.1 261.8 265.5 258.7 263 266.6 262.7 263.4 259.9 253.5 243.9 228.9 217.5 216.6 213 206.8 200.1 195.6 190.8 181 159.3 141.1 130.9 128.1 125.6 120.3 115.9 114.1 111.5 111.6 117.8 119.5 116.8 116.9 111.5 105.3 111.4 100.2 81.7 68.2 58.8 49.6 41.2 34 25.7 20.5 16.5 19.3 22.8 27.2 50.5 59.2 57.1 57.4 56.9 56.8 59.4 65 68.9 77.4 90.9 105.9 107 110.8 101 104.2 111.8 117 119.5 121.4 120.1 112.5 103.7 95.9 89.9 86.5 83.2 79.1 75.3 70.9 64.8 56.3 49.1 40.1 24.3 13.3 4.2 -2.3 -2.3 -2.3 -2.3 -2 -1.7 -1.4 -1.1 -0.9 -0.8 -0.7 -0.6 -0.6 -0.7 -0.7 -0.8 -0.8
0.7 1.2 1.4 1.7 1.9 2 2.1 2 2 2.4 2.5 2.6 6.5 7.7 9.1 16.3 19.3 16 13.8 12.1 11.8 18.5 23.9 24 28.6 26.2 27.8 32.3 34 35.8 36.9 37.8 39.4 40.5 40.8 42.2 41.2 42.1 37.4 38 39.8 43.2 46.5 52.7 58.7 67.9 74.5 80.8 85.6 89.5 92.4 96.5 102.4 110.6 127.7 144.5 159 174.2 194.3 220.2 249.4 279.2 311.8 332 344 343.6 330 319.4 312.9 304.4 298.2 291.6 280.7 266.9 252 239.2 231.1 218.3 196.5 174.1 168.4 179.1 182.5 179.8 174.4 162.7 132.4 103.2 100.2 109.7 133.5 163.7 193.8 228.9 254.6 267.5 267.7 270.3 267.3 264.8 264.9 270 270.7 260.3 251.9 243.2 232.1 227 234.1 236.5 231.3 213 207.8 201.6 197 189.7 168.1 146.9 131.9 129.7 131.7 123.7 116.5 113.2 111.1 109.9 115.2 121.6 116.3 114 111 101.5 93.8 88.7 71.6 61 51.8 42.8 37.1 29.4 21.6 18 18.4 20.7 26.6 32 49.2 52.2 54.8 56.1 57.1 58.1 62.5 68.5 73.4 79.1 94.3 102.4 109 109.4 101.5 107.1 115.1 121 123.3 124.8 120.6 111.5 102.5 95.9 90.5 85.8 82 78.4 74.2 67.8 61.7 55.2 50.2 39.9 28.6 17.5 7.1 -2.3 -2.3 -2.3 -2.3 -2.3 -2 -1.7 -1.4 -1.3 -1.2 -1.1 -1.1 -1.1 -1.1 -1.2 -1.3 -1.3
5.1 35.1 27 25.8 31 29.6 26.5 22 17.7 14.1 9.8 9.5 10.1 10.7 10.3 11.2 14.7 22.5 28 30.8 29.3 28.5 29.4 30.7 31.3 32.4 35.6 39.6 41.2 43.6 44.3 44.7 45 47.3 48.7 49.2 50.5 48.4 44.5 43.8 46.4 49.1 52 57.8 60.9 70.1 78.6 84.2 88.6 93.4 97.1 101.6 107.3 114.8 134.9 156.2 176 191.3 207.7 233.1 266.6 302 330.2 346.7 351.3 349.4 340.2 324.9 309.6 303 293.8 287.9 280.3 269.9 257.8 243.1 229.9 213.8 202.3 196.1 194.1 200.9 202.7 198.6 190 172.8 138.4 108.6 106.1 108.5 139 167.4 198.1 231.7 264.1 269.1 270.5 275.3 276.4 273.7 269.9 272.2 271.5 267.2 254.6 247.8 239.7 238.9 241.6 249.2 241.7 218.2 214.5 205.6 197.2 186.7 171.1 152.6 135.2 129.7 128.5 128.6 118.2 113.8 110.6 108.4 110.8 115.7 115.4 108 102.5 96.6 90.1 71.2 63.1 56 45.7 35.7 30.5 25.5 21.1 17.4 19.1 22.3 29 36.4 45.3 50.7 56.5 57.2 57.8 60.8 67 74.5 81.4 82.2 91.7 100 105.3 110.1 103.2 107.5 115.7 122.4 124.5 124.1 118.1 108.4 100.4 94.9 90.8 87.2 82.2 77.4 74.2 69.6 62 56.6 55.1 46.3 34.3 20.5 7.6 -2.3 -2.3 -2.3 -2.3 -2.3 -2.2 -1.9 -1.8 -1.7 -1.6 -1.6 -1.5 -1.6 -1.6 -1.7 -1.7 -1.8
72 79.9 70.8 73 70.3 63.2 60.8 51.5 41.5 35.4 33.1 32.6 31.4 30.1 34.4 36.9 36.5 35.3 36.6 36 38 36.5 38.3 41.4 40.9 41.8 44.3 43.8 47.8 50.7 51.3 51.9 53.4 53.5 53.7 52.6 54.9 55.8 54.6 50.3 52.1 57.1 62.6 65.8 68.1 72.7 80.9 90.2 96.3 98.7 103 107.1 113.7 125.6 145.4 165.8 186.4 206.1 219.6 241 276.4 308 334.4 351.2 358.7 353.8 341.7 325 305.6 296.8 289.8 281.2 275.8 267.8 257.8 248.1 229.2 218.7 213.2 217.5 215.6 210.2 208.5 204.4 200.6 185.9 155.2 125 108.6 120.2 145.1 175 209.5 244.3 266.4 270.6 271 277.3 283.3 281.7 279.6 273 271.9 266.2 256.6 246.9 246 246.6 241.7 236.9 234.5 226.1 213 200.7 191.2 177.7 168 160.9 148.3 131.9 128.3 124.8 121.2 114.8 110.6 105.5 103 103.2 96.7 101.6 87.8 83.1 72.1 65.9 59.1 51.7 44.1 38 27.9 24.2 20.7 18.5 19.4 23.9 34.8 39.8 45.5 50.7 58.5 59.6 60.9 65 72.4 82 89.8 84.6 87.1 98.2 105.6 103.5 102.9 107.8 115.5 121 122.8 121.3 113.9 105.4 98.9 93.4 90.1 89.9 83.8 78.8 74.3 69.3 61.2 56.5 57.5 51.4 35.9 24.7 9 -2.3 -2.3 -2.3 -2.3 -2.3 -2.3 -2.3 -2.2 -2.1 -2.1 -2 -2 -2 -2.1 -2.2 -2.2 -2.3
118.9 115.8 107.5 106.1 103 98.7 97.2 90.4 82.3 72.6 60.3 52.4 45.3 40.4 47.6 48.4 47.8 48.4 48.1 47.5 47.9 46.8 47.2 47 47.5 49.3 50.6 52.4 55.7 58.3 59 59.7 60.8 60.4 59.7 58.4 60.6 62.5 62.2 60.6 60.4 63.6 68.3 73.3 77.2 79.5 85.7 94.5 100.1 110.6 112.8 113.6 117.1 130.1 164.9 185.3 200 213 221.5 243 270.1 301.4 325.9 343.6 349.5 349.5 334.8 321.7 301.3 292.5 284.6 278.7 272.7 266.2 256.3 244.2 231.2 222 217.4 219.1 218.6 214.1 211.6 203.9 194.7 182.1 165.8 133.4 118.3 139.4 166.4 182.1 215.7 246.2 263.5 269.5 274.9 276.8 285.1 284.9 281.2 278.9 273.9 265.1 253.9 246.5 241.5 234.4 233.7 227.4 220.1 211.8 201.9 191.6 186.2 179.2 181.3 170.2 156.1 145.6 130.4 124.8 122.9 116.9 111.6 105.9 99.6 92.9 87.7 81.5 77.6 69.4 62.9 57.2 51.2 49.6 50.8 35.7 27.4 24 22.8 20.5 19.5 24.7 30.9 38.7 47.2 53.5 62.7 62 64.6 68.9 76.1 86.6 93 86.9 86.5 95.4 104.5 104.4 103.5 107.4 114 117.8 118.5 116.3 108.7 102.4 96.1 91.1 90 91.2 84.5 79.8 76.3 69.5 60.1 55 59.8 52.6 36.9 25.4 10.2 -2.3 -2.3 -2.3 -2.3 -2.3 -2.3 -2.3 -2.3 -2.3 -2.3 -2.3 -2.3 -2.3 -2.3 -2.3 -2.3 -2.3
157.5 144.4 140.2 138.2 138.5 137 135.4 125.3 120.6 104.9 96.1 86.5 78.3 58.4 65.2 60.3 60.3 58.8 58.9 58.1 56.5 56.4 57.5 55.4 57.8 58.4 59.1 60.1 63 66 67.6 67 66.8 65.9 65.3 65 66 67.3 68.1 68.4 67.9 68.9 73.8 79.7 83.6 86.5 91.4 95.4 103.3 114 124.9 124.1 125.5 138 172.2 200.8 213.7 215.3 216.3 233.8 255.9 287.8 313.3 332.3 340.5 339.9 330.3 311.5 300.6 288.9 282.2 275.6 268.9 261.4 251.7 240.2 228.8 223 221.5 221.2 221.2 215 210.4 201.6 185 160.5 136.6 123.9 138 161.1 187.6 201.2 224.9 245.7 260 269.1 277.4 280.7 286.9 285.3 282.4 280.2 274.6 268.4 253.3 242.4 235.4 231.5 225.4 220.5 210.4 202.6 192.2 189.6 186 184.9 181.7 168.4 158.7 147.9 135.2 125.2 121.5 116.8 111.2 105.2 97.9 90.6 82.8 73.4 68.2 64.7 63.8 64.3 63.1 58.5 55.4 41.7 29 25.6 24.3 23.6 19 22.3 28.7 44.6 49 54.3 63.4 64.2 64.1 71 77 89.8 92.2 86.8 87 94.3 105.2 107.5 107 107.4 111.3 113.9 113 109.8 104.6 99.6 95.4 90.9 89 90.4 86 80.2 74.8 67.8 57.9 52.1 53.8 52.8 41 26.6 11.9 -2.3 -2.3 -2.3 -2.3 -2.3 -2.3 -2.3 -2.3 -2.3 -2.3 -2.3 -2.3 -2.3 -2.3 -2.3 -2.3 -2.3
185 182.7 175.7 170.3 163.9 159.4 154.5 147.7 142.6 139.5 136.1 122.1 115.5 92.9 98.9 89.2 72.5 69.5 67.8 67.1 66.3 65.4 65.4 64.6 64.2 64.3 65.1 67.6 70.1 74.6 74 72.1 71 71.2 72 72.6 72.8 74.4 75.1 75.2 74.6 74.5 80.3 85.1 89 92.9 94.2 100.7 105.1 114.7 125.8 134.5 136.6 140.6 165.2 184.3 203.7 206.7 207.9 225.1 243.5 268.6 293.1 316 329.3 328.3 322.4 309.3 301.1 290.3 279.9 271.4 264.6 257.2 248.3 237.6 231.1 226.6 224.4 223.2 220.8 217 210.2 200.3 180.5 146.3 134.1 154.4 170 178.5 202.9 220.2 233.4 248.2 260.4 273.8 279 286.1 285.8 285 283.9 282.6 275.5 266.8 256.1 242.3 229.6 221.9 216.9 213.4 206.5 195.9 190.4 185.8 182.8 181.1 174.4 165.2 159.9 150.2 136.8 124.1 118.3 114.4 109.4 103.4 97.2 90.7 82.9 76.4 66.9 68.8 73 70.1 63.1 55.6 49.9 38.8 31.1 26.8 25.3 24.6 22 20 26.5 51.6 50.4 55.4 63.7 65.6 65 70 79.3 92.2 90 88.6 90 99.1 107.9 113.6 111.1 109.8 110.7 111.4 109.5 106.1 101.8 98.4 96.5 91.6 89.1 91.1 86.6 79 70.5 61.3 53.5 48.6 47 42.9 38 27 12.4 4 -2.3 -2.3 -2.3 -2.3 -2.3 -2.3 -2.3 -2.3 -2.3 -2.3 -2.3 -2.3 -2.3 -2.3 -2.3 -2.3
220 218.1 215.7 204.5 198.5 196 192.1 180 168.7 162 145.1 142 140.2 118.2 125.8 105.1 84.3 82.1 81.3 79.9 76.3 76.1 75.2 73.7 72.3 71.5 72.6 76.5 81.5 81.3 85 82.9 78.5 77.8 79.1 81.4 81.1 81.8 82.2 81.9 81.9 82.3 85.6 89.7 92.8 96.4 100.8 104 108.4 115 124 134.5 141.1 147.1 154.5 166 182.9 189.4 197 217.9 237 254.6 276.1 295.7 312.5 323.2 318 311 301.9 292.7 281.6 270.6 261.4 253.2 246.8 241.5 238.1 235.8 232.1 228.8 225.3 221.8 215.6 205.4 177.8 143.8 169.3 169.4 197 199.6 213.3 224.4 239.2 250.7 263.1 277 283.8 287.5 291.7 290.6 286.6 283.2 275.4 265.3 256 244.4 233 223.2 215.1 208.4 203.1 195.3 189.7 184 178.5 169.6 164.1 160 153.1 146 133 121.4 114.9 110.7 106 100.6 94.8 88.2 81 77.1 70.8 72.2 74 69.5 63.7 55.2 48.4 40.4 33.7 28.7 25.5 25.4 25.4 19.5 25.1 45.5 50.6 53.3 61.6 62.6 66.1 69.6 78.6 90.3 90.9 91.3 88.4 100.2 111.5 116.2 116.2 113.6 112 110.9 108.5 106.5 104.3 101.2 98.7 92.1 89.2 93.6 83 77.4 67.3 56.1 49.1 44.9 44.6 39.1 31.3 23.6 14.4 9 6 3.6 1.7 -2.3 -2.3 -2.3 -2.3 -2.3 -2.3 -2.3 -2.3 -2.3 -2.3 -2.3 -2.3 -2.3
267.9 267.9 251.7 241.4 233.5 231.6 226.1 214.3 203.2 188.2 163 144.3 141.7 143.3 137 105.4 95.5 92.1 90.9 89.8 87.5 86 84.9 82.6 80.8 79 83.1 86.8 89.8 92 95.2 93.4 93.1 90.9 93 91 90.6 89.9 89.3 89.6 89.3 89.1 90.2 94.3 97.1 101.7 105 109.3 116.8 118.6 124.1 131.9 139.9 148 156.1 165.1 173.9 182.4 192 206.5 224.6 246.3 263.6 286 311.5 317.5 316.9 311.4 303.1 295.5 285.1 274.3 264.4 256 248.8 244.9 243.2 241.5 237.5 234 230.2 226.2 218.8 207 176.7 154.5 197 199.1 203.1 222.4 220.3 230.1 246 256.3 270 280.8 291.7 296.2 293.6 291.3 286.7 278 272.8 264.5 253.1 244.7 236.7 228.8 220.7 211.9 207 197.7 189.8 183.6 176.3 167.5 160.6 154 147.2 136.2 123.9 116.8 111.3 105.9 102.5 99.7 94.4 89.5 84.3 76.7 71.6 70.8 69.1 67.6 65.6 58.3 53.1 47.4 38.6 29.5 26.9 26.7 25.7 20.4 24.2 35.9 48.4 50.8 55.6 58 64.9 70.3 77.9 87.4 91.7 90.2 90 99.4 111.3 120.9 120.3 119.9 117 115.3 112 109.3 107.5 104.2 99.9 92.5 85.6 87.7 79.2 71.2 62.6 51.9 43.7 40.3 38.4 32.1 26.2 19.9 16.3 12.8 10.5 8.9 9.9 -2.3 -2.3 -2.3 -2.3 -2.3 -2.3 -2.3 -2.3 -2.3 -2.3 -2.3 -2.3 -2.3
291.9 290.1 291.1 278.6 269.9 270 268.1 252.4 234.5 217.2 196.3 150.9 144.7 145.4 137.3 118.8 110.1 107.6 103.9 102.2 96.7 96.1 94.5 88.9 85.7 88.6 91.7 98.3 99.3 104.2 108.2 107.5 103.6 101.7 100.5 99.6 99.5 99.3 98.6 97.9 98.4 96.6 97.6 99.1 103.6 107.5 111 115.7 120.4 123.1 127.8 133.9 142.1 148.7 157.4 166.7 173.2 182.1 191.5 201.4 213.1 231.6 253.9 275.6 303.8 317.1 315.4 310.7 305.1 298.1 289.8 277.2 268.7 260.1 253 247.1 245 242.1 242.2 236.1 230 224.4 212.1 187.4 157.7 178.8 204.1 216 218.8 227.6 232.2 243 251.1 262 271.7 285.4 294.2 297 293.9 286.8 281.9 273.5 266.4 261.3 254.9 246.8 238.7 231.7 225.3 218.3 211.5 201.8 191.2 179.8 171.5 164.5 157.3 148.4 142.3 132.7 123.7 114 106 102 98.6 95.9 92.7 89.2 82.9 74 70.6 68.4 63.7 60.7 61.5 55.8 49.4 44.5 37.6 29.7 29.1 29.8 27 20.6 21.7 32.7 47.4 48 50.4 55.2 61.6 68.7 79.4 89.4 90 96 93.6 97.4 105.2 117.3 122.2 123.7 124 121.9 117.2 113.5 110.8 107.9 102.1 91.8 81.9 80 78 67 60.1 47 40 34.9 29.9 25 21.6 16.8 15.2 12.6 11.4 10 9.2 5.8 -2.3 -2.3 -2.3 -2.3 -2.3 -2.3 -2.3 -2.3 -2.3 -2.3 -2.3 -2.3
292.8 293 331.8 320.4 307.8 309.8 305 285.1 265.3 251.8 220.7 183 164 171.6 159.4 141.7 125.9 120 115.9 113.9 112.3 106.9 103.8 103.7 105.8 107.1 116.9 114 118.1 120 120.6 119.4 118.2 114.1 111.3 109.3 108.3 107.7 106.8 106.8 105.4 104.1 103.9 104.6 109.1 113.6 117.7 124.2 126.2 131.6 133.5 139.2 147.7 153.1 163.7 172.1 176.8 182.8 190.6 203.6 213.8 225.6 244.4 266 285.4 298.4 302.8 302.6 302 297.1 291.1 283.8 272.5 265 256.8 250.4 245.3 241.6 238.7 233.6 226.6 221.3 215.3 197.6 171 202.1 222.8 226.6 229.7 229.9 235.1 242.4 255 264.1 269.8 274.5 285.8 288 286.9 282.5 275.2 268.3 263.2 259.3 253.2 247.2 241.2 235 229.2 223 214.2 203.8 194.2 181.4 167.9 159.2 153.3 147.6 140.5 131.6 120.6 111.2 104.3 100.2 97.8 94 91.9 89.3 80.5 71.6 70.2 66.1 59.9 53.8 49.7 46.4 41.6 38.1 34.5 30 31.2 30.8 28.7 23.4 20.1 30.8 38.7 45.1 49.7 54.8 61.8 69 81.7 90.9 99 101.6 100.3 99.2 104.9 111 121.8 125.1 128.3 127.4 121.6 117.8 113.5 110.5 103.7 91.7 78.1 74.1 70.8 62.2 54.1 43.4 35.3 28.5 24.7 21 15.8 13.4 11.8 10.5 9.3 8.1 6.2 2.2 -2.3 -2.3 -2.3 -2.3 -2.3 -2.3 -2.3 -2.3 -2.3 -2.3 -2.3 -0.3
315 320.7 339.3 356.8 354.1 352.7 348.3 323.4 300.1 276.3 261.8 237 212.9 200.3 181.1 160 146.6 138.4 129 127.4 122.3 125.5 116.4 119.4 131.3 130.7 134.5 138 143.9 142.9 137 136.2 133 131.3 130.8 131.4 125.7 118.7 114.3 113.7 114.2 113.6 111.5 111.3 113.7 117.7 121.8 123.5 129.5 135.2 138 144.1 151 160.4 168.4 176.6 183.1 188 193.6 217.1 239.6 249.1 254.3 258.4 266.9 280.4 292.6 299.7 296.6 294 288.5 283 278.2 268.5 260.5 253.5 246.4 242.5 238 233.4 227.4 221.8 218.2 192.3 201.9 220.3 233 237.7 241.4 240.1 240.3 241.9 246 256.4 256 260.6 278.1 280.7 279.1 274.9 270.9 264.7 259.2 254.8 250.5 245.5 240 235.8 229.8 222.6 213.5 203.1 192 180.7 171.3 159.1 152.7 146.7 141.7 134.2 124.4 114.4 105.1 97.6 93.8 90.4 87.2 83.8 76.7 72.5 69.8 62.5 56.4 48.4 43 38.5 34.3 32.6 30.3 30.4 31.5 29.9 28.2 22.3 22.7 30.2 35.6 42.8 50.1 56.2 63.1 69.7 83.8 93.8 103.4 106.9 107.3 104.8 105.5 109.2 115.8 125 128 127.3 124.1 120.4 114.1 111.3 99.7 88.4 73.8 66.9 66 58 50.1 39.9 31.6 25.5 21.4 16.6 12.3 11.5 10.3 9.9 8.9 8.8 8.1 1.9 0 -2.3 -2.3 -2.3 -2.3 -2.3 -2.3 -2.3 -2.3 -2.3 -1.8 0.5
347.4 349 331 359 381.1 382.9 375.7 347.9 316.2 294 270.9 255.6 242.9 225.4 199.2 180.6 160 151.6 148.5 144.3 142.7 149.2 145.1 148.3 151.2 152.7 159.5 162.7 168.1 157.4 153.5 151.9 151.2 151.3 152.2 148.3 145.8 135.6 127.8 122.5 122.7 122.4 120.7 119.5 120.2 122.7 125.4 128.9 136.3 136.9 140.8 147.9 156.5 165.2 174.4 181.1 193.1 210.4 215.1 225.1 244.6 272.4 290.4 290.9 285.7 286.3 298.6 304 294.8 290.6 285.4 280 275.7 270.4 263.5 256.5 248.9 242.3 237.8 233.7 230.4 224 220.3 197.6 215.3 225.6 235.7 241 245.8 249.5 248.5 253.5 254.7 255.2 263.5 261.4 263.9 278 272.7 266.1 261.3 256 252.8 249.8 244.1 241.5 236.3 231.7 223.8 210.4 200.9 197.3 187 180.5 167.6 157.1 150.8 147.3 141.2 133.9 126 117.6 104.2 94.5 90.1 87.7 83.6 78.1 70.3 68.7 65 57.6 52.1 45.9 39.4 33.2 28.8 28.2 28.4 29.3 28.6 26.8 24.7 21.6 23.5 30.9 38.4 45.7 53.2 59.1 64.8 73.7 88.7 101.7 107.9 116.4 115.6 111.3 110.7 111.8 110.4 119.2 124.6 126.6 124.3 118.7 109.5 102.9 95.6 88.9 70.8 61.7 57.6 53.9 47.1 36.6 27.3 21.3 16.3 12.1 9.4 9 9.5 10 9.8 8.7 2.8 1.3 -0.1 -2.3 -2.3 -2.3 -2.3 -2.3 -2.3 -2.3 -2.3 -2.3 -1 1.4
337.4 310.5 306.9 320.6 343.6 383.4 375 352.2 325.2 303.9 287.6 279.8 270.6 245.5 221.7 199.9 179.6 169.9 168.1 146.7 147.9 154.6 165.2 172.7 178.3 180.2 183.5 185 187.7 181.4 174.1 174.9 174.9 177.4 175.5 170.2 163 157.2 145.3 138.7 133.8 132.3 130.3 126.7 126.8 129.3 131 132.1 136.5 136.5 145.8 158 169.6 176.7 181.9 189.8 205.8 226.1 234.8 244.2 249.9 265.9 289.3 310.7 309.5 300 295.5 303.1 296.9 292.9 285 279.4 272.5 268.3 263.7 257.1 250.8 244.2 237.2 232.5 230.3 223.9 212.3 218.5 224.1 232 238.2 243.2 247.1 252.6 257.8 260.7 269 275.3 279.4 275.3 268 272.6 271.4 264 254.6 249.4 242 237.1 233.9 229.8 228.9 224.5 208 193.6 185.3 181.8 176.5 167.4 158 152.6 146 143.1 135.6 129.1 123.9 118.7 108.1 92.7 85 85.6 82 76.1 69.1 61.4 56.6 51.9 48.3 41.6 36.8 30.1 25.5 24.8 25.3 24.6 23.5 22 25.3 22.8 27.5 35.9 43.5 49.2 56.2 62.5 69.4 81.1 100.8 109.5 110.8 117.1 118.3 115.3 115.5 112.8 110.7 109.5 116.1 117.7 113.9 112 104.1 95 87.8 80 66.2 54.6 50.2 49.4 43.3 33.6 22.3 15.4 12 9.1 7.1 7.6 8.2 9.9 8.2 2.7 1.8 1 0.1 -1 -2.3 -2.3 -2.3 -2.3 -2.3 -2.3 -2.3 -2.3 -0.5 2.2
320 306.7 306.9 306.4 315.1 352.2 376.6 351.6 330.1 310.4 298.5 292.2 286.7 265.5 242.1 209.5 199.4 182.3 172.4 164.1 169.5 175 196.8 208.1 208.6 214 211.4 215.1 214.2 205.7 190.3 194.1 200.5 200 196.4 191.3 186.4 178.1 167.3 157.6 150.4 142.8 137.3 135.1 132.7 134.7 137.4 137.6 140.6 146.8 156.3 174.3 192.5 198.5 206.7 212.5 223.7 238.1 252 263.7 272.9 277.7 286.1 301.9 309.3 303.1 297.3 304.8 303.2 303.1 295.9 284.9 274.1 267 261.1 254.2 249.9 245.8 239.3 230.3 223.7 221.4 220.5 227.6 231.7 239.3 243.4 246.1 250.7 258.6 267.1 270.6 276 281.4 283.4 283.4 276.8 268.7 265.9 262.9 251.6 245.5 239.8 236.9 230.3 226.3 223 222.1 207.8 194.6 187.4 180.1 171.9 164.9 155.4 148.4 144.1 141.7 135.6 128.6 121 116.4 106.5 89.9 82.7 82 79.8 73.7 66.3 59 53 47.5 42.8 38.4 33.5 28 24.4 23.4 22.6 22.1 21.7 22.9 24.2 23.8 34.5 42.3 45.7 50.6 57.8 64.2 73.9 87.6 106.9 118.8 115.5 118.6 120.9 120.9 120 113.1 110 109 108 110.3 105.2 99.2 93.6 83.7 77.3 70.9 56.1 47.1 44.2 44.4 38.6 29.1 17.8 12.7 9.3 6.6 5.7 7.4 6.7 4.7 1.9 1.1 0.5 -0.3 -1.2 -2 -2.3 -2.3 -2.3 -2.3 -2.3 -1.8 -1.3 -2.3 -2.3 -2.3
325 307.3 307.2 307.2 313.4 350.3 378.4 358.2 341.2 326.6 312.8 299.2 295.3 282.8 253.7 229.9 234.9 215.8 190.8 177.1 192.8 216 222.6 225.6 226.8 237.5 244.4 244.4 240.9 233.9 220.4 217.5 220.6 219.9 218.3 215.5 209 200.7 189.7 175.8 166.1 157.5 146.6 142.7 139.9 140.7 143.4 142.8 147.5 156.2 167.3 189.5 217.2 220.5 226.3 232.5 239.7 250.8 266.9 279.4 287.4 288.9 291.9 297.1 301.6 301.7 302 311.8 306.8 300.7 295.6 289.1 282.9 276.7 266.8 257.2 249.6 245.5 239 228.1 233.5 232.6 232.9 235.9 239.7 246.2 249.9 250.8 257 268 279.1 285.5 288.1 286.9 289 285.6 278.9 270 262.4 260 255.2 245.2 237.3 233.9 230.4 225.3 218.4 213.2 202.4 196.4 193.3 183 168.4 162.3 153.4 147.2 143.4 137.6 133.3 126.6 118.4 111.3 101.9 92 81.1 77.3 74.6 69.7 64.4 57.3 50.5 44.3 39.1 35.8 31.7 27.7 25.2 23.1 22.2 22.3 22.2 22.6 23.9 29.4 43.4 45.2 47 50.6 56.5 66.2 78.7 93.4 112.6 112.6 114.2 123.8 121.4 115.5 119.3 114.9 110.7 108.7 108.7 102.6 97.5 89.2 80.8 70.9 60.2 60.3 48.7 40.9 40.8 40.8 33.8 24.8 14.5 10.5 7.8 5.2 4.4 3.1 1.8 0.8 -0.3 -0.9 -0.9 -1.6 -2.3 -2.3 -2.3 -2.3 -2.3 -2.3 -0.9 -0.3 0.1 0.6 1.7 -2.3
306 307.5 307.7 307.7 319.2 343.5 377.6 366.1 350.4 337.1 327.6 316.3 307.5 295.9 273 272.3 265.6 233.3 205.8 202.1 219 233 240.8 237.6 236.2 254.6 267.8 270.8 270.5 256.9 237.5 244.3 246.3 249.2 246.9 234.9 231.9 223.5 211.7 198.8 184.2 173.7 160 149 145.8 145.1 149.8 154.1 157.7 167.4 179.2 197.5 224.8 240.6 246.1 252.4 257.1 265.9 276.8 300.6 306.4 303.4 300.9 306.3 318.7 313.8 300.2 309.1 306.2 300 290.7 287.1 283.3 278 274 265.4 256 246 237.8 234.4 237.1 236.6 238.4 242.5 246.9 251.6 255.5 259.6 270.8 281.8 288.6 294 295.4 294.2 292 288.6 280.3 269.5 260.7 256.3 252.8 245.8 236.5 232.4 229.3 225.9 218.5 209.5 200 193 185.7 186.8 167.8 157.1 149.1 144.6 141.3 135.7 129.3 124.2 113.5 105.8 97.2 85.5 76.4 73.4 69.3 66.2 62.2 54.7 48.9 41.4 36.5 33.5 30.4 27.3 24.7 21.5 22.5 23.2 23.1 22.8 26.5 39.1 49.5 46.1 46.9 51.1 57.2 65.9 80.9 91.9 108.9 112.7 112.5 114.5 114.1 110.2 101.6 104.3 103.7 102.8 105.6 100.2 92.8 82.6 70.6 58.5 48.2 42.4 34.7 35.4 36.3 35.5 29.2 19.9 11.6 8.2 5.6 3.8 2 0.5 -2.3 -2.3 -2.3 -2.3 -2.3 -2.3 -2.3 -2.3 -2.3 -2.3 -2.3 -2.3 0.3 1.1 1.5 2.4 6 3.9
306.2 307.4 307.8 316.7 317.8 330.9 366.3 374.3 362.2 353 341.8 325.3 315.4 307.9 291.5 293.2 273.3 241.8 220.4 226.5 247.5 266.1 263.4 244.3 249 271.4 301.2 304.1 293.4 282.7 270.6 271.1 278.6 275.1 272 262.9 250.5 243.1 231.2 219.4 203.7 186.7 168.3 153.6 150.4 150.8 155.7 161.9 165.7 177.9 193.6 211.8 231.6 256.9 263.8 270 274 276.9 286.6 304.3 322.8 325.2 323.1 315.1 316.9 321.3 308.9 299.3 297.9 291.4 289 284.3 283.5 276.5 267.3 259.4 253.4 249.6 238.6 239.9 241.5 241.6 243.4 247.4 253.1 258.2 263.5 273 281.6 290.9 298.5 301.2 300.8 297.1 294.3 289.3 279.6 268.9 258 251.5 246.2 241.9 238.2 232.7 227.7 224.4 221.9 211.7 199.4 188 182.4 176.7 165.8 150.3 145.1 140.9 139.1 129.8 118.8 111.2 104.3 97.7 87.9 79.9 74.9 70.5 66 62 57.8 52.6 47 38.7 34.3 32.2 29.9 26.9 24.2 22 22.1 23.1 23.9 23.6 28.7 40.7 48.5 46.9 50 52.6 59.8 67.6 82.5 92.8 96.3 104.4 104.9 102.9 108.3 100.6 93.4 87.3 85.9 85 86.7 91.6 86.2 76.4 63.9 51.5 40.6 33.6 29.8 31.1 32.7 31 25.6 16.5 9.6 6.9 4.1 1.5 -0.4 -2.3 -2.3 -2.3 -2.3 -2.3 -2.3 -2.3 -2.3 -2.3 -2.3 -2.3 -2.3 -0.6 1.2 2.5 3.9 6.9 5.7 5.6
320.4 307.1 306.7 309.5 318.4 327.4 351.7 369.5 373.1 361.8 344.1 328 321.9 315.8 308.2 305.1 283.4 256.1 245 251.6 272.1 293 284.6 261 256.8 282.6 317.8 324.2 315.6 312.2 295.5 299.2 313.3 277.2 274.5 293.2 274.5 259.8 248.7 231.3 218.9 195.4 172 157.4 154.9 157.2 160.4 167.5 176.3 190.4 208.6 228.9 255.9 276.4 280.7 284.9 292.1 294.4 298 320.2 333.4 347.2 350.8 338.8 325.1 316.7 311.3 301.5 294.9 288.2 284.4 282.2 278.4 273.5 264.3 257.1 251.1 246.1 244.3 245.4 244.6 245.4 249 255.4 261 264.7 269.9 278.5 286.8 298.1 305.3 306.8 303.3 299.4 294.3 286.8 277.9 267.7 258.7 248.1 244 240.1 235.5 231.5 225.1 220.2 214.1 209 196.8 185.8 177.4 168.5 161.9 147.7 144 138.7 133.8 124 111.7 106.1 97.7 90.4 85.7 77.3 72 67.8 63.9 59.5 55 50.5 45.8 36.5 33.1 31.5 29.3 26.8 23.9 22.5 23.6 23.5 24 25.8 31.9 41.5 45 45.4 48.9 53.4 61 71.6 84.9 98.6 97.6 94.8 92.8 89.4 88.9 91.7 88.2 84 81.1 76.2 69.7 72.9 73.8 68.9 54.5 45.3 33.9 27.8 25.3 27.3 28.2 26.5 20.8 11.4 8.5 4.9 2.1 -2.3 -2.3 -2.3 -2.3 -2.3 -2.3 -2.3 -2.3 -2.3 -2.3 -2.3 -2.3 -2.3 -0.5 1 2.4 8.1 12.1 10.6 12.5 11.1
320.8 307 308.5 318.9 320 336.4 338.1 359.4 365 355.8 339.3 331.4 326.1 320.8 315.9 312.2 292.9 269 270.3 278.9 298.7 312.8 309.5 283.3 281.3 294.2 326.3 336.6 335.4 330.5 318.5 303.5 300.1 305 306.4 311.2 300.9 279.3 263.6 243.5 225.4 197.9 172.4 160.5 159.3 162.5 166.4 172.8 183.8 199.2 222 245.2 274.1 292.5 298.1 298.4 307.3 308.5 312.6 341 364.4 369.6 354.5 344.8 329.9 324.8 310.6 301.9 293.6 293.4 282.2 278.9 279.3 272 263.9 256.3 249.4 245 249.9 249.4 247.8 250.5 255.6 261.4 267 269.5 274.8 284.9 293.2 299.2 306.5 308.8 304.7 297.9 291.4 283.7 277.1 270.3 260.1 252.5 246.1 241.5 234.2 229.7 223.4 218.4 214.9 199.9 191.2 183.2 175.1 154.5 155.7 149 144 138.6 131.8 125.6 107.1 104.1 93 86.1 80.7 75.1 69.6 66.1 62.2 57.2 52.1 47.9 43.9 36 32.2 30.7 29.2 26.4 23.3 23.1 24.1 26.1 27.9 28.3 36.5 42.8 43.8 45.2 48.1 57 58.6 71.9 91.3 112.4 116.2 102 90.9 85.5 84.1 82.1 80.3 79.3 78.6 74.7 68.7 64.5 61.4 56.8 47.7 39.6 27.1 22.8 20.6 22.7 22.8 20.5 15 8.4 6.7 2.1 -2.3 -2.3 -2.3 -2.3 -2.3 -2.3 -2.3 -2.3 -2.3 -2.3 -2.3 -2.3 -2.3 -0.2 1.6 3.7 8.8 16.4 15 12.4 15.4 15.9
337.5 321.3 319.2 319.5 322.8 367.1 363.9 344.7 354.3 353.5 340.5 335.3 330.5 326.5 324.4 317.2 301.7 297.4 295.5 306 323.2 327.5 325 306.6 291 308.3 339.7 341 338.6 338.4 337.3 312 311.9 306 310.1 309.7 322.9 297.9 280.3 255.1 233.4 205.2 178.6 164.6 163.7 168.9 174.3 179.5 192.6 215 238.6 262.4 294.8 304.2 304.1 310.8 318.6 318.2 326.6 354 376.3 372.9 356.5 338.7 326.8 319.4 311 299.5 292.2 290.7 284.2 276.1 278.1 271.6 264.3 256.8 249.6 251.2 252.4 252.9 252.5 254.6 259.9 264.5 269.6 276.1 283.1 291.1 297.2 303 304.5 305.7 303.4 295.6 287.7 282.6 276 269.4 262.7 257.2 251 243 239.9 228.9 221.1 216.2 215.8 204.7 192.6 180.4 168.9 156.8 152.3 146.3 141.4 137.7 131.6 123.3 110 102 91.8 81.9 78.1 73.3 66.6 62 58.2 53.6 48.7 44.1 39 34.3 31.1 29.2 27.8 25.4 22.9 24.3 26.5 32.5 35.9 31.1 38.6 44.4 42.8 44.4 46 53.6 61.5 76 100.6 118.1 115.5 105.9 100.2 90.5 84.2 82.2 80.1 79.8 77.9 73.6 65.8 56.2 53.5 51 43.7 32.2 22.6 16.3 14.6 17.1 15.4 13.2 8.9 4.3 0.8 -2.3 -2.3 -2.3 -2.3 -2.3 -2.3 -2.3 -2.3 -2.3 -2.3 -2.3 -2.3 -2.3 0.8 3 7.9 10.5 13.4 15.4 15.3 16.4 20.9 20
353.1 352.5 340.8 336 347.5 366.8 365.9 355.3 355.1 349.4 345.1 339.6 340.1 338.6 330.6 324.8 318.4 317.2 317.6 324.7 334.2 336.2 337.1 309.5 308.7 335 346.3 341.3 340.6 342.9 340.5 315.6 309.2 308.4 313.7 310.2 338.3 309.7 291.6 264 241.2 218.8 190 171.3 176.9 184.9 183.4 189.3 207.2 232.4 254.1 275.4 307.4 313 312.6 318.7 327 329 338.4 361.8 372.5 369.2 351.1 337.6 319.6 312.3 307.3 299.3 291.1 284.6 280.7 275 271.8 269 264.4 259.3 252.5 253.4 256.8 257.1 258.4 260.4 263.7 270.7 276.3 280.9 286.4 295.3 303.1 307.2 307.1 305 301.9 293.6 285.6 281.1 275.9 268.6 261.6 257.3 253.6 247.6 242 232.7 219.7 211.5 206.2 202.2 188.8 177.4 168.3 158.5 152.2 145.7 140.5 135.8 125.3 115.7 108 97.6 87.9 81.9 79.1 75.5 72 64.3 57.3 49.7 46.4 43.2 36.7 32.9 30.1 28 26.6 24.7 23.5 24.3 27.4 38 38 33.9 36.2 39.4 39.3 40.2 43 51.2 65.4 80.2 100.8 120.3 119.9 110.1 103.6 98.7 89.3 90.8 83.9 81.8 76.6 71.2 63.1 50.5 49.5 50.1 40.3 29.3 17.1 8.4 4.6 6.8 8.4 6.2 3.1 -2.3 -2.3 -2.3 -2.3 -2.3 -2.3 -2.3 -2.3 -2.3 -2.3 -2.3 -2.3 -2.3 1.2 3 7.4 9.7 13.3 17 20.7 20.7 19.2 22.5 22.8 22.2
352.4 354 352.1 351.4 365.7 366 364.9 363.7 353.3 351.8 348.7 345.1 342.8 345 344.5 341.3 332.1 332.3 336.1 341.3 343.8 349.2 344.6 337.8 335 346.4 346.1 345 347.1 357.9 342.7 340.8 327.1 326 335.7 342.2 338.4 321.7 300.6 277.2 252.9 232 203.3 187 192.1 202 199 206.4 227.6 252.1 272.9 290.7 307.7 317.3 323.1 326.6 332.1 336.3 347.3 357 358.2 351.3 339.6 329.3 318.9 314.6 310.9 299.7 291.8 284.2 279.3 276.1 272.7 269.6 265.3 259.7 255.7 259.5 259.8 261.3 262.8 265.4 268.9 273.2 280.4 284.7 291.3 299.1 305.9 309.7 308.8 304.9 299.6 293.3 286.8 281 276 269.4 261.6 256.2 253.5 250.9 245.7 235.9 222.6 213 204.4 194.4 187 179.9 171.4 161.8 153.4 145.7 136.9 133.3 127.7 113.8 103 95 88.4 84.1 85 83.2 75.5 68.5 60.8 55.8 49.3 38.4 34.1 31.5 29.1 27 25.9 24.5 24.5 25.3 27.3 32.9 35.4 33.8 33.6 33.9 35.3 36.4 39.9 50.4 65.4 78.1 99 126.3 122.5 116.1 110.5 100.9 95.9 94.1 93.7 94.3 83.5 64.9 56.1 47.3 44.8 43.6 35.6 26 11.2 4.7 0.6 -2.3 -2.3 -2.3 -2.3 -2.3 -2.3 -2.3 -2.3 -2.3 -2.3 -2.3 -2.3 -2.3 -2.3 -2.3 -2.3 5.1 6.9 8 14 23.9 33.1 39.6 35.2 34 26.8 23.7 22.3 21
367 354.4 352.5 362.5 366.8 369.2 364.3 362.1 360.2 354.2 348.9 344.9 346.3 345.6 344.5 344.5 344 344.1 344.3 344.6 344.4 346.1 348.7 351.4 352 350.8 349.1 348.8 351.6 363.3 354.6 352.7 351.8 346.5 353.8 376.7 342.4 331.6 314.2 295.7 270.1 243.8 222.4 211.4 216.2 220.3 221.1 239.4 245.6 277.1 290.6 303.9 317.7 328.6 334.3 335.9 336.3 337.6 342.4 351.9 352.4 343 334.3 329.2 322.7 316.3 310.6 301.4 294.7 286.6 279.2 276.3 274 273 266.9 261.8 260 263.8 263.9 266.2 269.2 272.8 275.7 278.4 280.7 284.3 291.2 299.1 304.8 309.1 307.1 302.7 296 288.8 285.3 280.5 274.8 270.2 263.6 257.5 254.2 251.2 247.2 239.4 226.1 219.1 210.9 202.5 187.1 177.5 170.6 164.3 156.6 145.9 133.2 126.3 119.5 113.8 103.2 95.3 90.3 89.4 90.4 85 78.7 70.2 62.4 57.7 50.8 39.9 33.2 29.9 28.2 26.5 25.5 25.4 25 28.1 27.6 29.5 33 34.8 33.7 33.8 34.6 35.9 37.5 45.3 62.2 73.4 91.5 115.1 124.2 115.8 115.5 111.7 101 97.6 95.9 93.3 85.2 69.4 51.6 42.4 40.2 39 29.9 21 9.9 2.9 -2.3 -2.3 -2.3 -2.3 -2.3 -2.3 -2.3 -2.3 -2.3 -2.3 -2.3 -2.3 -2.3 -2.3 -2.3 -2.3 -2.3 5.9 7.6 8.8 17.5 31.4 39.7 46.3 46.7 45.5 42.4 35.4 27.6 25.3
369.5 366.3 360.1 368.1 367.2 369.6 366.3 362.7 362.7 356.5 351.1 349 352.1 348.4 347.5 346.5 346.4 346.4 347.5 348.6 349.6 351.2 354.7 358 357.9 354.4 353.7 354.8 359.2 375 385.8 389.5 395.5 403 399.7 380.1 350.3 341.2 326.3 309.9 291.3 262.5 242.9 235.5 246.7 243.5 246.6 268.2 285 290.6 307.7 319.4 330.8 339 345.8 348.2 343.5 342.5 341.8 342.6 341.9 337.5 328.8 321.8 319 315.4 309.2 303.9 295 287.6 282.4 277.8 274.2 271.1 267.6 264 265 268.1 270.3 272.1 274.7 277.9 281.6 283.8 285 288.5 296.1 300.5 300.5 302 302.1 297.4 290 283.7 277.9 274.5 271.4 269.4 270.1 262 254.5 248.7 244.2 235.6 230.7 227 212.3 205.1 195.5 177.1 167.2 160.9 154.5 139 128.3 127 120.6 110.7 100.3 96.8 94.4 94.2 92.9 85.5 75.6 69.4 62.1 58.1 53.5 46.3 35.1 28.7 27.4 26.1 24.9 26.4 27 31.9 31.7 30.4 34.5 39.4 39.4 35.8 36.4 38.3 37.3 42.9 55.1 66.8 80.7 101.4 127 118.2 113.8 111.7 108.2 96.8 93.6 84.3 79.5 68.2 51.9 40.2 34.6 31.8 24.8 17.3 7.2 -2.3 -2.3 -2.3 -2.3 -2.3 -2.3 -2.3 -2.3 -2.3 -2.3 -2.3 -2.3 -2.3 -2.3 -2.3 -2.3 -2.3 -2.3 4.9 7.4 9.8 14 22 30.8 41.5 46.2 49.4 51.9 46 39.4 31.6
367.3 370.5 369.9 368.9 367.5 360 366.4 369.2 367.5 364.6 360.5 357.7 357.2 354.7 352.1 351 351.7 352.7 354 354.9 355.5 357.3 359.8 363 362.4 359.2 358.8 359.8 366 382.8 391.8 395.1 401.1 406.1 403.3 378.2 359.8 346.2 334.7 320.8 306.4 287.3 264.5 274.6 268.2 268.3 270.6 301.6 319 302 323.9 336.9 348.3 356 359.3 358.5 357.4 352 347.3 341.3 337 331.1 326.4 319.4 315.1 310.8 306 300.3 294.3 288.7 285.2 279.8 277 272.9 269.8 268.9 263 271.7 274.2 276.1 280.8 284.2 285.8 288 290.4 293.6 301.9 308 309.5 304.5 299.5 293.7 287.9 282.5 277.6 273.6 269 266.4 266.6 268.4 256.4 250 242.6 234.3 231.9 231.1 216.8 205.4 191.3 180.8 165.6 154.1 148.3 133.2 123.9 123.1 116.9 108.1 100.8 99.3 98.2 96.5 92.7 86.5 76 67.3 61.3 57.7 53.7 48.4 36 28.8 26.8 25.7 24.6 26.2 28 30.5 33.8 34.7 39.1 44.6 45.3 40.2 39.8 41.5 37.9 41.1 47.3 61.1 68.9 82.2 103.7 118.1 112.8 109.7 108.4 106.2 92.6 81 74.3 63.9 49.1 34.9 29.5 26.4 21.4 12.9 -2.3 -2.3 -2.3 -2.3 -2.3 -2.3 -2.3 -2.3 -2.3 -2.3 -2.3 -2.3 -2.3 -2.3 -2.3 -2.3 -2.3 -2.3 0.7 3 5.1 8.5 13.6 16.3 21.6 29.4 35.9 40.8 46.2 50.6 50 42.8
351.8 354.1 355.2 355.2 355.2 359.9 366.8 370 371 369.7 368.7 365.7 363.8 360.2 358.6 356.2 356.9 359 360.7 361.9 363.4 365.6 366.3 366.3 365.1 363.1 363 367.3 373 389.7 396 401.3 406.3 411.7 402.7 383.7 368.2 355.5 344.8 331.2 315.8 302.7 288.3 293.6 292.4 300.8 310.9 328 327.6 316.4 339.6 355.2 366.6 372.3 373.7 375.9 370.9 360.8 352.4 342.9 335.3 327.9 322.3 317.2 313.1 308.3 303.3 298.6 294.9 290.4 287.7 283.9 279.1 275.2 272.4 268.9 272.3 275.6 278.4 280.7 285 290.6 290 293.3 299.8 303.4 304.6 306.2 311.5 310.4 304.6 296.9 286.9 281.1 277 272.5 266.5 262.6 261.1 261 255.9 248.3 246 237.2 227.7 222.1 212.6 196.1 188.5 182.4 172.4 152.8 136.7 127.2 122.8 121.1 118.4 113.8 109.1 102.9 100 95.9 91.8 86.4 79.1 70 60.9 56 52.1 47.5 38.4 30.6 27.9 26.3 25.3 25.8 28 31.8 35.3 37.8 45.2 48.3 49.6 44.8 43.1 45.9 41.5 41.1 47.5 51.6 61.3 66.3 83.5 95.6 101 106.9 102.1 100 93.4 87.8 72.7 58.7 43.1 31.7 27 22.1 18.6 10.8 -2.3 -2.3 -2.3 -2.3 -2.3 -2.3 -2.3 -2.3 -2.3 -2.3 -2.3 -2.3 -2.3 -2.3 -2.3 -2.3 4.6 3 2.4 2.3 4.8 6.3 9.2 13.5 19.4 25.9 33.4 36.8 41 45.4 51.3 50.3
337.7 340.1 340.2 340.3 348.1 356.5 362.5 368 370 370.9 371.2 371.6 370.1 367.1 366.2 367.1 367.3 368.6 370.1 370.9 370.6 372.1 372.6 370.6 369.1 368.2 370.7 375.2 385.2 396.3 401 406 411.3 415.8 397.5 389 376.8 362.4 352.9 339.6 327 312.5 305.6 312.5 328.1 340 337.7 335 333.7 343.8 355.6 370.6 381.3 379.8 378.6 376.6 372.7 364.1 353.4 345.3 334.9 326 320 314.8 311.2 306.7 302 298.3 295.2 293.2 290.5 286.3 281.6 277.5 271.5 275.6 277.6 279.9 282.3 285.9 290.1 295.4 295.6 299.4 306.3 310 310.5 310.9 310 310.2 305.1 298 287.5 279 274.6 270.2 266.1 261.2 257 254.9 249.5 245.3 243.2 239.6 225.7 219.2 213.1 196.7 187.6 181.4 174.4 163 138.2 126.5 125 123.2 121 118.2 113.9 105.8 100.8 96.1 91.6 86.5 79.8 70.6 60.2 54.5 50.5 45.8 40.8 33.7 28.8 27.1 26.2 26.2 30.8 35.7 38.7 39.3 44 50.3 51.9 47.4 45.3 49.5 50.6 44.3 47.6 51.4 55.8 60.6 66.1 80.3 86.8 88.5 89.4 85.4 83.9 78.9 67 51.4 36.1 28 24.7 20.1 15.9 8.3 -2.3 -2.3 -2.3 -2.3 -2.3 -2.3 -2.3 -2.3 -2.3 -2.3 -2.3 -0.4 1.6 3 3.6 4.3 3.5 3.7 3.6 3.4 3.7 4.1 7.5 12.4 19.4 26.7 32.7 38.7 43.8 48.7 58.5 58.6
325.4 327.7 327.7 316 341.6 350.8 355.1 360.6 364.6 367 370.2 369.4 365.6 370.1 374.8 379.9 382.1 382.4 381 381.1 382 380 381.3 382.4 380 382.2 387.9 389.9 395.5 402.7 407.7 410.5 414.6 408.6 397.1 391.8 380.5 369.2 359.7 348.5 337 321 317 332.1 361.1 353.8 346.5 344.7 347.4 358.5 364.6 379.9 387.9 384 381.7 377.6 372.3 362.1 351 344.2 335.7 326 319.1 313.6 309.8 305.6 301.9 299.5 297.4 295.1 291.4 287.3 283.3 279.3 275 279.6 281.8 284.4 286.5 290.3 294.4 300.6 301.9 303.7 308.2 312.3 313.7 313.9 312.8 308.6 303.4 296.9 286 277.4 273 268.5 263.1 259.1 253.6 249.7 244 237.5 236.3 237.3 228.6 225.2 217.1 208.1 190.6 179.4 171.4 157.5 135.2 128.5 128.8 124.6 119.9 117.1 114.7 108.4 101.4 95 90.9 85.9 79.1 67.7 59.4 53.1 48.7 43.9 39 32.1 29.7 28.2 26.7 26.5 32.5 38 39.7 38.5 43.7 50.2 52.9 49 46.2 51.1 56.5 53.3 51.2 53.3 55.2 58.3 64.7 71.6 78.3 76.9 76.9 79.3 79.2 72.2 60 45 31.8 26.4 22.9 18.4 13.4 -2.3 -2.3 -2.3 -2.3 -2.3 -2.3 -2.3 -2.3 -2.3 -2.3 -2.3 -2.3 2.9 3.5 4 4.2 3.3 3.6 3.9 3.8 3.4 3.4 3.9 7.9 14.6 25.5 39 44.2 55.8 67.2 65.6 65.2 65.4
309.8 311.8 308 305.6 324.3 337.3 344.4 349.5 353.6 354.5 358.5 360.2 365.2 372.5 379.3 387.6 392.5 395 394.1 394.8 395.1 397.7 400.3 399.3 398.2 398.2 398.8 398.6 403 408 414.3 417.1 412.5 400.4 397.5 390.3 381 372.4 363.5 353.4 340.9 330.1 332.4 348.6 367.5 356.9 353.5 355.1 359.9 363.8 368.3 376.7 388.6 385.8 380.8 376.6 369.2 359 353.3 344.5 334.7 327.2 320.3 315.2 309.4 306 302.7 300.2 298.2 295.4 292.4 288.8 285.6 278.5 281.9 283.4 285.6 288.1 292.4 297.5 303.9 306.7 308.7 310.6 310.7 313.9 316.4 315 314.1 309.4 300.5 289.8 283 275 268.8 263.6 257.1 252.4 250.3 245.3 238.2 231.3 233 232.8 227 226.4 222.6 207.2 191 181.6 164.2 149.1 131.3 131.3 133.8 126.5 120.7 116.3 113.3 108.3 102.3 95.3 88.2 83.9 77.9 69.1 61.2 55.9 47.1 38.7 35.5 32.2 30.9 29.3 27.3 27.2 32.3 36.9 37.6 37.1 41.2 48.4 52.3 48.8 45.8 50.7 57.8 60.5 63.1 62.2 62.2 63.3 66.6 67.5 70.2 69 69.1 69.9 69.6 66.5 59 42.5 28.2 24.9 20.8 16.2 10 -2.3 -2.3 -2.3 -2.3 -2.3 -2.3 -2.3 -2.3 -2.3 -2.3 3.3 3.7 3.7 4.1 4.5 4.1 3.6 3.5 4 3.9 3.5 3.8 6.4 16.9 32.2 50.3 60.4 66.1 69.6 71.1 71 69.5 69.9
295.6 295.7 291 289.8 300.6 309.6 319.2 325.1 329.5 331.2 337.3 349.9 361.2 368.9 376.7 388.1 405.1 402.3 401.9 406.6 409.3 412.2 413.4 412 409.2 405.6 402.7 404.5 408.2 414.4 422.2 417.5 406.4 400.6 395.4 390.4 383.3 374.7 365.9 356.4 342.5 339.8 347.2 360.9 367.6 363.4 362.6 364.7 369.3 376.3 378.6 376.2 380.3 380.4 374.2 365.4 360.6 356 351.8 345.3 338 327.5 322.1 317.5 311.3 306.7 303.6 301 298.3 295.6 293.5 291.2 285.3 286.5 287.1 287.9 289.4 292.6 298.9 304.7 313.2 317 317.6 314.6 314.5 316.9 318.3 318.3 316.9 308.4 298.2 288.3 279.2 271.6 265.1 257.8 251.2 245.5 241.6 233.8 229.9 226.8 223.6 221.5 217.6 217.4 222.4 208.2 193.7 181.2 164.7 147.6 133.4 133.5 135.6 130.4 122.9 118.6 112.6 108.9 102.1 94.3 86.6 81.2 76.2 71.1 65.1 59.5 52 38.7 34.6 32.7 31.8 29.7 27.8 27.2 30 33.2 34 35.5 39 45.3 49.7 47.7 44.7 48.4 55.7 63.2 69.9 74.4 76.3 74.9 70.4 68 62.6 57.8 57 61.3 60.1 58.4 49.5 31.9 27.7 23.5 19.7 14 -2.3 -2.3 -2.3 -2.3 -2.3 -2.3 -2.3 -2.3 -2.3 -2.3 0.4 3.8 4.2 4.5 4.7 3.8 3.8 3.8 4.1 8.1 11.1 9.2 11.3 16.6 32.4 55.8 65.4 65.4 70 72.3 74.6 73.6 73.4 73.4
276.6 276.2 273.4 274.8 282.8 289.8 295.3 298.7 300.5 306.9 319 338.4 350.8 358 366.5 376.5 385 394.9 403.2 409.5 415.9 420.9 421.9 420.4 416.1 410.6 406.6 408.5 415.5 418.6 413.8 407.6 403.6 398.4 395.2 390.7 385.3 377.5 368.7 358.4 350.9 355 360 366.5 371.6 372.7 371.4 376.5 380.4 382.5 383.1 379.5 376.6 372 366.7 362.9 356.7 351.2 347.2 341.7 334.9 328.9 324.1 320.1 315 307.5 303.5 300.5 298 296.4 293.7 289.8 285.6 291.3 291.7 292.5 294.1 298.3 305.4 313.8 322.8 324.9 323.7 318.7 316.9 318.4 319.9 321.1 317.2 307.5 298 287.8 276.6 270.1 262.3 252.6 246.1 240.9 236 230.6 227.2 223.6 219.2 213.4 207.4 205.8 203.9 192.9 182.4 172 162.7 151.3 140 135 132.4 131.9 123.2 116.2 110 107.7 104.3 92.2 84.3 79.6 75.3 71.1 65.8 59.4 45 37.9 37.3 36 32.9 29.8 27.8 27.4 27.5 30.2 31.4 32.3 36.9 41.9 45.6 45.1 42.3 46.7 53.1 60.9 69.7 81.3 85.3 82.9 74.5 67.2 56.9 51 48.9 46.2 41.2 38.2 32.2 30.5 21.1 20.1 16.3 7.8 -2.3 -2.3 -2.3 -2.3 -2.3 -2.3 -2.3 -2.3 -2.3 -0.6 1.9 3.8 4.2 4.9 4.7 4.2 3.7 3.6 8.6 15.5 18.1 22.3 27.1 32.6 46.1 64.4 73 76.7 76.7 76.6 79.4 78.7 75.3 77.1
261.2 259.8 262.6 264.2 266.3 272.7 276.1 280.1 287.1 295.4 311.4 330.7 343.3 350.3 357.4 367.1 376.9 385.8 394 401 409.5 415.7 420.1 421 420.3 414.1 405.6 404.9 405.3 405.3 405.3 401.7 399 395.9 393.6 390.3 386.4 382.1 376.9 369.4 364.3 366.6 371.3 380.1 386.1 388.1 383.1 386.3 385.9 388.2 391.3 387 378.9 369.1 363.2 359.9 353.9 349.4 344.9 340.5 335.5 330 325.7 321.1 315.8 311.6 306.3 302.5 300.1 296 293.9 295.3 296.7 295.4 296.6 297.1 300 306.5 315.8 322 331 335.5 329.8 324.7 320.8 318.9 318.4 317.2 314.2 306.2 292.1 283.5 274.7 268.3 260.6 253.1 244.2 239.1 234.1 229.5 225.7 218.5 214.4 209.9 203.1 197.6 192.6 185.9 173.1 164.8 155.3 146.6 138 134.7 131 125.7 123.1 118.3 109.4 105.9 103 90.1 82.8 79.3 75.1 70 62.9 55.5 42.6 39 41.8 40 35.7 31 28.4 28 27.5 28 30.3 30.2 33.3 37.9 40.3 41.1 39.6 42.8 49.7 57.3 68.5 79.5 90.8 86.2 76.3 63.8 54.4 46.5 44 39.7 32.4 28.8 26.5 23.8 15.9 14.1 10.2 -2.3 -2.3 -2.3 -2.3 -2.3 -2.3 -2.3 -2.3 -2.3 -2.3 0.6 2.5 3.5 3.7 4.7 4.3 4.3 3.9 3.8 7.7 16.8 26.8 33.4 38.9 47.1 53.6 65.4 74.4 82.3 85.5 82.6 84.3 84 78.5 77.9
246 248.3 251.5 254.9 256.2 259.8 264.2 268.9 276.7 285.8 302.4 321.1 330.9 341 350.2 358.9 366.8 374.6 381.4 390.1 396.9 399.6 401.4 402.6 401.6 398.1 397.8 397.4 396.2 396.4 395.6 394.2 392.2 390.6 388.2 389.7 389.1 387.2 384.5 379.9 377.1 379.5 383.3 396.2 400.2 400.5 394.4 393.1 390.8 396.8 401.3 396.5 384.4 372 360.6 356.4 353.2 350.2 345 340.2 336 331.8 327.9 323.1 317.4 313.1 309 304.4 301.1 296.2 298 299.2 301.8 301.6 302.5 304 306.6 312.2 322.6 329.8 334.8 340.9 337 332.3 327.1 321.7 319.1 313.5 308.3 299.8 289.6 281.9 273.8 267.8 260.8 254.6 244.3 238.7 233.8 229.3 225.8 219.9 214.5 209.1 204.1 200.5 195.4 188.5 180.3 169 158 147.1 144.7 140.2 133.3 129.4 120.1 113.5 109.1 98.2 92.8 88 81.1 76.5 72 67.6 58.2 50.6 42.8 39.9 44 43 38.4 32.6 29.5 29.2 28.4 27.7 29.3 29.1 29.5 33 35.8 36.8 36.5 40 46.4 54.4 65.9 75.6 89.2 88.7 77.7 63.3 53.3 44.3 38.9 31.4 28.5 27.1 23 19.2 11 7.1 -2.3 -2.3 -2.3 -2.3 -2.3 -2.3 -2.3 -2.3 -2.3 -2.3 -0.2 1.3 3.1 4.2 4.3 4 3.9 3.6 3.9 5.5 9.4 14.1 24.8 36.5 51 54.5 62.4 69.6 75.8 82.1 89.6 86.7 85.6 85.4 83.6 79.7
236.2 239.2 241.4 245.1 248.4 252.7 257.2 264.7 273 282.8 292.8 308 317.9 330.6 338.8 350 358.1 365.7 372.3 378.3 384.6 388.3 390.4 391 390 390.5 389.6 389.3 388.8 389 387.2 387.3 387.2 387.8 388.3 390.2 394.8 395.8 392.9 388.5 388.1 390.4 395.1 402.4 400.8 400.2 399 399.3 399.8 402.3 406.2 400.5 387.8 371.3 361.9 357.9 354.5 351.3 347.9 344.8 340.4 336 331.3 327.3 321.4 315.9 310.7 306.9 303.9 299.3 300.7 302.9 305.3 306.6 308.4 309.8 312.1 317.5 324.5 334.1 341.5 344.4 343 340.2 332.9 327.9 323.5 316.2 306.7 297.6 289.4 282.9 274 267.3 261.4 255.4 247 239.5 234.1 229.7 224.9 220.9 215.6 211.1 205.2 201.1 197.9 194.7 191.4 178.3 161.7 152.3 150.6 149.6 143.2 135.1 128 117.2 103.1 92.2 84.8 79.1 75.6 71.9 68.3 65.4 57.1 47.1 42.5 40.6 42.5 41.9 38.8 33.6 31.5 30.2 28.5 28 27.5 27.6 27.3 29 31.9 32.3 32.4 36.4 43.3 48.9 60.8 70.5 80.4 87.1 76.1 64.5 53.7 43.7 34.5 27.9 26.3 25.9 19.7 13.4 6.9 3.8 -2.3 -2.3 -2.3 -2.3 -2.3 -2.3 -2.3 -2.3 -2.3 -0.7 0.7 2.3 3.4 4.3 4 3.7 3.4 3.2 5.2 8 12.7 17.1 22.6 34.1 45.3 56.8 63.6 71.5 77.3 80.9 85.5 88.5 89 85.2 82.9 81.4
229.4 232.8 236.2 240.3 244.5 249.1 255.4 262.6 271.1 280.6 290 301 308.9 319.7 331.2 341.4 350.2 357.5 363.2 368.1 373.9 378.2 379.5 381.3 382.1 382.5 382.7 382.8 381.9 382.5 383.3 384.9 386.8 389 397 404.9 409.8 407.2 401.5 398.4 398.8 400.8 402.8 405.6 403.1 401 400.3 401.7 404.2 403.9 401.5 394.7 385.8 373.3 365 361.1 358.5 356.2 352.6 348.7 345.9 342.5 338.7 333.5 327.6 320.9 314.7 310.4 307.2 301.7 306.3 309.3 311.8 312.9 314.2 316.1 317.7 320.8 328 337.7 345.5 347.9 348 346.7 341.1 329.9 322.7 313.2 304.3 296.7 290.2 283.3 276.9 268.7 262.7 257 251.2 242.1 236.5 231.4 227 221.9 217 212.9 207.8 201.4 197.2 195.8 187.1 180.3 164 159.5 154 154 147.1 139.2 130.9 125.8 115.6 96.7 87.4 75.9 68.5 64.1 62.1 60.1 51.7 46 43.1 40.7 40 38.9 36.5 33.8 31.9 30.3 28.8 28.4 27.9 27.4 27.5 27.6 27.9 28.6 29.6 32.3 38.2 44.7 54.1 61.9 70.6 76.8 72.5 61.5 53.7 42.7 33.3 25 23.3 22.9 16.1 8.4 4.5 -2.3 -2.3 -2.3 -2.3 -2.3 -2.3 -2.3 -2.3 -2.3 -0.9 0.5 1.6 3.3 4.5 3.7 3.4 3.3 3.2 3.6 5.5 9.9 15.8 22.1 28.2 28.6 39.3 54.8 62.3 69.1 76.7 80 81.8 84.2 88.2 87.5 84 82.6
225 229.3 232.7 237.7 242.8 249.3 255.8 262.4 269.9 278.5 286.4 295.1 304.4 314.1 324.6 334.3 342.6 349.4 354.2 358.8 363.3 366.9 369.2 371.3 373.2 373.7 375.3 376.2 377.7 380 382.6 385.9 388.8 396.3 417.5 424.7 426.1 417.3 409.8 407.2 408.5 409.5 409.1 408.3 407.3 404.5 402.8 402.5 401.5 398.9 396.1 392.3 381.9 374.6 369.5 366 363.3 361.7 358.9 353.4 350.6 348.6 344.9 340.3 335.3 327.9 321 316.1 311.6 306.7 307.9 313.2 316.5 318.9 320 321.7 323 325.5 334.9 345.3 357 363.5 357.6 355.4 349.5 338.3 326.8 315.8 305.5 298 291 285.1 278.4 271.8 266 259.7 253.3 245.7 238.8 233.5 227.8 223.7 218.9 214 207.3 201.2 195.5 188.2 181.8 175.6 168.3 163.3 160.4 156 150.8 145.4 138 135.6 126.2 102.6 87.5 78.1 70.4 61.7 57.6 54.4 49.7 46.2 43.8 41.4 39.1 37.2 34.9 32.7 32.1 30.4 29.2 28.8 28.2 28.3 27.4 26.7 27.6 27.8 28 29.3 33.9 39.4 46.9 53.5 60.4 64.3 63.4 58.9 48.7 40.7 29.4 23 20.7 17.3 12.2 7.2 3.4 -2.3 -2.3 -2.3 -2.3 -2.3 -2.3 -2.3 -2.3 -2.3 0.3 1.8 2.8 5 4.2 5.7 4.9 3.2 3.5 4.2 6.1 12.2 19.8 27.9 35 36.7 38.1 44.3 53 64.9 73.4 76.3 77.5 81 80.3 81.9 83.4 82.1
222.4 227.2 231.9 237.3 242.9 249.6 256.1 263.3 271.8 278.4 285.6 293.9 302.6 311.2 319.3 327.5 336.2 342.3 347 351.3 355.2 358.9 360.3 362.4 364.8 367.2 369.5 372.8 375.9 379.4 383 387 390.6 403 426.4 430.5 428.5 421.6 416.4 415.4 415.6 416.1 417 412.3 409.9 407.5 404.8 403 401.5 397.5 392.5 387.9 381.5 376.8 374 372.2 367.5 365.6 363.1 360.3 357 353.8 349.9 346.3 341 335.2 327 321.1 317.2 312 310.5 316.6 320.2 324.1 324.9 324.7 325.8 330.2 345.3 357.9 366.6 373 372.9 366 357.7 350.4 335.9 323.2 312.7 300.9 292.3 286.9 281.8 276.2 270.6 262.9 255.8 248.7 241.8 237.9 230.5 225.6 221.7 215.7 210.5 203.5 196 193 182.6 184.5 172.3 168.6 167.8 159.7 159.9 155.5 148.7 141.5 134.7 113.5 88.2 81.3 77.8 69.4 57.2 52.4 49.4 46.3 43.7 41.3 39 37.6 35.5 33.3 31.7 30.5 29.5 29 28.7 28.8 28.3 27.2 27.8 28 28.2 28.4 30.3 35.8 41 46.8 52.4 56.5 55.8 51.8 45 38.3 27.1 22.7 20.4 18.3 13.8 7.5 3.6 -2.3 -2.3 -2.3 -2.3 -2.3 -2.3 -2.3 -2.3 -0.9 1.1 3.2 5.8 6.7 9.1 17.9 15.4 9.7 14.6 10.9 9.3 13.1 22 32.8 40.6 46.5 41.3 42.6 48.3 61.6 66.4 69.6 71.2 74.5 75 71.8 74.3 78.4
221 226.3 231.7 237.4 243 250 262.3 272.3 278.8 285.3 292.6 298.9 304.7 311.7 319.5 325.2 330.6 336.1 341 344.4 347.6 351.3 353.5 355.9 357.8 361.3 365.3 369.1 371.9 374 378.1 384.7 391.5 407.9 431.1 430.4 424.3 416.8 414.1 414.1 415.3 417.1 416 414.9 413.4 409.4 406.7 403.8 399.5 396.2 392 387.8 384 380.1 376.7 374.7 373 369.6 367.2 363.8 361 358.3 354.4 350.4 345.6 339.9 333.3 326.9 322.1 318.8 314.9 321.8 325.3 329.3 329.7 328.6 329 336.8 348.1 361.5 374 378.1 378.4 372.4 363.9 354.1 339.7 325.3 313.7 303.9 294.8 288.8 283.7 278.8 273.7 267.1 260.2 252.3 245.5 240.2 236.8 230 226.7 221.8 216.5 207.8 199.7 196 191 188.1 180.7 173.2 169.6 170 166.4 162.6 157 152.2 143.4 126.4 94.9 84 78.6 71.7 61.2 56.8 49.2 46.4 43.6 41.3 39.2 37 36.1 35.7 34.4 32.2 30.3 29.1 29 28.9 28.4 27.9 28 28.2 28.3 28.6 28.6 33.6 38.6 43.7 48.1 51.4 51.6 48 41.6 34.2 25.3 21.6 20.8 18.4 14.6 9.1 3.7 -2.3 -2.3 -2.3 -2.3 -2.3 -2.3 -2.3 -1.3 0 1.5 3.2 5 8.1 11.1 20.2 20.9 16.2 28 28.1 18.6 13.4 22.7 34.2 44.3 53.6 55.2 45.4 46.4 53.9 60.2 61.4 63.4 67.7 69 67.9 68.6 72.3
222.8 228.3 233.5 238.8 245.6 260.1 271.5 282.4 287.9 294 299.9 305.3 311.8 315.5 321.2 325.9 330.6 333.7 337.2 341.1 344.6 346.3 349.1 351.7 354.5 357.2 361.2 364.7 368.4 372.4 376.5 382.7 391.8 413.3 429.1 423.5 416.3 407.8 405.5 408.4 413.1 416.7 418.2 418.9 417 411.7 406.9 403.7 400.2 397.4 395.3 391.8 389.1 386.3 382.6 380.5 378 374.6 372 368.5 364.7 361.7 358.1 353.8 349 344.1 338.1 332 327.1 323.7 322.3 328 332 334.6 333.7 332.1 333 343.9 357.3 366.1 376.6 383.9 388 383.5 369.5 359.7 346.3 329.6 314.8 307.1 299.5 290.8 285.6 281 276.4 270.5 263.5 256 249.6 242.7 239.7 235.2 229.9 229.5 227.8 213.9 206.5 205.7 204.5 198.8 188.6 179.5 172.5 174.7 169 162.9 161 158.6 150.3 142.4 116.3 93 77.8 71.3 62.3 57.6 50.5 46.3 46.3 45.9 43.4 43.1 40.5 41.4 41.1 38.2 34.3 32.6 30.7 28.9 29.2 29.1 28.1 28.3 28.4 28.5 28.6 31.8 36.4 42 45.5 48.3 47.2 43.7 38.3 31.7 23.4 20.1 19.5 17.3 14 10.9 4.4 -2.3 -2.3 -2.3 -2.3 -2.3 -2.3 -1.8 -0.4 0.9 2.4 3.3 5.1 8.6 10.3 15.6 17.4 16.8 21.4 24.5 20.6 16.6 22.1 33.5 42.8 51.9 58.9 52.9 47.5 50 55.6 58.6 59.4 60.4 63.6 64.4 66.1 67.2
222.9 229 236 244.4 257.4 271.1 281.2 289.5 294.5 300 305.7 311.2 316.1 320.7 324.6 326.9 329.6 332.4 334.5 336.7 339.4 342.5 344.8 347.2 351 353.6 358 361.1 365 369.3 373.8 381.7 391.5 411.6 418.8 411.1 404.3 397 400.1 408.1 413.3 416.7 420.1 418.8 416 412.1 407.4 405.5 403.7 400.5 398.6 397.6 394.3 391.2 387.3 384.8 382.8 379 375.8 372.8 368.9 364.7 361.1 357.2 352.6 348.1 343.4 337.2 331.2 327.3 326.8 328.9 333.6 336.5 336.6 335.1 338.7 350.3 363.1 375 382.7 386.9 390.6 387.9 378 368.3 356.4 336.7 321.9 311.6 302.3 295 288.4 283.6 279 273 266.1 261.3 255 246 241.1 238 235.2 232.5 228.3 218.9 216.1 215.3 217.2 214.8 199 190 183.7 181.6 176.3 172.6 165.2 162.7 159.1 148.1 120 95.2 77.3 69.8 62.7 58.4 51.6 49.2 51 51.1 47.6 45 45.1 46.8 49.2 48.8 44.3 40 36.9 34 31.6 29.9 29 28.9 28.9 28.7 28.5 29.7 33.7 38.4 41.4 44.5 43.6 40.4 34.5 27.8 22.1 19.4 18.6 17.9 16.7 13.8 8.5 -2.3 -2.3 -2.3 -2.3 -2.3 -2.3 -1 0.4 1.7 3.3 4.1 4.4 4.4 8.9 11 12.3 14 16.9 18.3 18.2 18.5 23.3 30.5 39.4 49.4 58.7 57.8 50.3 51.7 58.8 60.9 60.3 56.8 57.6 57.3 61 63.6
223.5 230.8 240.5 255.7 268.6 276.9 287.2 296.1 301.7 306.6 311.6 315.8 320.4 323.3 325.6 327.4 328.3 330 332.2 334.5 336.6 339 341.7 344.2 347.8 351 354.6 358.2 361.9 365.8 370.1 377.2 387.7 399.1 403.1 396.5 391.6 392.4 397.9 410.2 413.8 419.3 420 419 415.8 413.2 409.4 406.3 406 406.4 403.7 402.4 399.8 396.1 392.4 388.9 386.5 383.5 379.8 376.3 373.3 369.3 363.7 359.8 356 351.7 347.2 341.2 333.8 332.6 329 328.4 332.1 334.9 337.2 338.3 344.2 355.5 368.2 381.9 390.2 393.5 391.8 391.6 384.6 374.2 356.6 340.7 327.9 316.4 307.2 301.6 294.8 289 282.7 276.5 270.4 265.3 259.7 251.4 244.3 239.5 236.1 232.5 226.7 226.5 226 226.5 227.3 223.2 214.5 200.2 193.4 190.9 187.8 185.1 181.3 173.3 169.7 151.3 118.5 94 78.4 69.3 62.1 59 55.5 53.2 56.7 56.6 52.2 47.6 48.4 53.7 58.5 58.2 53.6 48 45.6 38.9 35.9 32.2 30.5 29.6 29.3 28.2 28.5 29.1 30.9 34.1 37.3 41 41.2 38 31.9 26.2 21.2 19.7 19.1 19.7 18.7 15.1 8.4 0.3 -2.3 -2.3 -2.3 -2.3 -2.3 -2.3 0.8 2.3 4.6 4 5.2 4.1 6 9.2 15.9 17.2 13.6 15.1 17.9 18.8 21.5 29.5 38.3 47.9 56.2 58.6 53 55.3 61.5 64.9 63.3 56.1 52.9 50.9 53.6 58.2
225.4 239.9 251.6 265 276.2 284.3 292.7 300.6 307.1 311.5 314.8 318.9 322.4 323 324.4 325.9 327.1 328.5 330.2 332.3 334 336.8 339.6 342.3 345.7 348.8 352 355.5 359.2 362.9 366.7 372.3 380.7 387.6 388.5 389.1 388.6 391.3 398.5 409.1 414.1 417.9 418.1 418.3 416.8 414.3 412 408.4 408.1 408.8 408.3 406.2 403.4 400.4 396.2 393.4 390.7 388.4 385.3 381.2 376.5 373.1 368.1 362.3 358.2 354.3 350 344.5 338.5 336.8 332 329.4 330.9 334 337.4 342 349 358 368.3 382.6 392.3 395.8 396.4 394.1 387.2 372.9 359.8 348.6 331.9 322.1 311.4 305.6 302.1 294.6 285.7 281 272.9 267.8 262 255.9 247.6 241.9 236.8 232.1 231.4 233.2 236.5 238.8 238.4 236.2 233 209.9 204.1 194.1 195.6 196.9 191.6 183.4 172.8 150.3 120.6 91.5 80.2 70.2 61 57.1 56.2 57.3 61.8 62.2 60.7 53.9 53.9 59.8 65.9 65.3 59.9 53.1 49.2 44 40.2 36.3 32 30.5 30.5 29.3 28.5 29.1 29 31.1 34.7 39.3 39 36.4 30.3 24.7 21.3 19.5 20.2 23.3 23.4 16.9 8.4 1.1 -2.3 -2.3 -2.3 -2.3 -2.3 -2.3 -2.3 1.5 4.1 3.6 5.7 5.1 7.8 11.7 19.8 19.8 13.9 16.2 18 18 19.6 28.1 38.4 46.1 54.1 57.3 54.5 56.3 63.2 68.5 66.3 57.5 54.3 51.2 49.3 50
236.2 250.3 261.6 273 283.7 290.8 297.1 304.5 310.1 315.4 319.5 321.7 321.4 322.3 323.3 324.7 325.9 327.1 328.7 330.5 332.8 335.7 337.5 340.1 343.4 346.3 349.5 353 356.6 360.4 364.3 367.4 373.4 379.3 383 385.8 388 391.3 398.4 407.7 413 414.8 414 414.8 416.2 414.9 413 410.2 409.4 409.7 409.3 408.4 407.6 403.4 400.2 396.7 393.6 390.6 387.4 383.7 379.8 374.9 370.2 365.2 360.5 356.4 351.3 345.2 345.9 341.8 335.2 332.1 332.9 336 341.8 351 357.9 365.8 372.5 384.7 393.8 399.3 400.1 395.7 387.8 373.6 361.5 350.9 336.1 325.8 319 311.4 305.7 300.5 291.6 283.3 275.1 270 265 258.2 251.1 244.2 239.4 236.6 236.9 240.2 243.9 245.5 249 248.2 243.8 226.9 210.7 197.2 199.6 205 197.2 179.2 167.6 145.2 122.3 91.3 78.8 69.3 61.4 57.2 59.3 63 67.3 70.4 68.5 63.4 59.1 63.9 69.8 69.6 63.1 57.4 52.4 46.3 43.3 40.9 35.1 31.9 30.3 29 29.2 29.4 30 30.7 32.2 36.7 37.4 35.2 29.2 25.2 22.9 21 22.4 26.9 28.2 18.9 10.6 2.4 -2.3 -2.3 -2.3 -2.3 -2.3 -2.3 -2.3 -2.3 2.3 5 5.7 8.5 10.4 13.8 16.7 18.5 12.8 13.4 15.9 17.1 19.8 27.8 37.1 44.9 51.3 55.3 53.7 57.3 64.3 69 66.9 58.7 56 57.3 53.2 49.8
247.1 258.7 268.9 279.2 286.9 294.4 300.4 306.4 311.9 317.4 320.8 320.3 319.4 319.4 320.9 322.6 324.3 325.9 327.3 329.3 331.9 334.5 336.4 338.5 341 343.8 347.5 351.3 355.4 359 362.9 368.1 374.2 379.1 383 386 388.7 393.5 399.9 406 409.5 411.3 411 413.9 415.3 414.9 413.7 412.5 410.9 410.4 409.5 408.3 407.7 405.7 402.5 398.7 395.1 392.1 387.2 383 379.6 376.2 371.1 366.6 362.5 355.6 350.8 348.8 347.8 344.8 339.6 336.7 337.8 342 347.3 356.2 366.4 375.7 384.3 391.3 396.8 399.6 399.2 394.9 384.4 373.1 363.2 353 339.1 328.7 323.8 318.4 309.8 303 297.3 286.5 277.9 272 267.1 262.7 256.1 248.6 242.5 241.5 243.9 249.5 253.9 259.1 261.3 260.6 252 234.5 215.5 203.5 198.2 204.6 191.4 175.2 158.3 138.5 117.3 96.2 76.8 68.4 61.8 58.6 60.9 65.9 71 77.5 74.1 68.1 63.1 64.5 68.7 68 63.1 58 52.1 46.7 43.6 42.9 38.9 33.7 30.2 29.4 29.4 29.6 30.7 30.4 31.4 34.4 35.3 33.8 30 27.5 25.6 22.7 26.2 30.9 31.8 21 12.4 4.9 0.6 -2.3 -2.3 -2.3 -2.3 -2.3 -2.3 -2.3 -2.3 5 6.9 8.1 14 19.7 17.2 15.7 11.8 14.3 18.4 19 20.5 27.6 36.2 43 51.8 55.4 54.8 58 64.5 70 67.1 60.8 61.3 64.4 57.6 52.9
256.3 268.2 279.6 287.4 294.3 298.3 303.9 308.3 313.4 318.4 318.9 317.5 316.6 316.9 318.7 320.5 322.2 323.9 326 328.5 331.2 333.4 334.9 336.7 339.2 342.8 346.8 351.4 355.8 360.2 365.1 370.3 375.5 380.4 386 391.5 393.2 397.6 401.8 404.6 406.4 408.9 410.2 412.5 415 415.3 415.5 414.9 412.3 410.8 409.5 408.1 407.3 405.4 402.3 399.6 396 392.5 387.1 382.4 379.1 376.6 369.3 367.3 363.6 359.9 356.3 353.1 350.4 347.8 345.7 343.8 344.2 347.7 354.8 366.3 375.5 385.1 395.2 400.4 403.8 404.5 400.1 392.7 382.2 371.8 362.2 353.7 341.7 333 325.9 321.7 316.3 307.9 298.9 288.9 280.1 275.6 271 267.6 261.8 253.5 245.8 251.1 253.3 259.4 265.3 272.7 277 277 252.1 229.6 213.4 205.2 198.6 198.6 183.3 171 159.1 138.8 121 101.4 76.1 67.6 61.1 58.9 62.6 68.2 74.4 79.1 76.3 69.9 64.7 63 65.9 65.1 61.4 56.8 51.5 47.6 44.6 43.6 42.4 35.8 29.7 29.6 29.6 30.6 30.8 30.4 30.6 32.8 35.3 33.9 32.2 30.4 29 26.2 29.8 36.6 37.1 25.7 15.8 7.3 2.4 -2.3 -2.3 -2.3 -2.3 -2.3 -2.3 -2.3 -2.3 -2.3 5.4 6.7 10 14.1 15.9 13.8 12.8 15.1 20.5 21.8 21.9 28.3 36 43.4 53.1 55.1 55.3 59.9 65.2 70.3 68.3 63.3 66.1 72.3 65.6 58.2
267.5 279.8 288.6 293.4 297.9 302.8 306.2 309.4 313.1 315.4 315.6 314.6 314.1 314.8 316.4 318.3 320.1 321.9 324.5 327 330 331.3 332.5 334.6 337.6 341.3 345.4 349.7 354.3 359.9 365.5 370.7 375.1 381.7 390 396.6 396.8 399.5 400.8 400.3 403.5 408.1 410.7 412.1 413.8 414.9 415.9 415.5 413.4 411.1 409.4 408 406.9 404.3 401.7 398.9 396.3 392.7 387.4 381.9 378.1 375.6 374.8 371.5 367.7 363.5 360.2 356.3 353.1 350.8 349.9 349.8 351.1 357.1 366.5 375.1 385.5 393.7 401.1 405 407.1 406.7 401.3 393.5 384.6 373 360.9 352.9 343.5 334.5 328.7 322.6 317.5 309 297.1 289.7 283.3 280.7 276.5 272.8 268.3 260.4 252.6 257.9 259.8 268.7 278 287.5 291.5 289 262.6 236.5 222.7 208.2 200.4 191.3 185.9 176.6 162.5 142.3 123.8 100.1 76.8 66.4 59.4 59.1 61.7 66.8 72.6 77.1 76.3 69.3 63.9 61.2 62.4 61.5 58.2 54.5 51.3 47.4 45.5 44.1 43.3 37.6 30 29.3 30.7 31.3 31 30.6 30.2 32 34.8 34.2 34.4 34.7 34.8 33.7 37.5 42.6 43.5 36.6 22.5 11.7 4.2 1.3 -2.3 -2.3 -2.3 -2.3 -2.3 -2.3 -2.3 -2.3 -2.3 4.6 6.2 9.6 10.6 11.2 11.4 15.6 19.5 19.7 21.6 27.2 35.8 45.2 55.9 58 58.3 61.8 66.8 71.1 69.8 66.8 71.6 78.8 75.8 65.3
280.5 290.5 296.9 299.3 301.9 303.3 304.5 306.2 309.2 311.5 312 311.1 311.3 312.2 314.1 316 317.9 319.6 321.4 324.1 326.8 329.5 331.5 334.4 336.6 339.8 343.8 348 351.9 357.2 362.6 367 371.9 380.3 385.6 388.9 393.4 396.5 395.9 399.2 403.5 407.7 410.7 414 415.4 416.1 416.4 416.2 414.6 412.6 410.1 408.2 406.2 404 400.9 398.4 396.2 392.6 388.2 383.7 381.5 379.5 377.2 374.3 370.8 366.5 363.3 360.4 356.9 355.3 355.5 356.6 361 370.8 378.3 388.2 392.9 398.7 402.7 406.9 408.9 407 400 394.5 385.8 374.2 361.5 350 343.1 334 328.6 325.7 318.1 309.8 293.7 289.8 287 284.9 281.6 277 270.2 259.4 266.4 267.7 269.2 281.8 293.4 299.1 305.4 290.2 272.2 246.8 235.4 211.5 197.9 192.9 182.6 172.7 162.7 143.3 120.2 99.6 77.1 64.1 59.2 59.1 60.7 64 67.9 71.1 73.8 69 63.5 59.6 59 57.4 55.6 51.7 48.9 46.9 45.1 42.9 42 37.1 30.2 29.6 31.1 31.4 31.1 30.9 30.9 31.4 34.6 34.7 35.6 37.6 41.2 38 42 47.5 48.8 40.6 32.5 22 8.6 3.5 0.5 -2.3 -2.3 -2.3 -2.3 -2.3 -2.3 -2.3 -2.3 -2.3 4 6.3 8.3 10.5 10.7 12.9 15.8 17.9 20.7 26.2 34.7 43.6 56.2 60.2 62 63.6 68.2 72.6 72.2 70.7 76.2 83.8 82.9 76
302.2 308.1 305.7 302.5 300.4 300 299.8 301.6 304.9 307.3 308.5 308.1 308 309.2 312 312.9 313.3 318.3 321.4 324.8 327.1 328.8 331.4 333.9 336 339.1 342.4 346 349.9 354.3 358.7 362.1 368.5 377.9 383.4 385.7 387.2 388.8 393.3 398.4 402.8 407.9 411.1 415.3 417.9 419.3 419.3 418.1 416.4 414.2 411.3 408.5 406.1 403.6 400.8 397.5 394.4 391.9 390.7 387.1 383.9 381.3 379.5 377 373.8 370 366.1 363.1 361.4 359.3 359.9 362.5 367.5 380 386.5 392.2 397.2 401.1 404.9 407.9 410 407.6 400 391 383.9 374 361.9 346.4 339 333 325.7 321.8 316.7 305.7 297.2 292.7 289.4 286.7 284 279.9 273.6 263.2 277.9 278.9 283.3 284.6 296.2 296.2 307.2 295 271.2 245.4 232.4 221 197.9 189.5 184.4 168.5 150.7 135.1 115.4 97.8 74.5 61.6 59.3 59.3 60 61.5 63.4 65.2 66.5 65 60.9 56.5 54.7 53.1 50.4 49.6 47.7 45.9 43 39.8 38.7 34.8 30.6 29.3 30 30.6 30.8 30.7 30.6 31.5 34.3 36.5 36.7 38.6 43.5 42.5 45 49.9 50.2 44 36.3 28.5 13.2 4.8 3.6 -2.3 -2.3 -2.3 -2.3 -2.3 -2.3 -2.3 -2.3 -2.3 0.3 4.8 4.8 9.3 9.7 12.4 13.6 15.8 20.1 24 32.8 41.9 53.3 61.5 63.8 65.2 68.9 74 74.6 73.9 79.1 87.4 90.1 86
321.8 315.7 306.5 299.9 293.5 292.7 293.1 296.7 300 302.4 303.9 304.6 304.8 306.3 304.7 313.6 317.4 320.6 323.6 326.7 329.5 331.8 333.6 336.1 338 340.6 342.4 345.2 348.6 351.5 355.4 359.2 362.9 369.7 375.4 380.2 382.8 384.2 391.9 397.9 402.4 408.1 412 417 418.9 421 421.6 420.4 418.8 416.5 413 409.4 406.8 404.5 401.4 400.2 399.4 396.9 394.7 391.5 387.7 385.1 382.6 380.2 377.1 373.5 369.3 368.4 366.4 365.2 365.6 367.5 370.5 378 388.6 396.8 402 406 407.9 408.9 409.3 405.6 397.4 387.3 380.1 371.2 361.4 345.9 338.1 332 325.4 318.2 310.9 305.1 300.6 295.6 291.3 287.4 283.5 280.7 273 271.6 282.7 287.4 291.8 291.8 297.3 289.4 286.1 284.6 269.8 245.5 223.6 212.9 201.4 193.2 185.4 167.4 149.6 132 112.1 90.5 70.3 62.2 59.4 60.7 63.2 62.7 61.5 60.8 60.8 59.7 57.1 53.9 51.9 49.7 48.5 48.8 47.1 43.8 39.7 36.6 35.4 33 30.8 29.8 30.7 31.3 31.2 31.2 31.2 31.7 35.3 37.5 39.5 42.5 46.9 48.1 48.9 52.1 51.4 46.5 38.8 30.6 17.8 7.2 4.1 3.3 -2.3 -2.3 -2.3 -2.3 -2.3 -2.3 -2.3 -2.3 -2.3 1.4 6.8 9.4 9.6 11.3 12.5 16.1 20.1 22.7 29.5 38.7 48.7 58.9 62.9 65.6 69 74.4 77.5 77 82.6 90.4 95.5 92.1
321.2 312.7 293.7 286.4 284.7 285.6 287.5 291.8 294.9 297.4 298.9 299.8 301.6 302.1 306.3 313 316.9 320.6 324.2 327.7 330.6 333.4 336.4 339 341.6 343.8 345.7 348 349 351.7 354.6 357.6 361.3 365.1 369.7 374.1 378.8 383.3 391 396.8 402.7 408.3 413.7 418.1 421.3 423 424.4 422.8 421 418.5 415.1 411.1 408 406.3 404.9 403.2 402 400.6 398.9 395.9 392.3 388.3 385.6 383.2 380.6 377.7 375.2 373.7 371.8 370.8 370.1 371.7 374.1 379.6 391.8 399.9 405.4 408.6 411.6 410.6 407.7 401.7 392.6 383.5 375.5 368.6 359.1 347.6 339.4 334 324.5 317.7 311 306.2 302.4 297.9 293.6 288.2 284.4 281.8 274.8 280.1 283.6 295.8 288.7 288.9 286.5 287.5 274.6 268.2 261.8 239.8 226.9 211.1 204.7 201.2 188.8 173.2 153.6 131.9 108.3 89.6 69.4 62.4 60 62.8 65.5 66.1 63.9 61.2 56.1 54.9 53.7 51.6 49.7 47.9 46.9 46 44.6 41.2 36.9 33.8 33.7 32.2 30.6 30.4 31.8 32.2 32 31.9 31.9 32.3 33.9 39.4 43.8 48.2 51.7 52.9 54.2 54.3 53.5 48.9 42.4 31.4 18.6 9.2 5.4 3.6 3.3 -2.3 -2.3 -2.3 -2.3 -2.3 -2.3 -2.3 -2.3 -2.3 2.6 6.5 8.8 11.3 12.5 14.2 17.3 20.6 25.5 33.6 45 52.8 60 68.4 70 74.2 78.6 78.5 85 92.3 97.6 97.8
310.7 294.7 274.9 274.2 276.9 279.6 282.6 286.9 289.7 292.4 293.7 288.4 294.1 304.1 308.1 312.5 316.4 320 323.6 327.3 331 334.2 337.4 340.8 344.3 347 349.1 350.8 352.9 354.1 356.3 359.3 362.2 366.2 369.8 373.9 378.7 384.8 390 397.1 404.6 410.2 415.9 419.4 423.2 426 426.5 424.8 423 419.6 416 412.5 410.8 409.3 408.2 407.1 407.8 407.8 404.7 400.8 396.3 391.9 388.8 386.2 384 381 380.9 380.1 378.2 377 377.8 377.9 378.5 383.6 392.2 400.2 407 410.9 411.9 411.1 404.9 398.2 389.7 380.2 372 366.5 357.7 350.1 341.3 335 324.9 318.4 313.9 308.4 304.5 300.4 297.2 294 288.2 286.2 277.6 281.7 287.1 283.3 283 283.9 281.6 278.5 275.2 259.3 252.4 235.9 224.1 212.6 204.4 202 196.7 177 158.6 125 103.9 86.5 66.8 60.9 61.4 62.4 66.6 68.4 66.8 62.4 54.6 51.6 50.8 48.9 46 43.8 43 42.8 40.7 38.1 34.1 31.7 32.6 32.4 30.9 31 32.6 33 32.7 32.7 32.6 33.2 37.3 44.2 47.4 52.6 56.9 59.6 60.1 58 56.4 49.6 47.3 36.1 19.7 12.4 8.7 5.7 4.3 3.8 -2.3 -2.3 -2.3 -2.3 -2.3 -2.3 -2.3 -2.3 -2.3 3.7 8.2 11.6 13 14.4 16.8 18.2 22.9 29.1 38.9 49.1 54.6 61.2 68 72.8 77.3 78.5 83.6 90.9 96 98.9
295.1 273.6 263.9 267 271.3 273.6 276.5 279.9 283.8 283.6 280.5 294.4 298.6 303 307.6 311.8 315.1 319.1 323 326.9 330.7 334.5 338.2 341.7 345.5 349.3 351.5 353.9 356 357.3 358.8 361.2 364.2 367.3 370.8 374.8 379 383.8 389.1 395.6 403.8 410.4 414.6 419.4 427.1 428.5 428.5 426.9 425.3 422.4 417.8 415.2 413.8 412.6 412 413.1 414.4 414.7 412.1 408.1 403.7 399.9 393.6 390.5 387.9 386.4 386.4 386.5 386.9 387.5 387.2 386.2 386.6 391.4 400.2 405 409.9 414.2 414.5 409.8 403.8 394.2 385.6 375.5 370.2 365.5 360.9 354 345.2 335.2 327.2 321.7 317.4 314.6 309.9 308.3 302.6 305.4 301.1 292.4 286.5 292.3 286.7 282.8 281.7 281.3 281.4 277.3 266.1 255.3 250.2 235.9 233.8 218.9 205.9 202.8 196.1 179.8 158.3 128.7 106.9 84 64.5 60.8 61.4 62.5 66.8 68.5 66.3 62.1 55.5 50.1 48.9 45.8 40.6 39.2 39.3 40.1 37.4 34.9 31.8 31.6 31.7 32 31.7 31.8 33.4 34.1 33.8 34 34.2 38.2 42.7 48.3 52 57.9 64.4 67.1 66.7 62.8 59 54.3 49.7 36.8 21.3 16 12 8.7 7.5 6.3 4.4 -2.3 -2.3 -2.3 -2.3 -2.3 -2.3 -2.3 -2.3 -2.3 4.6 9 11 13 14.4 16.6 17.5 24.7 31.6 41.6 51.4 58.7 65.9 73.1 75.6 77.1 81.5 87.6 94.1 96.7
265.9 257.5 252.5 244.6 250 253.6 257.1 257.8 266.5 273.3 288.1 293.4 297.4 302.2 306.9 311.5 315.1 319.5 324 328.4 332.2 335.9 340 344 347.8 351.2 354.3 356.9 359 360.6 362.1 363.4 366.5 369.5 372.5 376.4 380.6 385.1 389.8 394.9 403.1 410.5 416.3 422.3 428.4 431.4 431.8 430.7 429.3 427.1 421.8 421.5 419.3 417.6 417.9 418.6 421.4 422.1 418.3 414.9 412 406.8 399.7 395.6 392.4 391.7 392.4 393.2 395.2 396.8 397.2 395.1 394.9 399.4 407.5 412.1 415 417 418.3 408.5 401.3 391.9 382.5 375.5 370.2 365.8 361.4 355.5 349.5 337.7 331.4 326.3 321.7 318.9 318.8 317.1 315.1 315.1 319.3 306.8 298.5 292.9 288.3 283.4 283.7 282.7 281.5 279.9 267 253.9 250.7 240.7 232.8 218.7 206.8 205.6 201.2 180.7 161.2 133.2 107 85 64.2 63.4 64 62.7 65.8 67.8 65.1 60.8 54.5 50.4 46.8 43 40.1 37.4 37.8 38.6 35.1 32.7 32 31.4 31.5 31.8 32.5 34.1 36.2 37.6 36.6 35.6 38.2 42.4 46.4 52.3 57.2 64.9 70.7 74.2 72.7 68.8 63.8 59.3 52.1 40.8 26.6 21.3 16.4 12 10.3 8.3 6.1 4.8 3 -2.3 -2.3 -2.3 -2.3 -2.3 -2.3 -2.3 -2.3 -2.3 7.9 13.4 14.2 14.5 15.2 19.3 27.6 35.4 45.2 55.9 62 70.2 73.7 74.9 78.8 84.9 90.7 92.7
237.6 232.6 221.1 230.1 251.8 253.5 260.5 275.5 277 284 289.2 293.9 298 303.5 307.4 311.6 316.2 320.6 325.1 329.5 333.7 337.5 341.8 346.2 350.1 353.2 356.2 359.4 361.8 363.7 365.2 366.3 368.6 371.6 374.5 378 382.2 386.5 391.6 396.6 403.6 412.1 419.3 424.1 430 434 435.5 435.9 438.2 439.1 435.1 431.3 426.5 424.2 423.3 425.6 430 429.2 424.3 421.5 419.5 414.3 406.2 400.3 397.4 396.9 397.4 398.1 399.4 403.2 404.1 404 403.4 408.6 415.5 419 420.3 417.4 419.3 408.4 401 391.7 384.4 377.2 371.6 366.8 361.8 356.7 351.9 341.7 336.1 331.5 327.4 326.1 329.1 330.4 326.2 322.5 330.2 323 312.7 298.5 290.7 293 289.1 283.2 276.1 268 261.8 253.1 249.1 239.7 229.4 219.8 207.3 211 203.7 181.6 159.7 125.3 101.7 74.3 63.2 67.3 68.6 63.3 63.7 65 62.9 58.9 54.1 48.9 45.7 42.5 39.5 37.4 37.3 35.7 32.9 32.4 32.2 31.5 31.8 35.4 37.1 38.3 42.8 42.7 40.8 37.3 40.6 46.9 52.3 56.3 62 69.1 75.7 80.5 78 73.4 69.6 66.5 57.8 46.9 34.2 26.4 20.7 16.1 12.8 10.2 8.2 7.7 5.2 3 0.7 -2.3 -2.3 -2.3 -2.3 -2.3 -2.3 -2.3 -2.3 11 13.9 14.1 14.2 17 24.3 30.9 41.2 49.9 57.7 66.7 72.7 71.2 75.3 81.1 87.2 89.7
210.8 211.3 219.6 238.9 257.6 263.7 269.6 275.6 280.7 285.2 289.7 294.5 299.6 305.8 310.7 314.5 318 322.3 326.7 331 335.2 339.7 344.5 349 353.2 356.1 359 361.6 363.8 365.5 367.1 368.7 370.4 373.3 376.5 379.5 383.8 388 392.5 397 405 412.1 421.2 425.8 430.9 435.3 439.8 445.8 449.9 450.4 448.4 441.8 437 435.8 431.8 434.3 437 438.6 434.3 428.8 426 420.8 414.1 406.9 403.4 404.7 407.1 407.6 412.7 413 414.4 413 412.5 416.9 420.9 423.8 423.1 417.7 413 411 406.3 395 388.4 380.6 372.9 367.4 363 359.3 356 347.4 341.1 337.4 337.6 339.1 342.8 348.2 351.6 342.6 326 317.3 312.8 296.9 291.7 295.2 292.1 284.5 274.3 269.1 261.8 251.8 245.3 235.8 223.6 215.4 206.7 211 201 178.9 157.7 118.1 89.8 67.5 66.6 69.8 71.1 66.5 62.8 63.4 61.7 57.4 52.8 48.5 45.1 41.8 38.1 36.8 35.7 33.5 32.9 32.1 31.7 32.2 35.9 40.8 43.8 47 50.4 49.9 48.2 42.1 43.6 50.4 55.2 59.3 66.1 72.4 78.8 84.7 83.4 79.3 77.7 74.8 66.6 57.3 44 36.1 27.9 20.9 16.5 12.2 10.4 8.6 5.7 3.6 3.2 1.3 -2.3 -2.3 -2.3 -2.3 -2.3 -2.3 -2.3 4.5 9.6 11 12.5 15.4 21.1 27.7 35.5 44.7 55.9 63.7 70.5 67.8 71.6 78.9 86.9 90.4
214.3 225.9 240.6 251.5 257.6 264.2 270.7 276.1 281.6 286.2 290.8 295.4 301.3 307.5 313.7 317.5 321.7 326.2 330.4 334.7 339.5 344.2 348.3 352.5 356.9 360.1 363.2 365.5 366.7 367.4 368.7 370.7 372.6 374.8 378 381.7 385.4 389.9 394.7 400.1 406.3 414.2 421.7 428.8 435.5 444.1 451.1 456.6 462 464.2 461 453.1 448.4 445 441.4 442.6 447 446.8 442.1 436 431.4 425 419.1 414.3 411.6 412.5 416.4 420.9 419 423.6 426.4 432.9 430.7 426 428.1 424.7 425.7 418.3 413.4 411.2 406.1 397 390.2 387.6 381.9 374.4 368.9 364.2 360.9 353.9 347.6 347.9 349.2 352.4 357.7 365.6 368.6 360.7 342.6 320.5 304.7 295.1 293.7 296.1 289.6 285 283.9 277.3 263.8 251.7 240.4 231.6 218.4 214.1 204.9 203.2 195.4 169.3 142.3 108.8 81.7 69 68.8 71.7 72.8 69.5 65.4 61.5 60.5 55.9 51.4 48 44.8 41 37.6 36.1 34.1 33 32.9 32.5 31 34.6 40.7 47.5 55.1 59 60.3 60.4 56.7 50.6 51.5 55.8 58.9 63.7 68.4 74.2 80 87.4 87.4 86 85.7 82.1 75.2 66.8 56.6 46.2 36.1 25.6 20.5 15.2 13.1 11 6.1 3.8 4.1 3.5 2.5 -2.3 -2.3 -2.3 -2.3 -2.3 -2.3 -2.3 4.2 8.6 11.8 14.5 17.8 23.9 32.2 41.1 52.1 61.6 66.7 64.2 70.1 79 88.3 93.2
221.7 234.2 244.2 251.4 257.9 264.9 271.8 277.3 283 288.2 293.3 298.3 303.7 310 316.1 322.3 326.1 330.6 335.6 340.4 345.9 349.7 354.3 357.7 360.5 364.1 367.8 370.6 372.1 372.1 372.4 373.3 375.8 378.1 380 384.1 388 392.1 397.4 404.2 410.2 417.3 424.8 434.4 442.9 454.6 462 466.5 469.9 469.9 467.4 462.4 458.3 454.1 450.7 450.7 455.6 456.7 452.1 446.1 440.7 433.8 429 426.9 426.5 426.1 429 433.7 435.2 435 438.4 443.1 445.2 440.7 435.8 435.1 432.6 421.6 414.1 413.5 413.6 411.1 396.8 391.9 390.1 387 382 377.3 367.7 360.4 354.1 358.8 364.3 368.6 372.1 379.8 378.2 369.2 348.2 329.5 309.4 297.4 292.8 292 287.6 286.4 277.6 272.1 262 253 245 232.3 215.9 207.5 200.8 194 174.7 155.5 128.7 99.2 78.5 69.8 70.5 73.3 74 70.3 65.6 60 58.1 54 50.3 46.2 42.2 38.5 36.5 34.6 33.8 34.3 33.5 32.8 33.5 36.2 47.7 64.3 69 74.7 73.6 68.5 60.8 52.7 57.2 60.3 63.4 66.2 68.7 74.6 80.8 88.4 90.2 90.7 93.3 89.4 81.8 74.7 64.1 55.1 43.1 33.5 23.9 18.7 16 18 18.2 9.1 4.9 3.4 2.9 4.4 1.6 -2.3 -2.3 -2.3 -2.3 -2.3 -2.3 -2.3 9 13 17.8 22.4 28.9 36.9 47.7 58.1 62.1 61.3 66.1 80 91.9 96.5
222.8 234.4 245 253.2 260.8 266.8 273.7 279.3 285.2 290.6 296.2 301.9 306.4 312.2 318.1 326.3 331.7 335.8 341.4 347.2 351.3 355.5 360.4 364 366.6 369.3 372.4 375.1 377 379 380.6 380.5 382.4 383.7 385.5 387.1 391.1 395.3 400.7 407.8 414.7 422.7 432.9 442.3 451.9 462.2 467.1 471.3 473.2 472.5 468.9 468.9 464.4 459.9 457.8 458.5 464 467.2 464.1 457.5 452.4 448.2 442.1 439.1 439.8 441.8 443.7 445.8 453.3 455 457.2 456.1 453.6 452.7 447.5 445.7 431.4 422.3 419.1 423.4 423 420.2 409.8 404.9 400.5 398.4 395.9 392.1 389.8 373.3 363 368.8 382.8 394 396.8 383.4 376.5 364 348.9 327.3 314.3 312.7 300.8 291.3 292.7 288.3 279.8 268.8 266.6 257.9 249.2 234.8 217.9 204 190.7 175.5 158.4 134.1 112.2 92.2 78.4 69.8 70.7 74.1 73.4 69.4 63.9 59.3 56 52 49.2 46.1 42.1 40.4 36 34.4 35.1 35.8 34.7 33.9 33.5 40.3 59.9 76.2 82.1 89 83.9 75.4 64.4 58.4 62.1 64.8 67.3 68.8 70.3 74.8 81.4 89.3 93.1 94.4 98.6 97.1 91 84.2 72.9 62 49 40.1 29.4 22.4 18.7 13.6 8.7 5.7 4.8 3.8 3.5 3.1 3 2.7 1.1 -2.3 -2.3 -2.3 -2.3 -2.3 -2.3 9.3 16.2 19.4 24.8 32.6 42.9 52.8 56.6 57.7 63.9 83.1 101 100.6
214.7 233.8 244 252.9 261 268.7 274.9 281.4 287.4 293 298.5 303.7 308.8 313.9 319.8 329.1 336.2 340.8 346.4 352.3 357.5 361.6 367.1 371 375.1 378 377.1 379.7 382.2 385.4 389.1 390.6 391.3 392.4 392.2 393.1 395.6 399.3 404.8 411.1 418.8 427 436.2 446.7 458.8 467.3 470.3 472.5 474 474.7 473.7 472.4 468.6 466.8 465.7 467.4 471.3 472.2 471.2 467.2 461.7 457 451.7 450.2 454.4 457.6 463.1 460.8 465.6 472.7 474.8 474.4 466.5 459.8 455 450.1 439.7 435.1 427.9 431.1 431.9 426.6 419.6 417.4 416.3 408.8 404.7 400.6 395.9 383.4 372.9 374.9 397 402.3 399.7 384.8 375.7 362.6 343.9 322.3 319.3 321.1 314.5 293.6 284.5 283.9 278.4 271.5 267 258.1 244.7 233 219.4 199.3 180.1 159.1 136.9 118.2 97.9 85.5 78.7 75.5 72 73.6 71.7 67.6 62.2 58.5 54.7 51 47.8 45.7 44.7 40.8 35.8 35.5 36.4 36.3 35.7 35.2 34.5 43 73.3 85.2 92 97 91.3 79.4 66.3 65 67 70.4 74.3 73.1 71.6 75.2 81.5 91.6 94.9 98.1 102.6 101.2 97.1 91.8 82.4 71.7 59.3 46.8 36.8 30.2 24.8 15.7 11.5 6.6 4.7 4.1 3.8 3.4 3.4 2.6 2.4 2.7 0.5 -2.3 -2.3 -2.3 -2.3 -2.3 11.5 16.3 20.3 27.8 37.7 49.4 51.7 53.6 60.4 77.9 92.1 94.9
225.8 223.3 239.6 249.7 258.1 265.9 274.9 282.5 288.9 294.9 299.9 305.3 310.6 316.1 323.3 331.8 339.3 344.6 350.2 356.2 360.4 366.1 372.4 379.2 383.3 383 382.3 382.4 386.6 391.4 395.9 398.4 400 400.1 399.5 399.2 400.5 404.3 409.2 414.1 421 428.6 440.5 449.2 457.4 467.9 473.4 475 476.5 477.3 476.6 475.7 473.6 472.7 473 474.4 475.5 476.4 477.8 471.5 468.6 464.5 461.9 464 467.5 470.9 473.5 482 482.1 484.6 485.8 483.8 478.6 471.1 467.1 459.2 460.7 452.6 443.8 436.5 443 441.4 435.7 432.9 426.6 422.6 415.9 406.9 398.4 396.2 382.2 374.3 390.8 396.3 398.2 386.5 374.4 361.7 341.9 323.3 324.2 327.9 317 302.4 279.5 269.3 268.3 270.7 261.2 250.7 239 228.4 214 191 167.8 144.2 121.5 103.9 91.8 84.7 81.2 78.5 73.7 73.5 70 65 60.1 56.2 52.7 49 46.1 45.5 44.5 39.8 35.5 35.8 36.1 35.7 36 35.1 35.1 46.3 71.6 86.5 93.1 95.6 90 81 69.1 67.2 70.2 76.1 78.5 76.9 72.4 76.1 83.8 92.4 96.4 101.4 104.7 104 100.5 96.3 88.1 80.3 70.8 55.2 43.2 36.8 29.2 26.1 17.1 11.9 9 5.7 4.2 3.9 3.4 3 3.2 3.3 4.2 1.7 -2.3 -2.3 -2.3 -2.3 5.3 13 16.9 20.7 30.6 41.8 48.2 50.3 55.7 64.9 78.6 82.1
240.3 230.2 229.1 240.6 250.1 262.2 274.5 283.2 289.2 295.6 301.4 306.8 312.1 318.7 326.3 333.3 339.4 345.3 352.4 357.7 362.3 367.7 374.8 381.5 385.8 385.6 385.2 386.5 390.2 395.3 400.3 403.8 405.8 406.8 406.8 406.6 406 408.9 413.2 417.3 424.8 432.6 440.3 450.8 460.7 469.9 476.9 479.5 480.4 479 478.3 477.9 477.8 477.1 479.2 481.3 482.7 481 478.4 477.9 474.5 473.5 475.1 478.6 485.9 481.1 484.8 494.1 496.7 499 494.4 492.1 494.5 494 489.3 480.5 462.9 463.5 459.6 453.7 445.3 447.8 443.7 441.4 437.7 429.9 420 412.9 403.9 395.3 384.7 377.1 380.2 393.2 390 380.5 365.9 356.3 339.8 329.4 332.3 327.7 317.3 301.3 283.9 265.2 250.2 251.5 252.1 243.2 231.5 218.9 202.4 179.5 154.5 127.3 112.4 102.5 93.3 86.4 83.1 78.8 72.8 70.4 67.2 61.9 58.8 53.8 50.8 47.2 44.8 43.3 40.8 38.5 35.9 35.5 35.6 35 34.2 34.3 38.1 45.3 58.3 75.1 79.5 91 85.6 74.3 68.7 65.8 69.2 71.1 73 73.7 74 75.5 84.7 92.5 98.3 103.2 105.8 104.9 102 97.9 91.6 85.2 76.4 67.7 51.7 43.2 35.2 31 24.4 18.2 13.1 9.1 5.9 3.9 3.4 3.5 3.4 3.3 3.3 3.8 2.6 0.8 -2.3 -2.3 -2.3 7.6 15.5 18.9 23.7 35.5 43.7 47.3 54.5 62.8 68.7 75.6
256.1 253.6 249.6 249.5 242.9 255.6 270.7 281 287.4 296 303.8 309.1 314.4 320 327.2 333.9 338.3 344.9 352.5 357 361.4 367.4 374 380.9 384 385.5 386.3 389.4 393.1 398.5 403.3 407.2 410 411.3 411.5 411.2 411.1 412.8 415.6 420.8 427.9 436.1 446.3 455.5 466.6 475 480.3 483.2 485.6 482.4 480.7 480.3 480.8 483.5 484.8 485.4 484 482.2 480.5 481.7 483.3 481.9 485.6 490.1 497 495.5 498.4 507.6 514.3 519.1 516.6 516 511.3 505.7 502.5 492.8 482.7 476.7 472.2 464.9 458.5 449.3 446.2 446.8 445.6 437.6 426.3 418 410.3 399 382.8 379.2 376.9 382 383.9 377.3 360.7 344.1 336.9 339 334.7 325.3 309.3 294.6 280.8 262.4 240.2 235.6 235.2 231 218.8 208.5 193.9 169 137.8 119.2 110.2 102.9 96.2 88.3 82.2 76.1 69.1 66 62.3 58.7 55.6 53 49.2 46.5 43.4 41.2 39.9 38 35.9 35 35.5 34.8 35.3 38.3 44.6 52.8 60.4 71 76.6 80.7 75.9 69.1 63.5 62.9 63.3 65.2 70.2 74.1 75.3 76.3 85.2 92 98.7 104.1 107.6 105.7 103.6 99.2 93.2 87.1 79.9 72.1 59.2 46.5 38.7 38 34.6 25.2 16.8 11.1 7.8 5.5 3.6 3.5 3.4 3.3 3.1 3.5 2.9 3.2 1.2 -2.3 -2.3 -2.3 10.7 15.8 20.4 30.1 39 44.5 50.4 58.6 62.4 66.9
269.5 272.8 273.4 270.6 263.5 254.1 266.4 280.1 288.3 295.9 304.7 311.5 316.6 322.2 328 333.4 338.7 344 350.3 355.5 361.1 367 372.8 377.4 381.4 384.4 386.2 389.2 393.8 400.1 405.7 410.1 412.7 414.6 415.5 415.6 415.8 417 418.6 422.6 429.8 441.1 451.6 460.5 469.5 478.9 486.1 487.1 489.2 487.3 483.5 484.6 486.7 487.5 488.4 487.8 486.4 486.8 485.8 485.7 486.8 487.5 495.4 505.7 510.2 508.4 508.6 524.2 530 533.7 534.1 528.2 521.7 516.9 509.4 502.2 493.9 491.7 486.5 478.3 465.2 455.9 449.1 445.3 446 438.2 429.6 421.3 414.2 404.8 384.3 377.3 375.4 374.9 373.1 368.3 356.7 343.9 336.4 333.4 328.4 313.3 295.8 283.3 272.5 255.2 238.6 228.5 218.5 217.5 209.7 193.4 179.9 157.8 124.3 112.4 108.8 101.2 94.3 85.8 78.7 72.8 65.6 60.2 58.1 54.8 51.4 49.4 48.3 46.1 42.6 40.5 39.3 37.6 36.3 35.1 35 36.8 39.5 44.8 52.5 57.7 66 75.2 79.9 77.8 72.3 67.5 63.3 62.5 63.1 63.8 67.5 74.7 75.8 76.6 84.8 92.8 99.6 104.9 106.4 105.4 103 98.1 92.5 86.6 80.6 72.4 60.9 48.7 42.1 41.8 40.1 33.8 21.6 14.2 9.2 6.1 4 3.5 3.4 3.2 3.1 3.2 2.9 3.5 3.4 -2.3 -2.3 -2.3 -2.3 12.2 18.3 25.7 35.3 42 46.1 53.8 58 61.2
281.3 286.2 285.5 285.5 284.7 275.6 264.4 275.4 291.3 299.3 307 313.9 319.4 325 330.6 335.8 339.9 344.6 349.8 355.1 361.1 366.2 370 373.6 378.2 381.8 384.6 388.2 393.4 400 407.1 411.1 414.7 418.6 419.8 420.5 421.6 423.3 424.7 428 431.9 439.8 455.6 466.1 475.8 483 488.8 491.8 492 491.4 486.1 484.7 488.9 489.6 490 491.2 492.5 494.4 494 493.6 497.5 497.3 503.1 514.9 525.4 527.5 525.2 532.3 538.1 545.1 547.3 540 532.9 528.8 522.5 514.6 509.6 508.6 500.9 487.2 475.8 459.9 453.4 445.4 443.7 437.4 429 418.8 413.5 404.4 386.1 378.9 371.2 368.2 364.9 356.5 348.9 344.4 335.6 325.5 317.4 303.1 285.6 274.7 264.6 252.3 236.2 220.6 202.9 188.7 192.5 185.6 159.6 132.5 111.6 104.3 101.4 97.8 89.6 82 75.6 69.8 63.5 59.2 55.4 52.9 50.3 48.2 47.3 45.4 42.8 39.9 38.6 37.3 36.8 35.6 36.7 39.6 43.1 50.7 56 59.5 71.1 79 85.6 80.6 76.8 71.6 66.8 64.4 63.8 64.6 68.1 74.8 76.4 78.6 85.6 94.1 100.3 104.9 105 103.2 100.6 95.8 90.8 85.5 80.2 72.1 62 51.8 45.7 46.9 46.8 42.8 29.4 18.5 11 7.9 5.8 3.6 3.4 3.2 3.1 2.9 3.1 3.2 4 1.8 -2.3 -2.3 -2.3 10.5 16.5 23.2 33.8 38.9 42.6 48.9 53.1 54.5
291.8 294.8 294.7 293.8 293.1 290.8 283.1 274.3 294.3 304.2 311.2 317.2 322.7 328.5 333.1 337.8 342 345.7 350.4 354.9 359.5 363.4 367.2 370.9 375.4 379.3 382.6 387.6 392.8 399.7 407.8 414 418.3 421.4 424.2 426.5 427.9 429.8 434.5 437.5 439.4 443.5 451.9 465.6 478.1 485.4 489 493.3 495.1 492.6 487.9 485.8 486.7 491.5 492.3 493.5 496.1 497.4 501.3 507.7 507.6 510.7 511.1 514.4 525.6 537.8 541 538.4 547.1 551.5 559.1 557.9 551.6 544.3 539.1 530.9 526.9 521.4 506 492.8 474.7 466 455.9 447.1 441.8 438.1 428.3 416.4 410.9 401.3 388.2 382.3 377.5 366.6 359.7 352.8 347.1 341.7 334.7 323.9 311.4 293 282.4 274.1 263.6 254.5 241.6 225.5 201.3 175.8 160.8 158.9 139.4 117.2 102.2 98.3 95.8 89.4 83.4 77.3 71.6 66.8 61.2 57.8 54 51.9 50.3 48.5 46.1 43.4 41.2 39.4 37.8 38.1 40.5 39.1 39.1 41.9 48.6 53.5 57.1 68.1 74.2 83.5 82.2 80.1 80.7 75.1 69.4 66.2 67.1 69.8 74.3 78.7 77.8 79.7 86.6 95.7 101.5 104.9 103.8 100.8 97.7 94 89 85.1 79.5 71.1 62.4 55.3 53.8 55.5 54.7 49.6 36.7 26.2 18 10.9 6.8 4.6 3.6 3.4 3.1 2.8 2.8 2.9 3.2 3 -2.3 -2.3 -2.3 7.2 15 18.7 28.9 35.4 39.8 44.1 48.4 50.4
301.2 304.5 305.2 303.8 301.6 299.8 295.8 281.8 295.8 306.2 314.7 321.8 327 332.1 336.5 340.9 344.8 348.3 352.9 356.8 360.3 363.6 366.7 369.8 373.7 377.9 382.5 387.8 393.1 399.3 409.8 416.7 422.1 425.1 427.9 432.9 437 439.4 444.2 447.2 450.6 454.9 458.6 467.4 476.4 485 490 495.9 495.6 490.1 487.1 488.6 489.7 490.6 496.5 499.5 504.9 510.8 513.6 515.3 517.2 518.7 522.4 531.2 533.6 541.8 549.2 548.8 549.7 555.1 560.5 558 557.6 548.1 545.1 540.5 537.1 524.7 504.9 487.5 469.2 461.6 452.8 443.3 438.9 429.6 422.6 415.1 408.9 397.2 390.7 385.3 388.6 378.7 369.3 355.1 348.6 341 334.6 319.4 305.6 292.6 287.7 279.6 268.9 260.5 242.5 228.4 200.6 181.1 148 133.6 119.6 106.3 98 91.8 85.8 82.7 78.5 72.3 66.2 62.4 59 57.9 54.6 52.7 51.5 51.5 45.2 41.9 40.3 39.9 41 42.1 43 42.5 43.1 42.4 51 56.4 61.2 76.5 80 84.3 82.4 77.2 78 73.2 71.4 67.3 67.1 72.8 77.1 80.7 78.8 79.9 89.6 98.3 104.8 107.6 105.6 102 98.3 93.1 88 83.3 79.3 68.1 62.6 59.7 61.6 63.1 60.7 54.7 42.7 32.6 26.3 20 13.8 8.9 4.4 3.3 3 2.7 2.5 2.7 3.3 3.9 0.2 -2.3 -2.3 5.6 13.3 18.8 24.8 31.6 35.4 39.8 44.4 47.9
306.3 312.2 312.4 311.6 310.5 309.1 306.8 300.2 289.7 306.9 315.6 323.8 330.6 335.7 339.9 343.6 347 350.6 353.7 357.4 360.5 363.5 366.9 370.4 374 378.1 383 387.8 394.1 401.4 410.8 419.4 427.5 429.6 431.2 435 441.6 449.3 454.4 460.3 465.6 469 472.2 476.1 483.1 486 492.3 493.9 490.6 487.9 487.6 490 490.8 495.6 502.7 508.8 514.4 519 524.4 532.5 537.4 537.1 533.3 539.2 548 554.9 562.8 558.8 558.8 557.6 557.4 559.4 572.6 559.3 549.1 545 537.7 520.9 504.1 489.5 471 457.9 448.4 436.9 429.5 423.3 414.5 414 412.4 398.5 395.1 390.9 393.2 388.2 384.4 367 351.6 342.8 341.2 330.7 314.4 301.8 293.8 286.3 270.3 253.6 240.5 228 198.9 172.8 149.9 126.2 113.2 102.5 92.4 84.7 79.9 77.3 73.8 69.4 62.7 59.4 57.2 56.7 55.5 52.5 50.1 46.3 45.3 43 41.1 42.7 44.1 44 43.8 44.6 45.6 45.8 52.1 58.7 66.6 80 86.2 86.8 79.4 75.3 75 74 72.5 69.4 67.2 74.9 78.5 81.6 81.1 82 93 103.3 110.1 111.5 109.9 105.5 100.2 95.1 88.9 83.6 78.3 67.6 65.2 64.2 66.1 69.3 65.1 58.1 47.5 38.1 30.7 24.8 18.8 13.6 6.7 4 3.3 2.7 2.5 3 3.3 3.8 1.1 -2.3 -2.3 3.5 14.1 22 26.6 29.9 36 37.8 41.5 45.9
307.1 315.5 319.5 319.7 318 317.2 317.5 316.4 303.6 303.8 315.5 323.2 331.1 337.8 342.4 345.3 348.8 351.6 354.1 357.3 360.5 364 367.5 371 374.5 378.1 382.9 387.9 394.6 402.6 413.4 422.4 428.9 433.1 438.1 446.3 453.1 459.1 464.9 471.5 477.5 481.7 485.2 487.1 491.5 493.9 495.7 498.1 497.6 492.2 492.5 492.7 496.3 503.8 510.4 516.8 520.4 534.7 539.2 552 553.8 551.5 549.7 550.1 555 562.9 570.6 567.4 568.7 566.7 567.9 568.1 577.9 571.9 564.3 555.2 541.6 528 512.2 495.1 476 466.6 456.7 438.8 427.7 418.2 410.4 406.9 405.1 399.4 398.3 396.1 395.5 400.4 389.5 378 357.9 349.7 343.4 337.4 323.2 308.3 298.7 284.5 264.3 249.3 240 219.9 189.9 161.9 138.3 124.3 112.5 97.5 86.5 80.6 75.7 72.2 69.9 66.7 61.4 59 55.6 54.4 53.4 51.4 49.3 47.3 47.7 45.6 41.8 41.7 45 46.1 46.6 45.8 46.2 47.2 54.7 65.2 73.4 79.3 84.6 86.6 79.9 76.7 75.2 73.5 73.1 69.9 68.2 75.8 79.6 84.3 83.3 84 96 107.6 115.9 117.7 114.8 109 103.7 97.7 91.1 84.8 78.3 73 69 70.3 71.2 70.3 66.8 60.7 50.8 42.8 33 25.4 20 14.7 8.1 5.6 4.5 2.8 2.4 2.8 3.3 3.7 1.4 -2.3 -2.3 -2.3 15.4 24.3 31.5 34.6 35.2 35.8 39.8 45.9
