ncols 200
nrows 82
xllcorner 280000
yllcorner 344850
cellsize 50
307.2 313.6 319.9 326.8 334.3 342.4 351.7 362.2 371.1 379.2 383.7 386.5 390.6 392.6 391.3 390.3 387.3 384.8 381.5 378.6 374.9 371.5 365.6 361.9 359.8 355 350.1 346 342.7 339 336.4 331.9 325.1 321.5 319.5 317.4 318 321.7 327.8 330.3 329.8 326 320.4 314.7 307.6 302.4 296.5 295.7 296.5 292.2 295 298.4 303.5 310.1 316.3 320.7 329.3 342.6 350.3 351.9 351.9 349.8 346.9 339.5 335 332.3 330.4 331.1 333 334.3 338.1 341.8 340.7 329.5 317.8 305.6 295.2 283.8 273.3 260.2 250.7 239.3 231.9 227.2 219.6 212.7 213.8 213 216.9 218.1 220.2 224.6 234.5 244.7 251.7 257.8 260.8 264.1 267.2 269.8 273.5 276.2 279.5 281.9 284.3 285.2 286.7 287.5 285.2 285.3 287.1 287.9 287.8 287.1 286.2 284.9 281.5 269.8 256.8 267.4 282.6 287.5 290.5 292.7 295 296.5 296.3 296.8 297 300.2 302.4 305 309.5 313.8 316.3 319.1 322 325 327.7 329.8 332.1 335.6 336.2 337.3 341.4 345.8 348.6 351.8 356 358.4 360.9 363.4 364.8 366.2 367.6 369 368.3 367.4 369 371 371.8 371.7 374.3 375.8 377.9 379.6 383.1 387.4 390.7 392.5 393.4 394.3 394.6 393.2 392.3 389.9 386.6 382 375.8 371.2 367.3 362.5 358.1 352.5 347.7 344.1 340.4 339.3 341.4 344.4 345.3 344.8 346.5 347.7 348.2 348.5 349.8 351.5 352.5 352.6
315.7 321.6 329.1 335.6 343.5 352.3 361.5 374 382.4 388 392.5 392.6 393.5 392.6 392.9 387.9 384.1 382.3 379.1 376.2 371.2 368 363.5 359.2 355.6 353.3 347.2 344.1 340.4 336.4 332.8 328.3 322.9 319.7 318.6 318.5 319.9 324.3 329.1 330.3 328.2 324.1 319.6 313.6 308.3 295.7 303 301 297.5 296.8 300.5 302.8 309.7 315.3 321.7 330 346.8 357.4 360.9 360.9 361.3 357.7 352.6 343.9 339.5 336.2 333.4 334.1 335.8 336.9 339.7 339.1 336.2 322.6 308 295.9 287.4 274.1 263.6 254.1 245 236.9 228.7 221.3 213 214.3 216.2 215.5 217.1 219.3 222.9 229.2 239 246.8 255.8 260.5 263.5 266 269.5 275.5 278.3 280.3 282.3 284.1 286.3 288.6 290.3 290.9 287.2 286.4 289.3 290.3 290.5 289.7 288.8 286.9 283.1 276.2 263.8 257.4 277.7 284.7 288.9 292.4 294.5 296.3 297.2 297.8 298.5 299.7 302.6 308.7 313.2 317.2 320.3 322.2 325.3 328.5 331.1 333.2 336.3 340 341.3 342.6 347.4 351 353.3 356.4 360.9 362.6 365.1 366.8 368.1 369.5 370.3 371.3 372.8 372.7 374.7 375.8 377.4 379.8 382 382.5 382.4 384 389.9 393.6 398.4 401.1 403.5 404.8 403.1 400.1 400.1 397.6 394.9 390.7 386.2 382.9 378.8 374.5 372.7 366 359.6 354.6 349 346.9 348.5 349.4 349.5 349 351.7 353.7 354.3 354.3 355.5 356.2 356.8 357.5
324 329.8 337.5 344.2 352.1 364.5 378.9 387.1 393.7 398.4 401.1 397.7 394.5 391.9 390.3 385.5 382.5 379.9 377.2 372.4 369 365.8 362 358.2 353.4 349.5 345.3 341.3 336.9 332.4 329.4 326.3 323.3 324.9 321 319.5 321.5 326.1 330.1 330 326.2 322.3 317.5 312.4 302.8 307.3 307.9 305.8 300.2 302.9 308.6 311.7 315.2 322.9 331.7 341.5 357.8 366.2 369.1 370.2 368.4 364.7 357.3 348.9 343.2 339.9 335.9 337.7 338.4 339.4 340.3 338.9 330.2 315.4 302 292.7 281.7 270.7 259.2 250.7 242.3 233.3 224.1 216.4 212.6 216.2 218.1 218.3 217.7 220 224.2 233.2 242.8 249.4 258.3 264 267.2 270.4 274.5 278.6 280.8 282.4 283.9 285.6 287.8 290.4 292.9 292 287.2 290.2 291.5 292.2 292.9 292.4 290.7 288.9 284.8 278.7 271.1 260.5 275.9 284.8 289.3 293 295.1 297.4 298.3 299 299.6 301.2 303.3 309.3 314.6 318.3 321.4 325 328.3 330.8 333.3 336.1 339.4 342.6 343.9 347.2 351 354.4 358 362.4 366.8 368.9 369.6 370.5 372.1 374.1 375.5 375.8 377 378.7 380.8 383.4 386.8 388.8 389.5 389.9 391.9 397.1 400.3 403.6 406.2 409.3 414.6 416.7 415.3 415.4 408.9 403.5 401.7 400 397.2 395.3 390.6 388.8 382 375.5 368 364 358.3 355.2 354 354.6 355.3 356.2 357.2 360.7 360.4 360.5 361.7 362.6 363.3 364
331.5 337.9 344.6 352.8 364.9 381.3 392 399.4 404.8 407.7 404.4 398.3 392.8 390.2 387.5 385.1 382.1 378.6 373.8 370.4 368.1 366 361.4 353.7 350.1 347.7 344.7 343.6 340.7 331.8 328.6 326.8 325.6 326.1 322.7 321.8 324.3 327.8 330.8 329.6 325.9 321.5 312.4 307.5 311.4 311.7 310.5 308.1 304.5 307.6 314 318.2 325.8 332.2 343.5 356.9 368.7 374.7 378.8 379.1 376.2 370.8 360.9 354.9 348.1 343.2 338.5 342.2 342.1 341.5 340.1 335.9 324.7 311.5 298.9 289.9 278.2 266.3 254.4 247.3 241.5 234.9 227 217 212.4 217.1 218.6 220.2 220.8 222.9 227.5 237.3 246.1 251.7 261.4 268.8 270.8 274.8 277.1 280.9 283 284.5 285.9 287.3 289.2 292.5 295.3 292.8 287.2 291.6 293.3 294 294.8 294 292.6 290.5 285.9 281.9 280.8 266.3 271.6 283.3 289.2 292.8 296.1 298.4 301.2 300.9 300.7 302.6 305 308.4 313.7 318.9 323.2 327.3 330.8 333.4 336.4 340.6 344.7 346 349.9 354.2 357.7 360.7 365.4 370.2 374.6 375.1 374.8 375.7 377.7 379.9 382 383.9 385.8 385.5 388.7 393.2 395 395.9 396.9 398.4 404.7 409.7 410.4 414.4 414.6 421.3 426.6 430.1 426.7 422.4 417.9 413.9 406.8 403.2 404 404.9 399.4 392.1 385.7 379.1 375.7 372.1 367.4 364.9 364.6 361.9 361.1 362.1 363.9 366.7 366.6 366.9 368 369 369.7 370.4
338.4 344.5 352.3 364.4 377 390.4 402.2 409.3 411.9 412.4 406.4 397.7 392.4 389.6 386.9 384.5 382 377.4 373.5 370 367.6 365.2 359.5 354.3 349.7 347.2 348 345.6 340.9 333.1 328.8 327.9 326.3 324.1 322.4 322.9 326.7 329.6 331.1 329.3 324.9 318.4 316.6 316.7 316.1 314.8 316.6 313.4 310.1 314.4 322.3 324.3 331.7 344.2 354.2 366 376.8 384.1 387.2 386.7 382.9 375.7 364.7 359.6 352.7 343.7 344 345.8 343.7 343 336.9 330.7 316.2 305.4 297.5 287.3 273.8 261.8 251.1 245.2 239.8 234.1 228 219 213.8 218 220.2 223.4 224.5 228.6 228.6 236.5 243.9 251.3 261 267.8 271.9 275.4 278.1 281.9 285 286.5 287.7 288.8 290.3 293.5 295.6 292.6 289.9 293.1 294.7 295.6 296.3 295 293.7 291.2 287.5 287.3 285.6 278.5 266.2 283.6 289.4 292.4 295.7 299.1 301.3 304 304.1 305.2 307.4 311.7 316.3 320.4 325.8 329.7 333.1 337.5 341.6 344.6 349.2 352.3 355.5 359.5 364.7 367.6 372 377 379.9 381 380.9 383 384.7 387 389.3 391.6 393.6 393.6 397 400.3 401.6 403.6 406.4 409.3 415.1 419.1 421.3 424.3 427 432.2 439.4 441.3 439.6 435 426.7 416.7 408.6 403.3 400.7 399.9 396.2 393.8 389.7 385 379.8 378.1 376.6 375.9 374.8 373.4 371.1 369.6 371.5 369.9 371.7 373.3 374.4 375.4 376.1 376.6
344 352.8 360.1 372.6 386.1 404.3 412.6 418.1 421 418.7 409.7 399.9 392.9 389.6 386.6 383.6 380.6 377.4 373.7 369.7 367.2 364.7 360 355.6 351.1 349.9 348.6 346.3 342.3 338.1 332.6 331 329.6 326.6 325 325.5 328.9 330.9 330.4 327.4 320.3 321.9 322.5 320.8 321 323.6 323.3 317.9 316.5 321.9 325.5 331.8 339.8 351.1 362 376.2 385.5 393.5 395.5 394.1 387.8 377.5 368.7 363.2 355.5 345.1 348 347.5 344.8 340 331.1 319 309.3 303 294.8 284.3 269 257 249.1 243.9 237.6 232.5 228.1 219.7 218.4 216.8 226.6 227.6 229.5 233.6 232.5 241.9 252.6 255.5 259 265.1 271.1 274.6 279.3 283.9 286 288.2 289.1 290 292.5 295.4 294.4 292.1 291.7 294.4 295.8 296.8 296.2 294.9 293.1 290.8 288.7 290.1 289.9 284.7 270.4 282.4 289.8 292.7 295.4 298.2 300.8 304.5 306.6 309.1 311.4 314.6 320.4 326.8 330.7 332.8 335.9 339.9 345.5 347.8 352.1 354.8 358.7 364 369.5 374.4 380.2 383.2 385.3 386.7 389.1 392.5 393.4 394.3 396.6 399.2 400.1 401.8 403.8 406.2 408.5 412.1 416.3 421.2 425.2 431.3 431.3 433 439.1 448.7 450.8 450.6 449.7 445.9 438.7 429.4 421.9 416.6 410.9 407.4 403.1 397.8 391 387.9 385.4 387.4 388.1 383.9 382.3 381.2 379.9 378.7 377 374.3 377.8 379.9 380.8 381.8 382.3 382.8
350.9 357.7 365.3 377.7 395 414.4 421 427.6 429.4 423.6 413.8 404.8 395.5 390.5 387.2 383.4 380.2 376.9 373.7 369.8 366.6 363.5 360.3 356.5 351.5 351.5 352.4 348.4 345.4 341.5 337.3 334.7 333.9 330.4 328.7 328.5 331.2 330.5 328 324.3 325.8 325.8 327.2 328.6 329.6 330 329.6 328.9 322.9 324.8 329.7 336.3 344.2 356.3 370 382.8 394.9 401.3 402.5 398.1 392.3 378.5 371.5 364.8 353.4 347.1 350.8 348.2 344.8 339.1 329.1 318.8 309.9 300.2 291.2 277.7 265.3 255.9 248.1 242.7 236.7 232 227.7 221.2 219.4 217.1 231.5 232.6 236 238.7 235.2 244.4 255 258.9 259.7 262.8 270.5 274.8 281.1 284.5 286.9 289.2 291.1 292.1 294.7 295.2 293.4 291.7 293.4 295 296.5 296.9 296 294.6 292 289.6 289.4 291.1 291.8 284 271.4 281.9 289.2 292.6 295.8 299.2 301.7 306.2 309.1 312.5 316.3 318.4 324.2 329.7 333.2 336.4 339.7 341.9 347.6 351.4 354.8 357.2 362.2 367.2 373.3 380.3 386.7 392.1 392.6 395 396.8 399.9 401 402.1 404.7 406.3 406.5 408 409.6 413.7 416.9 421.8 427 431.9 437.2 439.8 440.2 445.4 450.4 456.2 461.9 462.4 463.5 458.9 451.8 442.3 441 433.8 424.7 419.8 414.3 407.6 403 397.2 395.3 394.4 395.4 389.3 388 386.9 385.6 384.4 383.8 381.5 383.3 386.5 387.4 387.8 388.3 388.7
355 361.5 369.5 383.9 402.2 418.8 431.2 435.1 434.8 427.4 417.9 409.1 400.1 392.5 388.8 383.4 379.9 376.6 373.2 370.3 366.9 363.8 360.1 358.2 356.8 358.2 358.8 351.1 349.4 349.8 342.4 338.9 338.6 336.8 334.4 333.6 332.3 329.3 326.5 326 330.3 332.3 332.3 333.4 334.7 334.8 334.4 334.7 334.6 330.7 337.2 341.7 352.8 362.7 377.6 388.7 401.7 405.8 404.6 399.6 392.5 378.4 372.8 365.1 353 349.8 352 349.4 345.4 338.7 325.8 316.8 306.9 296.1 285.7 274.3 262.3 254.5 247.6 240.9 236.1 230.6 224.5 221.4 217.2 226.2 232.4 237 240.2 243.2 243.7 245.3 252.7 259.5 263.5 267.3 271 276.4 282.7 285.2 287.7 290.1 292.3 294.2 294.8 293.8 292.5 292.4 294 295.3 296.4 296.4 295.6 293.9 291.7 291.1 290.6 290.4 290.1 286.1 271.8 280.6 288.5 292.7 296.3 300.3 304.1 308.6 313 315.3 319.8 322.5 326.5 330.7 334.9 338.2 342.1 346.7 350.9 352.8 355 358.6 364 369.3 376 384.7 390.7 396.5 400.9 403 404.5 406.8 408.1 411.4 412.6 413.1 414.8 417.3 418.7 421.4 427.4 430.2 435.6 441.1 446 449.1 454.9 457 461.6 467.3 471 474 478.3 475.3 471.4 460.9 453 448.1 442.8 438.6 430.2 423.3 417.6 410.7 405.1 405.6 399.8 393.8 392.4 392 388.8 388.8 388.6 387.8 388.6 391.4 392.8 393.2 393.7 394.4
361.8 365.8 375 390.3 405.9 425.8 437.8 441.8 441.2 435.3 425.8 413.4 405.1 397.6 392.6 385.2 380.8 377.8 378.3 375 370.9 366.3 363.9 360.9 362.9 360.6 356.4 352.8 352.3 355.6 345.8 342.4 341.8 340.5 337.6 335 334.7 331.5 328.7 328.7 334.2 335.8 336.7 338.8 338.7 338.7 338.7 338.8 339 336.9 343.9 352.3 359.6 368.9 381.4 391.6 405.9 409.1 406 401 392.2 377.5 373.4 363.9 355.2 352.8 351.7 349.5 344.2 334.4 322.4 313.3 301.6 291 282.4 270.9 261.2 254.6 246.1 240.9 236.2 227.6 223.4 221.5 222.8 234.9 237 239.9 243.4 249 252.3 253.1 253.8 259.2 261.5 269.1 275.9 281.6 283.7 285.9 288.7 291.6 293.4 293.8 293.8 294.3 293.7 293.3 294 295.3 296.1 295.6 294.7 293.4 293.1 292.7 291.5 290.1 288.6 287.5 276.5 277.8 286.7 293.9 297.9 301.8 304.7 308.2 314.4 317 320.9 324.7 328.7 332.3 335.1 338.7 343 346.7 350.1 354.3 357.3 361.1 366.2 370.5 377.8 384.6 393 398.3 404 407.3 410.3 414.1 417.9 419.2 419.4 420 422.8 425.5 427.2 431.2 436 442.3 445.3 449.4 453.8 458.5 463.8 465.5 471.3 478.6 484.2 489.3 498.5 496.6 492.2 481 472.7 467.2 462.4 454.3 447.7 436.4 421.3 416.7 414.6 412.6 407.5 403.4 399.7 396.5 398 396.3 393.2 391.7 393.3 396.6 398 398.6 399 398.7
366.9 370.8 381.7 396.7 411.9 429.1 445.2 448.4 450.2 446.4 434.9 423.6 411.8 405.4 400.3 391.8 385.1 385 385.3 381.4 375.7 372.8 371 370.4 367.7 363.6 362.1 356.7 355.6 355.8 350.5 346.5 343.6 342.4 340 337.8 334.4 333.8 333.1 333.3 337 338.4 340.9 343.7 342.8 342.5 342.4 340.7 341.8 342.6 348.3 360 367.6 375.2 383.1 395.3 407 410.7 408.8 400.4 389.7 378.9 372.7 363.2 356.7 354.7 351.9 347.8 341.2 328.4 319.5 308.2 296.3 288.6 279.6 269.9 260 252.8 247.6 242.1 234.1 225.7 222.9 224 233.5 240.9 239.8 242.9 250.1 253.9 258.6 261.4 260.8 261.9 270.4 273.4 275.9 285.3 288.1 291.1 293.1 293.7 294.3 293.8 293.8 294.1 294.3 294.9 295 295.3 295.8 295.7 294.4 294 293.7 293.6 291.7 289.7 288.2 286.6 280.8 277.5 285.3 292.5 296 300.2 303.7 308.8 313.8 318 321.8 325.6 329.4 333.2 336.4 339.9 343.7 346.5 349.3 353.2 357 363.4 368.3 372.4 378.3 384.9 392.5 400.2 408.8 413 416.4 422.6 423.9 424.7 425.6 428.6 430.3 434.1 438.6 442.2 446.8 450.2 454.7 458.9 462.7 469.7 471.3 475.3 482.1 489.1 496.7 502.6 513 513.1 505 500.2 494.1 487.8 479.6 466.1 448.7 436.4 433.1 425.9 420.1 417.6 415.4 412.4 409 406.8 406.2 403.6 400 397.5 397.7 401.1 402.8 403 403 402.8
372.9 378.1 385.2 401.2 418.1 433.5 447.2 457.4 459 453.5 441.3 432.8 424 416.6 409.4 399.4 390.9 392.5 391 389.9 384.7 379.3 379.7 383.5 379.1 370.2 367.1 362 357.7 356.1 352.5 349.6 347.5 344.2 340.8 337.1 336.8 336.7 335.7 335.8 339.5 342.1 344.6 347.2 346.9 346.3 346 344.5 344.1 346.6 355.1 364.3 373.6 380.8 387.3 397.3 406.8 411.2 409.4 399.9 386 378.7 369.8 364.2 357.3 354.4 350.2 344.8 335.6 324.3 313.1 302.3 295.5 286.7 279.9 270.2 258.1 249.9 245.6 235.2 226.9 223.2 226.6 236 244.2 250.5 249.7 253.7 254.2 260.5 263.5 268.9 270.4 272 275.3 279.2 280.9 281.4 290.2 292.8 295.4 296.4 296.4 294.9 294.9 295.4 296.1 296.5 296.5 296.6 295.9 295.5 294.9 294.4 294.1 294 294 290.4 288.3 286.2 283.8 279.3 281.4 288.7 294.4 302 304.4 307.9 312.9 318 321.9 326.1 329.9 333.7 337 341.2 345.4 348.9 351.8 353.7 356.1 360.3 366.1 371.6 378 384.4 392.9 401 409.9 414.3 420.6 425.8 427.6 430.5 435.7 438 441.5 443.3 445.3 449.9 457.4 461.6 466.2 469.2 472.8 478.3 481.3 484.3 491.8 498.7 505.7 513.5 521.7 523.1 521.8 517.5 511.7 503.8 484.7 470.6 458.6 452.1 445.5 439.5 431.8 428.6 426.4 420.6 416.3 416.1 411.7 409.5 407.1 403.2 402.6 405.1 406 406.5 406.8 406.7
378.4 383.5 390.9 406.2 421.6 435.8 451.5 464.1 462.8 456.3 445.8 436.8 434.5 421.4 418.2 403.3 400.2 400.6 400.5 400.5 398.9 390.1 384.2 380.4 375.9 372.5 371.3 364.9 362.2 357.3 356.1 352 350.3 346.1 340.3 339.2 340.7 340.1 338.7 338.1 341.6 344.7 347.3 349.7 351.4 350 349.5 346.1 347.5 348.9 358.8 368.6 377.3 383.6 390.5 398.4 407.8 412 406.9 397.2 385.8 376.8 367.1 361.5 357 352.9 347.6 339.1 327.5 318.5 309.7 299.2 295 285.7 277.7 266.3 254.4 245.3 232.7 232 232.3 234.2 241.2 246.6 255.8 262 264.3 264.3 266 271.1 272.4 276.2 278.7 279.6 277.1 283.8 286.2 292 290.8 295.6 297.8 298.4 299.7 300.5 298.2 297.1 298.1 298.4 298 297.4 296.8 296.3 295.5 294.9 294.4 294.4 293.3 290.9 289.3 286.8 284.7 279.3 287.1 293.2 297.7 299.9 307.3 310.4 313.5 317.7 321.5 326.4 330.2 334.3 339.1 343.6 347.6 350.6 353.1 355.6 357.2 360 364.9 371.5 377.3 382.9 393.6 402 408.5 414.3 421 427.2 431.8 437.8 443.3 446.3 448.6 450.8 454.5 460.2 467.2 471.4 474.7 476 478.3 484 489.4 491.3 497.5 503 510.4 516.9 522.9 529.7 531.7 526.5 519 505.7 493.8 483.3 476 465.4 455.3 449.8 443.5 438.7 433.2 425.8 422.7 419.7 418.2 414.6 411.1 406.8 406.8 408.4 408.8 409.2 409.7 409.2
383.5 389.8 399.5 412.7 424.2 438.9 454.9 463.6 463.3 456.5 448.6 441.9 436.1 424.9 417.7 411.6 409 408.9 413.2 418.5 411.5 399.9 389.6 384.5 379.4 377 371.8 366.7 364.2 359.5 356.6 354.1 352.1 349.1 345.3 343.5 343.3 342.1 340.6 340.2 343.5 347.3 349.8 352.1 354.1 352.6 349.4 349.8 353 357.2 367.1 374 379.7 385.9 391.1 402 410.8 412.9 406.1 395.7 384.4 372.2 362.8 358.1 354.4 351.3 341.9 331.9 319.9 311.9 306.8 297.5 291.5 283.4 276.6 269.9 249.6 236.6 231.2 238.4 243.2 247.7 252.4 258.9 265 267 269.2 271.9 275.6 278.7 279.5 280.9 283.5 283.6 282.6 285.3 290.9 295 295.3 298.6 300.2 301.5 302.8 303.7 302.7 300.5 300.7 300.7 300.4 299.3 298.4 297.6 296.6 295.6 294.7 294.3 292.8 291 290.2 288.1 285.7 280.9 288 295.6 299.2 303.3 304.3 311.8 316.1 318 321.9 327.9 331.8 336.2 339.9 345.3 348.5 350.9 353.6 356.3 359.1 361.3 364.2 371.2 378.2 387.2 395.9 402.9 410.2 416.9 421.6 429.2 436.3 443.1 449.5 452.6 455.3 459.9 466.2 471.8 475.4 479.3 482 482.3 483 486.6 491.3 495.1 499.6 504.3 510.2 518 522.4 523.4 523.8 523.5 520.6 512.6 503.7 494 483.6 477.5 469.5 458.1 450.3 449.3 440.4 434.1 429.4 423.1 418.6 416.1 412.1 408.3 410.1 411.1 411.2 411.2 410.3 409.9
388.5 396.9 408.1 419.7 429.1 441.5 452.5 460.5 460.9 456.7 450.4 445.2 443 436.9 426.5 421.2 421.3 420.6 432.1 431.3 420.5 403.4 397.3 393.8 387.9 379.4 378.2 368.4 365.4 361.2 358.4 355.8 351.9 351.4 349.3 346.4 345.4 343.8 343.3 343.2 345.1 348.5 351.7 352.9 353.6 352.1 351.3 354.6 359.3 363.4 371.1 379 384 390.4 395.6 406.6 412.3 410.8 405.3 395.5 384 368.1 360.7 356.3 352.6 345 335.6 323.4 314.6 307.7 302.5 295.3 288.1 279.3 271.3 259.1 245.6 235.3 235.3 243.5 247.3 253 258.7 264.2 267.7 270.6 274.2 278.4 283.2 284.5 283.1 286.6 289.9 291.2 292.1 291 293.5 297 297 301.5 302.4 303.8 305.6 306.7 307.3 304.3 303.6 303.3 303.5 303.5 303.4 302.7 299.4 295.5 293.6 293.1 292 291 290 289.2 286.8 281.2 289.8 297.3 301.6 304 308.7 306.4 315.1 319.2 322.8 328.8 331.8 335.5 339.7 345.8 348.8 351.4 354.1 356.8 359.5 362.7 366 372.8 379.9 389.2 396.9 403.9 412.1 419.4 424.9 431.9 438.7 446 451 455.1 462.2 468.6 476.6 480.7 484.7 486.9 487.1 487 486.8 487.7 492.4 495.9 498.8 501.6 504.4 510.8 515.8 515.2 513.3 510.4 505.4 503.2 499.5 494.2 495.8 489.3 476.3 464.1 462.9 455.5 448.1 441.6 435.7 427.4 419.7 415.3 411.9 410.4 411.8 411.8 412 412.2 411.6 411.1
393.1 402.5 415.4 425.1 434.6 444.2 450.8 458.2 461.4 460.4 455.6 449.4 448.7 443.8 437.7 434.7 436.8 439.7 435.8 431.8 421.5 406.6 402.8 401.4 391.3 383.6 378 369.1 366.3 363 360.5 357.9 355.7 354.3 352.9 349.4 348.8 348.5 348.9 346.4 346.7 350.1 352.8 353.1 353.5 353.7 355.6 361.3 365.2 370.6 376.5 382.5 387.8 395.1 399.7 408.3 412.6 410.4 404.2 393.2 383.4 363.7 359 352.9 347.9 340 328.8 320.6 313.3 306 300.1 291.8 282.2 273 263.8 253.4 241.2 233.8 241.1 246.7 250.9 257.6 262.8 266.8 270.3 273.7 277.7 282.4 287.3 288.2 288.4 292.5 294.6 296.4 297.4 295.5 296.9 300.4 299.4 304.4 306.3 308.3 308.4 310.1 311.3 308.9 307.8 308.7 308.3 308.3 306.7 304.2 300 296.3 293.8 292.4 291.9 291 290.7 290.7 286.5 282.6 290.2 298 303.4 306.7 309.3 312.3 314.1 317 322 323.5 327.8 333.2 339.2 344.3 348.5 351.6 354.3 357 360.1 363.6 368.9 374.1 380.1 388.6 397.3 405 414 420.8 428.2 435.2 442 448 452.7 457.4 465.8 474.9 482.7 487.2 491.2 493.2 492.2 489.5 488 489.4 492.6 496.7 498 498.7 499.5 500.8 504.2 503.8 500.8 496.5 495 492.1 490.7 489.5 488.7 484.6 477.9 475 470.9 462.2 453.6 445.5 438.6 429.1 422.5 418.1 413.6 412.6 413 412.1 411.3 410.8 410.5 411.3
396.8 404.6 418.9 429.6 440.1 446.5 452.6 460 466.7 466.4 463.2 459.4 456.7 452 449.9 449.2 450.1 444.4 438.8 432.4 415.9 409 403.7 401.3 392.8 386 378.9 372.7 367.3 365.7 362 359.1 357.4 356.5 355 353.8 352.4 354.4 352.6 351 350.6 351 352.4 353.5 356.3 356.9 361.5 368 372.9 376.9 380.5 387.3 391.1 395.3 400.3 408.4 412.9 411 403.6 391.5 375.2 360.1 355.8 350.2 345.6 334.5 324.3 318 311.5 303.8 294.4 285.9 276.4 266.1 260 250.5 237.5 236.4 244.2 249 254.3 260.8 265 268.6 272.3 276.4 281.7 288 291.2 291.6 292.7 296.6 298.4 301 303.5 301.6 300.2 303.4 302 307.1 309.1 312.5 314.3 315.7 316.3 314.9 313.1 312.5 312.5 311.5 309.2 305.8 299.9 296.6 294.3 293.2 292.6 291.5 290.4 290.6 284.4 284.6 290.5 298.8 302.9 305.6 308 310.7 315 318.5 322.2 326.9 332.8 336.5 339 344.2 347.8 351.8 354.6 357.8 360.9 364.6 369.5 375.6 381.3 388.7 397.5 406 414.2 422.6 430.7 437.8 443.8 449.8 454.7 460.8 470.8 480.2 486.4 492.3 494.4 494.1 492.6 490.5 486.8 486.9 489 490.3 491.4 492.7 493.8 493 493.8 492.6 490.8 487.8 485 480.2 476.5 481.1 484.8 485.5 485 480.1 475.4 466.9 459 451.1 441.6 434.1 425.2 418.9 414.5 413.6 413.1 411.9 410.2 409.3 408.7 409.8
403.5 409.5 424.1 434.7 444.9 449.8 456.3 465.7 475 475.2 474.9 472.2 470.2 467.2 463 460.2 456.4 446.7 438.6 427.4 419.7 410.2 404.5 405.1 396 388.4 382.4 374.8 372.1 365.9 361.7 361.1 360.3 359.2 359.5 359.1 357.5 357.1 358.3 356.5 357.1 357.1 354.7 354.4 359.5 365 368.4 374.1 378.3 382.4 389.5 393.1 394.6 396.7 402.2 407.7 412.6 408.5 399.6 387.8 367.6 357.1 353.4 347.9 341.3 331.4 320.8 310.7 304.4 298.1 289.8 282.1 274.5 261.3 252.7 243 235.2 241.2 246.5 251.9 257.5 262.9 267.6 272.3 275.8 281.4 288.3 294 294.9 295.9 297.7 302 303.4 307.3 308.1 305 303.8 306.4 306.4 312.1 313.7 315.2 316.9 318.6 319.5 318.9 317 316.2 315.8 313.9 310.4 305.5 301.1 297.2 295.1 294.1 293.3 291.9 289.3 287.4 287.7 286.5 290.4 297.6 301.3 304.2 306.9 310 314.7 318 321.6 327 332.4 337 341 345.6 348.1 352.2 355.3 358.5 361.7 365.4 370.1 375.8 381.5 388.4 396.3 407.1 416.6 424.9 433.2 439.5 445.2 451.1 457.2 464.7 475.3 484.8 490 491.1 491.3 490.6 489.4 487.1 484.2 482.1 482.2 481.3 484.8 487.1 489.1 490.3 490.8 488.2 481.7 476.7 470.3 470.8 469.2 472.4 477.9 484.7 486.2 483.2 478.3 471.8 464.6 454.6 447.6 436.7 425.3 418.4 413.6 412.3 411 409.6 408.6 408 406.9 408
409 415.9 429.8 441.2 450 455.7 462.7 472.2 482 482.3 483.7 482.2 480.2 476.8 472 465.4 458.8 452.1 436.3 430.8 421 413.1 403.7 404.9 398.5 391.1 382.5 378.7 373 364.6 364.4 363.9 363.9 362.5 362.7 363.6 362.8 362.5 363.2 360.2 359.8 359.4 358.8 359.8 363.5 369 375.1 382.3 385.1 386.8 395.9 396 396.8 399.4 405.8 408.1 409.1 402.5 393.1 380.4 356.9 352 347.8 345.4 336 325.1 315.7 308.6 301.5 292.6 286.1 276.5 269.8 258.2 248.3 238.9 237.5 244.6 249 254.9 260.4 266.2 269.4 275.5 281.1 288 293.7 298.3 299.2 302.8 306.4 308.5 310.8 315.4 314.1 311.6 306.9 309.9 309.4 316.7 318.2 318.4 320 321.5 322.4 321.5 320.7 320.1 318.4 316.2 310.9 307.6 304.6 301 297.5 295.8 293.9 291.2 288.8 288.5 288.8 288.7 288.8 289.9 297.4 301.9 305.9 309.4 313.6 318.5 322.2 323.4 331.8 337 342.3 347.8 350.1 352.3 355.7 359.4 362.3 366.4 371.1 376 382.3 389.5 397.8 407.1 417.6 426.7 435.1 441.3 447.2 452.3 460.5 469.6 480 488.9 491.4 490 488.1 486.4 484.9 483.4 481 478.7 476.3 476.3 479.7 482.3 485.1 486.4 484 478.7 472.2 462.6 454.6 454.1 457.5 459 465.8 475.2 481.3 481.9 479.7 472.8 465.7 460.5 451 439.1 426.7 418.9 414.6 410.9 408.8 407.2 406.1 405.3 404.3 405.5
414.2 423.4 438 448.9 457.9 464.9 474.8 483.2 488.8 490.3 490.5 489.7 485.6 481.5 471.7 461.8 457.1 448 437.9 426.2 419 410.9 404.6 398.7 398.8 388.7 386 380.5 369.1 369 367.4 366.7 367.7 366.6 368.3 369.1 366.8 366.1 365.3 364.8 364.8 365.8 365.9 369.5 371.2 374.1 382.8 392.5 390 394.3 400.7 399.2 399.4 403.2 405.8 407.6 405.2 396.7 385.8 364 346.1 344.5 342.2 340.5 331.3 321.4 312.6 305.8 294.9 284.8 279 271.9 264.2 252.4 242.3 236 241.1 247.9 251.1 256.9 264.9 269.6 273.5 278 289 295.2 299 302.5 304.1 307.4 311 313.3 315.5 316.4 316.9 313 311.3 313.6 312.9 319.7 321.2 321.5 323 324.5 324.4 324.1 324.9 324.3 321.5 317.2 313 310.1 306.5 303 300.1 299.3 297.8 292.4 290.3 289.5 290.1 291.6 291.6 290.1 295.3 301 305.4 309.9 313.4 318.3 324 329.6 332.7 338.8 343.6 349.2 351.9 354.8 357.7 360.6 365.4 367.4 373.1 377.1 382.1 390.3 396.7 408.1 418.3 428.1 436.2 443.2 448.6 455.1 462.7 472 480.9 487.6 489 487.5 485.9 482.8 480.7 478.1 476.3 474.4 473.2 474.1 475.3 476 478.2 477.8 474.1 467.6 458.2 451.7 443.9 443.1 446.2 451.9 456.4 463.6 470.1 474 471.1 469.3 465.3 458.7 450 439 429.8 421.8 416.2 409.9 406.1 403.4 401.7 399.8 398.8 400.9
420.1 430.4 446.1 457.4 466 473.8 484.5 492.1 494.2 496.9 494.1 494.3 488.7 479.5 470.5 462.4 458.2 449.2 435.9 423.6 414.7 409.4 403.7 395.4 394.3 389.2 386.2 377.8 374.4 373.3 371.1 370.3 371.4 373.4 373.8 373.3 373.8 371.7 371.2 371.2 370.2 372.2 377.8 377.8 383.4 384.1 391.3 394.3 393.6 395 399.2 402 402.2 405 405 404.7 398.6 388.8 373.3 347.5 341 339.5 341.6 336.1 327.9 319.3 308 298 287.5 279.7 273.8 266.3 258.4 247.7 239.7 236.2 245 250.1 253.2 260.7 267.3 274.4 279.4 287.3 292.1 296.9 300.8 303.8 306.6 310.9 315.2 317.1 319.9 319.9 319.8 316.6 316.7 317.9 318.2 322.2 323.6 324.5 325.6 327.1 327.1 327.9 328.2 327 324.3 319.2 315.8 312.7 308.1 305 301.5 300 298.9 296.5 291.7 290.3 292.8 295 295.5 292.6 293.8 298.9 302.1 306.7 312.3 317.7 322.6 329.1 336.2 340.2 344 350.1 353.4 357.1 359.7 364.4 369 371.5 374.5 378 382.5 389.1 395.6 407.8 419.8 429.2 437.5 444 450 456.7 466 474.4 480.1 484.4 485.3 483.2 480.3 476.6 476.4 473.1 468.8 466.4 468.3 471.2 473 473.2 472.6 469.6 464.3 459.1 452.7 447.2 440.8 434 435.5 439.6 446.9 450.7 456.7 463.8 466.6 466.4 462 456.2 448.2 441.1 433 424.7 416.7 409.7 404.3 400.7 396.9 393 393 393.6
426.2 438.3 454.3 466.2 475 483.3 491.6 496.9 496.5 503.2 500.5 497.3 489.1 480 468.7 460.2 456.7 448.4 436.3 422.8 410.1 405.7 400.5 392.8 390.9 388.1 382.4 380.5 379.5 378.1 380 378.4 376.8 378.1 378.7 382 382.3 380.2 384.2 383.3 384.8 389.2 392.2 390.7 395.6 393.1 395.5 397.1 399.6 400.2 402.6 404.2 402.7 402.4 400.8 397.4 390.2 378.2 355.1 340.2 335.3 336.5 341.1 333.9 325.3 316.3 302.9 290.6 280.6 273.8 267.6 260.1 252.5 245.1 236.7 241.5 247 252.6 258.4 265.6 271.5 277 283.1 290.4 296.6 300.4 302.8 305.5 310 314.8 318 320.7 322.7 323.3 322.8 321.5 322.1 322.7 322.2 323.6 325.8 327 328.4 329.8 330.4 331.1 331.8 330.3 326 322.6 319.5 315.4 310.5 306.6 303.2 300.5 299.2 296.2 292.3 290.8 295.1 296.3 297.7 296.5 294.2 298.2 302.5 306.9 311.9 319.7 325.1 332 336.9 341.5 345.7 350.9 355.3 359 363.9 368.7 372.5 375 377.2 380.1 384.5 392 399.7 411.1 422.1 430.8 438.9 444.8 451.7 461.3 470.5 475.4 477.5 480.3 479.5 476 471.8 468.3 466.5 463.7 462 462.6 466.9 470 471.9 472.3 468.3 463.8 459.2 453.3 447.9 442.1 436.1 430.9 429 433.7 440.2 444.8 450.5 453.4 455.2 458.7 461.9 458.1 453.5 444.7 437.3 429 421 413.3 407.9 403.3 398.3 391.9 387.7 389.3
433.4 445.6 463 474.9 482.6 491.4 496 497.7 503.4 506.2 505.2 498.7 492.2 482.1 469.9 462.2 457 451.2 441.3 425.1 412.9 403.8 397.2 390.2 387.4 386.5 385.2 384.4 384.2 384 386.1 382.9 382.7 383.6 387 391.7 391.7 399.6 398.3 396 397.7 403.3 399.4 398.2 397.7 402.7 403.7 402 403.3 404.5 406 403.1 401.5 401.5 393.3 387.6 376.6 360.6 342.5 332.2 329.4 336.3 335 329.1 318.5 306.3 294.3 281.8 273.2 267.9 259.7 252.9 246.5 241.9 238 244.4 249 254.3 262 270.1 277.9 282.2 288.5 296.5 302.6 304.1 306.8 310.4 314.8 318.4 321.6 325.6 328.9 327.4 326.5 326.9 327.4 326.8 325.6 326.2 328.1 329.4 330.9 332.3 333.2 334.2 336.2 334 329.7 326.3 323.1 317.8 312.1 308 304.8 301.9 299.7 295.9 292.9 291.8 296.6 298 299.2 301.2 297.1 299.6 303.8 307.9 316.8 324 329.5 335.7 339.4 342.9 347.7 352.1 357 361.4 368.3 372.3 375.4 378.3 380.3 383.1 386.8 394.8 404.3 415.2 424.7 432.7 440.9 447.5 456.4 466.1 473.1 475.7 476.8 476.7 474.8 470.1 465.5 460.9 457.7 453 455.3 459.9 465.4 469.3 469.6 467.6 464.6 460.5 455.7 449.1 442.6 437.2 432.6 428.6 423.3 428.9 434.6 441.7 444.2 446.1 448.5 452 454.2 454.7 453.6 447.9 440.6 431.9 423.2 413.9 406.7 402.7 398.5 392.2 385.3 383.6
439 450.4 468.6 480.9 489.8 497.6 498.9 499.8 504 507.5 503.9 498.1 497.5 480 468.9 465.8 455.6 450.9 437.5 423.2 406.5 399.3 394.4 390.2 391.5 390.5 391.2 390.3 389.2 391 391.9 390 389.7 393.4 397.6 400.7 405.8 411.9 411.2 411.2 415 416.2 410.1 407.3 405.2 409.4 407.2 405.4 403 404.8 403.5 398.4 396.7 392 381.8 374.3 360.1 344.3 332.2 324.5 321.7 329.4 325.6 322.1 311.6 297.4 283.2 274.3 266.8 260.3 253 248.1 243.8 239.9 239.1 247.6 253.2 258.2 267.6 279.6 285.5 288.3 294 301.5 306.2 307.8 310.3 315.2 320.1 323.4 326 329.1 331.5 331 330.5 331.3 331.3 330.2 329.1 328.8 330.4 331.9 333.3 334.7 336.4 339.4 340.5 338.2 334.7 329.9 326.7 320.2 313.8 309.5 305.9 302.6 297.7 294.3 292.6 296.3 297.5 299 301.4 303.7 300.4 299.5 306.4 312.5 318.1 323.8 330.1 335.9 340.3 345.1 350.3 355.9 358.7 365.2 372.1 376.1 378.9 381.6 385.1 388.4 391.5 397.3 407.1 419.5 429.1 435.9 444.4 452 459.8 468.6 473.4 476 477.1 475.7 471.4 466.1 460.4 455.9 451.7 448.4 448.6 457.1 464.9 469 468.3 466.3 463.7 459.3 453.8 447.6 439.8 433.2 427.7 422.8 418.4 421.7 428 434.8 440.1 442.9 444.7 447.1 448.8 446.6 442.9 439.1 433.7 427.3 419.6 412.6 406.3 401 395.5 389 383.7 378.8
445.1 453.9 468.2 484.4 494.6 499.5 500 501.6 503.1 505.8 502.2 496.8 487.2 476.6 468.3 463.5 454.5 448.6 433.3 424.1 407.9 398 393.9 390.9 392.2 393 392.7 393.7 392.6 394.3 403.4 397 399.7 405.4 412.1 414.8 419 420.9 422.6 425.9 431.7 428.1 422.3 416.4 412.8 410.8 408.7 405.9 404.4 398.7 394.6 394.7 391.9 380.5 368.8 360.7 345.5 329.4 322 317.5 314 316.2 313.5 306.6 297.5 286.9 275.3 267.4 260.9 251.8 248.1 246.8 242.7 239.7 243.1 252.1 257.5 264.5 275.4 284.7 290.4 294.3 297.8 306.6 309.2 311.6 316.8 320.6 324.3 326.5 328.9 332.4 334.4 334.4 336.1 336.1 335.2 333 330.7 331.4 332.9 334.3 335.7 337.5 340.4 343.3 343.1 341 337.8 334.2 330.4 323.3 316.7 311.7 307.7 303.7 298.9 294.5 294.8 298.4 300 301.7 303.9 306 304 300.3 304.8 309.4 315.5 321.8 328.7 335 341.4 347.1 352.9 359.1 362.3 367.4 374 379.3 382.6 385.6 389.7 394.2 398.2 402.8 410.5 424.2 433 440.9 449.1 456.8 463.2 471.2 474.3 477.6 477.8 474.3 468.8 463 457.1 452.1 447.5 445.7 446.6 455.4 464.1 467 467.5 466.3 464 459.9 454.1 446.4 437 430.9 423.9 416.8 412.7 414.1 419.3 426.8 434.4 439.2 442.6 442.8 443 443.4 441.2 438.5 433.4 427.2 420.4 411.7 404.6 397.4 391.5 386.6 381.7 376.9
451.4 459.4 469.4 482.6 495.8 500.1 499.9 500.8 503.5 500.9 497.2 493.6 483.9 476.1 467.9 462 452.6 448.5 431.9 422 411.6 404 399.2 393.3 392.8 395.8 397.1 397.9 399.3 401.8 407.5 407.4 410.1 416.1 423.4 426.4 427.8 430.2 434 440.1 438.8 437.4 429.1 421 417.4 414.6 407.5 401.5 397.6 392 390.9 385.7 381.2 371 359 347.2 330.3 320.6 315.2 310.5 309.3 308 301.4 295.4 285.5 275.9 270.1 262.7 254.8 251.2 248.5 245.3 241.7 238.8 246.3 255.3 262.9 271.2 279.3 287.5 294 299.6 305.3 309.1 312 317.3 322.6 326.6 328 330 333.7 336.5 337.7 339.6 340.9 340 338.2 336.1 333.9 334.1 335.4 337.3 340.2 343 345.4 347.2 347.1 344.3 341.6 338.5 334.9 328.2 321 314.4 309.5 305.2 300.9 296.8 295.1 301.6 303.9 305.6 306.9 308.7 308.8 304.4 306.3 309.5 314.1 321.6 329.1 337.5 343.8 348.4 354.8 361.1 366.7 371.5 376.7 381.8 387.4 391.3 395.4 399.5 404.2 409.4 418 427.5 435.1 443.2 452.7 459.8 469.7 475.4 477.3 476.9 474.8 469.4 463.6 459.5 454.2 448.9 443.9 442.1 445.1 455.6 462.5 465.9 466.5 465.2 462.6 457.9 450.7 441.3 433 427 419.8 412.2 406.9 409.1 410.1 414.9 426.1 434.8 439.2 441.1 441.7 441 440.2 437.2 433.4 428.5 416.6 410.4 401.5 395.1 389.8 384.9 381.2 376.1
456.7 463.5 471.6 484.2 494.1 498.6 499.9 499.9 500.8 498.2 494.6 491.7 484.4 474.9 469.3 463.7 457.8 440.6 427.6 418.9 412.9 409 402.5 395.7 394.2 397.5 402.3 404.1 408.5 411.8 416.7 414.6 416.5 421.3 431.6 435.1 435.1 435.5 443.2 448.4 449.5 443.5 434.4 427.9 423.5 417.9 409.3 397.9 389 379.2 376.2 372.7 364.3 354 343.2 329.9 319.7 313 308.4 304.7 301.3 297.8 291 283.1 276.1 271 264.4 256 249.7 247.9 247.7 244.3 240.2 245.7 249.1 256.6 264.5 272.8 283.5 292.3 300.4 306 312.4 314.7 316.7 322.9 328.2 331.6 332.4 335.6 339 340.1 342.8 344.3 344.7 343.6 341.3 338.8 336.1 336.4 338.5 341.8 345.5 347.4 349.4 350.5 350.4 348.6 346.4 344.1 340 333.4 325.6 317.4 310.8 305.3 301.3 297.7 298.6 304 306.7 308.4 310.1 311 311.8 308.1 307.5 310.4 314.8 324.1 334.5 341.7 347.3 352.3 358.2 364.9 371.6 375.6 381.8 385.9 391.3 394.9 399.2 403.9 408.9 414.7 421.7 429.6 437 445.8 455.7 463 474 476.3 476.5 474.5 470.7 465.3 460.3 454.4 449.7 444 440.5 438.3 444 455 462.6 465.5 464.3 461.1 458 453.5 444.9 435.2 428.2 420 413.5 408.8 404.2 400.5 405.7 409.7 416.5 429.7 434.6 437.5 439.2 438.5 437.2 433.1 427.3 419.5 412.4 407.2 400.6 394.4 388.2 381.9 377.3 373.5
459 468.1 473.4 482.3 489.5 498.6 500.3 500.3 502.4 500.4 498.7 494.8 486 474.7 470.1 466.7 456.4 438.6 424.5 420.9 417.7 412.8 406.9 397 398.2 402 408 412.5 418.9 429.9 427.5 422.2 421.1 425.6 437.1 441.1 441.7 444.9 448.6 456 453.3 446.6 435.7 427.7 422.5 414.2 404.3 390.2 378.7 368.4 361.2 357.1 349.8 337.6 327.5 316.3 309.7 304.7 299.9 298.6 294 287.8 281.5 275 269.2 262.3 256.6 250 245.3 241.2 240.8 242.2 244.8 248.2 250.9 258 265.9 275.6 291.9 298.1 304.7 311.1 317.9 321.1 324.2 330 333.8 335.4 336.5 337.9 340.8 344 348.1 348.1 347.9 346.3 343.7 341.2 338.8 340.3 343.3 346.6 350.6 352.5 353.4 353.3 353.3 353.2 352.2 349.1 344.2 338.2 329.9 320.6 313.2 306.8 305.5 300.3 298.7 303.8 309.1 310.7 312.4 314 315.1 315.3 307.9 311.8 316.7 326.5 338.5 347.4 353.7 356.1 360.8 366 374.9 380 386.1 390.7 394.8 397.4 403.8 407.8 413.1 419.1 425.6 432.1 438.1 446.3 456.7 465.5 473.3 475 475.4 472.5 468.4 461.9 456.7 451.2 445.1 439.3 436.5 438.3 442.9 451.9 456.5 458 457.6 454.5 450.1 444.1 437.7 429.1 421 414.1 408.6 404.2 398.7 392.2 397.6 406.4 412.8 419 424.6 427.2 432.5 432.2 428.4 423.5 417 411 408.3 403.1 397 390.2 383.5 377 373.7 368
458.3 468.9 474.5 478.9 482.1 496.7 501.2 502.2 503.4 504.3 502.1 494.2 485.7 473.1 470 465.4 452.9 439 428.8 419.4 420.4 410 409.3 400.1 404.4 411.1 417.5 424 431.1 438.1 435.5 430.7 431.1 438 441.4 443 444.6 451.4 455.6 459.2 453.5 445.7 435.2 426.2 420.1 409.2 394.8 379.6 367.7 358.6 348.7 343.2 335.5 322.9 312.9 305.4 299.9 294.8 292.1 290.7 285.7 278.8 273.7 267.6 262.6 256.1 250.2 245.8 242.4 244.4 245.2 246.2 246.8 251.4 254.4 258.3 269.2 282.3 292.6 300.5 309 314 322 326.2 329.8 335.5 337.9 339.2 340.9 343.3 345.8 349.8 351.5 351.7 350.9 349.4 346.5 343.8 342 344 348 351.2 354.6 356.6 357.3 357.2 357.1 358.1 357.7 354 347.5 340.6 333.5 325.6 316.7 310.6 308 303.5 299.8 308.2 311.3 312.5 314.7 316.8 317.9 318.9 313.4 309.3 319.2 329.1 337.9 344.1 350.2 358.1 364.3 372 377.7 383.1 388.4 394.7 398.2 403.4 408.1 412 416.9 423 429 434.8 440.4 447.9 457.2 464.7 470.8 474.8 473.9 470.6 465.5 458.6 452.2 445.4 439.2 435.7 432.7 434.7 441.8 450.2 454.2 454.2 450.3 445.8 439.2 433 426 418.9 412.8 404.5 399.1 394 391.2 383.5 391.4 399.1 407.9 412.9 415.6 416.7 418.2 417.8 414.7 412 404.3 401.4 396.9 390.7 386.1 381.2 374.3 367.7 362.8 359.7
459.5 467 474.3 479.2 479.4 487.6 499.1 498.9 502.3 501.1 499.9 491 482.3 472.2 464.4 459 448.4 434.7 425.5 416.8 412.7 407.3 405.2 406.6 408.3 422 428.4 427.7 438.5 444.5 438.4 433 434.6 437.8 440.2 444.7 446.6 452.3 456.2 456.4 454.7 443.6 428.4 416.8 405.2 394.7 385.6 372.8 360.1 347.5 338.1 323.9 315 307.8 302.5 296.6 289.2 286.9 284.9 282.3 276 270.7 264 260.8 256.8 252.4 247.2 244 249.5 251.4 249.5 249.6 250.5 255.4 259.6 266.1 277.5 290.3 298 307.5 313.4 318.9 326.4 331.6 334.9 341.6 343.5 345.3 348.5 352.4 355.5 356.2 358.5 356.9 354.5 352.9 350.6 348.6 345.5 348.3 353.5 355.9 358.5 360.4 361.6 361.2 361.8 362.9 361.1 357.3 350.7 344.7 335.7 327 319.8 314.6 308.4 303.2 304.6 309.7 312.4 314.9 317.1 319.3 320.9 322.6 319.6 316.7 313.6 328.9 333.8 340.8 354.4 361.9 367.1 373.3 378.9 385.7 392.3 397.5 402.6 408.1 413 417.2 422.4 425.8 431.8 436.8 442.4 449.3 456.8 463.5 470.2 475.7 473.1 468.8 461.8 454.3 447.4 440.1 433.8 430.4 428.7 429.3 438.1 447 450.3 448.9 444.8 437.6 429.3 421.5 417.3 411.5 403.4 398.5 391.6 385 381.8 373.8 387.3 394.2 398.1 402.7 404.8 405.8 403.5 399.5 400.1 396.2 390.1 386.3 379.7 376.7 373.2 369 365 359.8 355 352.3
463.3 467.9 473.4 478.4 479.6 481 488 493.8 495.5 495.3 494.7 486.5 479.4 467.4 461.6 452.6 440.6 431 424.7 418.9 415.2 409.2 415.1 408.9 410.2 421.7 430.3 433.1 436.6 442.1 438.6 433 434.2 435.6 439.1 450.1 448.8 453.8 453.2 457.8 448.9 434.8 420.6 407.5 397.6 385.9 369.1 360.4 348.7 336 326.2 311.3 301.3 299.8 294.7 288.2 281.2 277.9 274.5 271.4 266.4 263.2 259.9 253.8 252 248.4 245.8 247.1 251.4 254.5 253.7 257.5 257.4 260.1 268.3 278.3 291 298.2 303.8 312.7 321.7 327.1 331.5 337.1 344 348.7 349.8 353.4 357.4 360.1 362.3 362.5 363 362.4 359.4 356.4 353.8 351.1 351 353.8 358 361 362.9 364.6 365.2 364.9 366.1 365.3 363.5 360.1 354.8 346.6 343.4 329.8 319.8 315.7 309.9 302.1 311.5 313.7 316.5 317.9 320 322.5 324.6 326.2 323.7 323.2 323.6 325.7 334.1 340.8 349.7 360.6 368.4 376.3 384.9 391.3 397.7 401.9 407.5 412.6 418.4 422.3 426.8 430.6 434.5 438.8 444.6 451.6 456.9 463.6 470.8 474.6 473 467.4 460.4 451.7 442.4 434.9 427.1 423 419.7 422.6 431.3 436.7 439.7 437.8 434.4 424.9 415 408 404.7 399.5 392.9 385.9 378.9 374 371.9 364.2 370.8 378.2 382.2 382.7 385.1 385.7 383.4 380.8 377.7 373.9 369.8 366.7 365 364.3 361.8 359.9 354.7 351.9 349.2 346.7
466.1 469 472 476.7 480.7 480.7 481.1 489.8 487.6 486.6 487 480.5 475 466.3 456.3 445.9 435.4 431 429 420 418.3 412 414.3 411.3 413 418.5 428.3 433.2 435.7 434.8 434.2 430.8 433.2 435.7 436.5 445.1 447.3 451.5 449.5 450.5 441.2 427 407.9 392.3 379.5 367 356.8 344.3 333.3 323.2 311.1 297.8 290.8 292.5 285.9 277.8 272.4 269 264.5 260.1 257.6 255.9 253.8 248.9 244.9 247.4 246.9 251.8 255.8 258.5 259.3 261.5 265.1 270.2 281.3 289 297.9 304.9 317.9 326.1 328.9 333.6 338.1 347.9 354.3 353.8 356.9 362.8 365.6 367.1 369.3 369.6 370.2 369.4 364.1 359.7 356.2 353.3 355.1 359.4 364.4 366.4 367.7 369.1 368.5 369.9 368.5 366.6 364.2 362 357.7 353 343.8 329.3 319.3 315.5 307.7 310.3 314.9 317.8 320.5 321.6 323.4 325.9 328 329.9 328.4 327.8 329.8 329.3 324.3 341.5 354.1 364.7 373 380.5 388.8 395.5 403.5 407.4 413.4 419.5 422.9 426.9 431 434.7 437.8 440.9 447.3 452.8 457.7 464.4 470.6 473.7 472.1 466.4 456.2 446.9 437.6 428.2 418.3 412.3 407.2 415.6 421.6 421.9 418.9 417.8 414.5 406.9 398.8 393.4 390.7 386.1 380.3 373.9 365.8 359.7 355.4 349.3 350.6 353 356 357.7 359.9 360.1 360.3 359.7 360 358.1 356.6 352.7 350.2 349.8 346.8 345.6 346.3 345.5 343.4 341.7
469.8 470.1 471.8 476.4 483.2 481.8 481.6 483.8 484.1 483.7 486.3 478.6 471.6 463.6 455.2 445.9 437.4 433.3 431.5 422 415.9 413.2 413.4 413.8 419.1 422.7 425.1 429.7 431.9 429.6 427.9 426.4 436.7 434 433.6 439.6 443.7 443.5 443.7 443.3 436.2 420.4 400.1 385.6 372.2 361.5 351.1 334.8 319.3 307.9 298.9 288.7 286.2 280.6 273 265.1 262.4 259.5 256.7 251.6 246.5 246.6 247.4 246.5 249.8 253.3 254.6 256.4 260.2 262.5 264.8 271 278.3 285.1 293.9 298.9 307.8 316.9 326.6 331.1 337.4 340.6 352.2 357.8 361.7 361.3 365.4 367.5 370.4 374.1 375.6 377.4 377.4 375.1 366.1 362.3 359.3 358.3 359.8 364.8 369.4 371.5 372.1 372.3 372 371.6 367.4 366.3 364.6 361.7 357.3 350.8 341.4 325.7 316.8 312.9 313.5 314.5 318.3 322 324.2 325.6 328.9 330 331.9 332.9 331.8 331.4 336.2 338.3 335.8 342.8 356.3 368.6 376.5 385.6 393.8 401.2 407.1 413.1 418.7 423.1 426.7 430.9 435.3 438.1 441 444.2 449.5 455.1 460.8 467.2 474.4 474.8 471.7 462.7 452.8 442.2 431.4 420.2 409.1 402.6 397 404.7 406.6 407.4 406 398.8 391.4 386.1 380.9 375.8 373 369.9 364 357.7 349.2 344.9 340.1 335.3 331.2 331.8 332.6 333.2 333.6 332.9 336.2 337.8 338.8 338 336.4 337 338 337 334.6 334.2 337.2 338.5 334.6 331.5
470.4 470.3 472.3 479.7 484.3 483 481.6 481.2 481.8 481.2 478.4 475.6 466.6 460.7 452.1 442.7 438.8 432.4 425.5 422.5 418.6 418.3 415.7 417.9 419.3 421.5 423.1 424.8 428.1 425.5 424.4 424.2 428.6 427.6 428.9 433.9 434.2 435 434.8 432.7 425.8 410.7 395.9 378.6 368.5 354.6 333.7 319.5 305.5 289.7 286.6 277.4 273.2 267.5 257.7 253.5 252.2 252.5 248.4 249.2 249.3 248.7 249.3 248.6 253.8 258.1 261.5 260.6 264.3 268.4 272.7 280.5 287.9 295.9 303.5 307.4 315.7 324.8 333.1 337.8 343 349.9 362 365.8 366.5 369.2 372.2 375.9 378.1 380.7 381.4 383.8 378.3 376.2 367.1 364 361.7 361.2 362.6 367.6 373.3 375.3 375.7 373.8 372.3 369.4 365.8 364.5 361 354.8 349.5 342.8 330.8 321 315.8 318.2 320.8 323.1 325.3 326.5 328.4 330.1 333.5 334.1 335.3 336.2 335.5 335.2 339.4 343.2 340.2 344.4 354.7 367.6 376.3 386.7 396.7 404.6 410.8 416.5 421 426.9 430.1 435 439.3 441.7 445.2 449.3 454.6 460.6 464.9 471.2 477.2 477.6 472.5 459.7 446.5 434.2 421.8 411.1 399.2 391.7 383.4 383.7 384.6 384 383.1 381.4 378.3 372.9 367.5 360.7 356.6 350.2 344.8 337.2 331.1 327.7 326 324 320.9 319.6 316.6 315.1 314.1 314.2 316.2 315.8 316.5 319.4 321.2 323.8 327.1 327 325.1 322.9 322.5 322.6 320 320.5
469.6 470.4 472.8 477.2 483.8 484.2 481.9 481.5 481 479.5 478.8 476 469.2 460.8 452.8 446.7 444 436.4 426 421.7 422.5 422.1 420.8 417.2 418.6 419.1 421.4 423.8 423.6 422.4 421.8 422 424.6 424.9 425.3 426.1 425.4 428.1 426.7 425.5 418 402.7 386.8 368.5 351.9 336.5 322 306.3 288.7 276.8 272.3 268.9 262.2 257.2 249.9 250.2 249.3 247.8 252.9 253.4 251.5 251.6 253 254.9 259.6 264.7 268.2 267 271.3 274.1 279.8 287.5 296.2 303.4 310.1 316.5 323.1 330.7 339.6 345.3 351.1 358.8 369.2 371.7 375.6 378 379.5 383.2 383.4 383.4 384.6 383.2 379.3 375.3 369.9 367.3 364.3 363.8 365.2 371.9 376.5 379.1 378 375.2 371.7 366.7 363.6 357.6 351.2 347.1 344.3 336.2 325.1 319.4 315.8 321.6 324.4 326.5 328.6 330.1 332.2 334.5 336.1 337.7 338.6 339.5 339.4 339.4 344.5 346.8 347.1 336.8 354.2 366.2 376.2 386.8 395.7 404.4 412.2 418.6 424.9 430.1 436.4 440.7 444.7 448.3 452 456.4 462.2 466.2 470 475.1 477.3 473.6 463.1 449.4 435.1 421.8 408.7 395.8 385.9 377.6 369.5 364 361.8 359.9 359.9 358 354.8 349 345.3 341.4 335.4 329.5 322.8 318.1 315.4 315.7 315.3 317.1 317 315.6 312.7 310.8 309.4 309 307.8 307.7 307.4 308.1 309.7 309.7 308.7 308.7 309.5 309.3 307.3 309.3 308.9 309.5
470 471.3 473.3 477 483.7 485.5 481.5 482.1 481.3 482.4 480 474.8 472 462.2 453.3 448.8 442.7 433.5 428.9 425.4 425.7 425.7 425.8 421.5 415.6 417 421.8 423.8 422.7 421 418.9 421.3 422 422.6 423.7 420.3 419.1 423 419.5 414.1 406.4 393.8 374.7 351.1 331.5 316.1 305.4 291.4 274.3 268.6 264.3 258.1 254.7 252.3 249.6 249.5 249.5 248.2 254.6 254.5 255.1 259.7 260.9 261.2 266.6 271.4 274.9 275.2 278.6 281.5 287.8 295.7 302.4 309.7 316.1 321.7 329.5 339.2 349 354.6 360.7 367.2 376.9 383 386 387.1 388.6 390.3 388.5 386.9 382.8 381.4 378.5 375.8 372.2 370.4 366.7 366.4 368.4 376.2 380.4 381.4 378.5 374.3 369.7 363.6 358.6 349.7 342.2 337.9 333.1 327.2 319.8 316.8 316.6 324.7 327.1 329 331.5 334.1 337.1 338.7 339.7 340.9 341.9 342.7 343.6 344.1 348.9 349.9 350.8 348.2 353 364 374.4 384.6 394.8 404 414 421.9 428.8 435.1 442.4 447.6 451.7 455.3 459.9 464.9 469.3 471.7 474.2 477.5 474.7 466 453.6 438.5 424.2 411.6 397.2 386 375.7 365.3 354.7 348.2 344 340.2 337.4 336.1 331.8 328.8 326 323.6 320.9 318.8 316.9 315.7 314.7 314.1 313.8 313 313.6 312.6 311.1 310.2 309.2 308.7 307.2 307 306 305.9 307.1 307.3 306.2 304.3 302.8 301.3 301.4 301.4 301 301.3
469.9 471.3 473.5 476.9 482.7 484.3 481.4 481.6 483.2 486.5 479.2 476.2 470.9 463.7 453.3 446.3 440 435.3 432.8 428 427 427.6 428.8 420.8 414.8 416.4 422.9 422.5 422 419.7 416.4 420.8 421.3 420.8 421.6 418 413.8 412.1 410.1 401.8 388.2 372.1 352.9 331 315.1 302.7 290.3 277.6 272.4 265.2 259.4 251.8 251.2 250.8 250.4 250.1 248.7 249.2 255 255.6 258.2 265.1 268 271 273.8 277.7 281.6 283.3 285.4 289 295.5 302.8 310.9 317.8 325 331 338.6 347.6 359.8 365.7 372.5 378.1 386.4 391.7 394 394.1 395.8 395.7 394.3 391.4 385.9 383.1 379.3 376.6 374 370.9 368.8 368.9 371.5 380.3 381.9 380.3 375.9 371.1 366.2 359 351.1 345.2 337.6 331.8 327 320.9 319.3 320.6 323.8 327 329.3 331.7 336.3 340.6 343.1 343.7 343 344.1 345.2 346.1 347.1 348.4 353.5 353.1 353.9 354.3 349.4 361.5 372.2 382 393.1 405.9 416.1 424.6 432.3 440.6 448.1 453.9 458.1 463 468.8 474.5 476.9 478.4 475.5 470.8 461.2 450.9 438.4 424.3 411.6 398.1 385.8 376.9 364.7 352.6 344.9 338.4 333.7 330.7 328 325.9 324.5 322.8 321.7 320.4 319.2 318.2 316.9 315.8 314.9 314.4 313.7 313.9 312.3 311 310.3 310.1 308.9 308.9 308.8 308.3 307.1 306.4 305.1 304.6 304.3 302.7 301.8 301 300.5 300.7 299.8 300.4
468.6 473.2 473.4 475.4 480.1 482.3 481.6 482.7 483.4 486.8 477.2 472.6 470.9 463 449 444.5 438.8 436.7 435.4 430.9 428.5 427.8 426.5 417.8 414.1 413.5 418.2 418.9 418.1 415.5 413.6 417.8 419.9 418.8 417.9 417.7 412.5 406 398.9 389.8 371.7 354.7 335.3 317.1 302.6 291.7 283 274.6 266.8 258.3 255.6 251.2 251.5 251.1 249.6 250.8 248.5 254.3 258.1 257.7 263.7 269.8 274.3 277.6 280.7 283.1 287.5 291.3 292.2 297.4 302.9 311.5 319.6 326.2 333.9 342.5 348 356.7 368.2 376 384.7 389.3 394.3 398 400.8 403.9 401.8 401.8 399.6 395.6 390.3 384.3 380.6 377.6 374.7 371.6 369.9 370.5 375.2 381.8 382 377.6 371.6 366.4 360.1 354.1 347.8 341.6 334.3 328.4 323.8 320.5 321.5 323.2 326.3 329.2 332.1 335.7 340.7 345.3 348.3 347.4 347 347.8 348.4 349.5 350.6 352.5 357.1 356.5 357.3 357.8 349.7 360.3 369.9 380.4 390.4 404.1 417.2 426.8 435.1 445.5 453.7 459.6 466.1 471.1 477.3 482.5 484.3 483.5 476 465 454 440.3 426.5 411.5 398.8 384.1 374.3 362.7 351.9 343.9 338.6 334.9 335.6 330.3 328.4 326.5 324.7 323.6 322.8 322.6 321.6 322.9 323 324 320.7 317 317.5 317.9 315.6 310.9 310.3 310.4 310.8 311.1 311 309.9 310.5 308.5 305.6 305.3 305.8 304.3 303.5 304.9 302.2 299.9 299 299.3
465.3 472.9 471.8 475.1 480.6 482.3 482.1 483.2 482.7 480.9 473.9 468.8 468.4 461.9 449.6 443.2 440.3 436.8 435.8 434 428.1 425.9 422.9 421.4 413.6 413.6 413.3 415.1 415.2 412.5 411.9 413.9 417.9 416.9 417.1 417.1 412 404 396.4 383.4 362.2 342.2 320.7 305.3 292.5 283.1 274.4 264.5 259.7 256.1 251.5 251.3 251.1 251.3 250.9 249 253.2 258.6 261.1 262.8 269.3 275.8 280.2 283.7 287.5 290.6 294.2 299.9 299 304.4 310.7 319.5 328.3 335.7 343.1 352.3 358.9 367.4 374.7 387 395.2 398.1 400.5 406.1 410.6 410.8 405.9 404.3 402.1 398.2 392.6 386 381.4 378.2 374.7 371.6 369.7 370.5 372.6 380.2 375.8 370.2 366.7 360.9 356.9 351.4 345.4 335 328.7 324.3 324.2 322.9 324.2 325.8 328.2 331.3 334.7 339.5 345.2 349.4 352.6 353.3 353.2 353.8 353.6 354 355.1 357.1 360.5 360.5 360.5 360.2 352.4 362.1 369.7 378.6 389.5 403.8 417.1 427.1 437.6 448.4 457.4 465.4 472.4 479.2 485.4 489.6 491 482.7 473 460 444.4 428.7 414.8 399.7 383.8 369.3 357.9 350.5 347.2 343.8 345.8 345.5 342.1 338 335.8 329.8 329.2 328.1 330.3 331.8 334.3 334.8 336.7 336.6 336.3 332 332.2 328.8 325 315.9 311.2 312.2 313.4 313.9 313.2 312.6 316.8 312.4 308.2 308.9 310.1 311.2 310.9 313.4 308.1 303.3 300.5 298.6
463.5 467.1 471.5 475.1 481.8 481.6 482.2 484 483.4 478.8 473.1 468.9 465.6 459.1 451.9 447.3 441.8 438 442.3 431.6 426.8 423.8 421.9 418.8 413.3 410.5 410.5 411 410.2 409.7 411.3 412.9 415.6 415.4 415 416.3 409.1 402.7 394.3 381.3 360 336.2 311.7 289.5 282.5 273.1 266.3 259.9 256.9 253.5 251.9 251.6 251.5 251.3 248.8 252.7 256.5 261.4 267 270 276 282.5 288.2 292 293.8 297.2 304.6 304.8 305.7 310.8 319.5 328.9 338.1 346 353.1 359.7 369.7 375.7 387.4 395.2 401.5 404.5 408.7 413.2 414.5 412.2 408.9 405.9 403.4 399.6 392.8 387.4 382.2 378.4 373.7 370.8 368.5 369.5 370.9 373.5 366 362.7 359.9 355.5 351.3 348 340.5 328.6 332.3 330.5 331.8 330.4 326.7 328.3 330.6 333.9 337.3 343.4 350.1 354.8 356.5 357.8 358.5 358.4 358.6 359 361.2 362.6 364.6 363.5 363.1 362.7 355.5 364.1 370.3 376.8 389.2 404.5 417.5 429 438.3 450.3 461.5 470.9 479.2 486.6 491 494.1 490.6 481 465.9 448.2 432 418.5 406.1 389.7 376.3 360.4 353.8 348.9 348.4 348.6 350.1 352.3 352.6 354.7 355.6 350.7 346.5 344.7 344 345.2 348 351.4 350.7 350.4 351.2 351.1 352.8 346.5 342.9 331.2 325.4 324.2 316.6 317.3 315.5 318.8 320.5 321.4 314.6 316.5 320.1 321.1 319.9 321.1 320 314.1 305.8 301.8
462.2 464.6 470.2 473.8 481.3 479.1 479.2 481.3 477.2 477.7 472.5 466 463.6 457.9 453.7 452.1 445.8 444.3 436.5 431.1 426.3 423.3 421 420.2 413.9 411.6 409.7 407.8 408.2 409.3 410.5 412.2 414 413.8 413.4 411.3 409.1 401.7 388.5 376.6 359.6 332.3 304.9 285.8 271.1 266.5 261.8 258.6 256 253.2 251.2 251.5 251.8 251.1 255 260 263.6 268.4 274.4 278.3 283.9 292.2 297.7 298.9 304 310.2 312.2 311.6 313.3 317.5 327.9 338 347.8 355.6 363.4 369.7 378.3 385.8 397.2 402 407.2 409.5 416.7 418.5 415.7 413.1 410.4 407.7 404.3 399.5 392.3 387.5 382.4 376 371.1 368.5 366.2 366.6 366.2 362.7 359.5 357 353.5 350 346.5 340.1 331.6 337.7 338.8 338.3 336.3 333.2 329.9 330.6 333.2 336.6 340.4 348.2 355.7 359.3 360.2 362 363.4 365 362.8 362.3 365.7 367.4 369.2 366.8 366.1 364.6 355 365.1 370.8 376.7 387.6 403.1 416.8 429.6 439.6 452.3 462.4 473.2 481.4 487.9 491.9 490.3 481.2 467 451.2 434.4 420.6 409.4 397.1 382 368 361.6 354.7 356.7 356.2 352.1 357.7 359.6 365 368.1 368.7 369 368.6 367.9 366.1 364.7 364.1 364.6 363.9 362.8 361.8 363.1 361.9 359.5 353.6 347 334.7 326.4 320.1 320.2 318.5 323.5 325.5 327.4 328.1 326.8 328.3 328.5 328.6 329 327.6 326.2 322 315.9
461.8 463 467.6 472.2 478.3 477.1 477.5 473.6 470 475 471.8 462.3 458.4 457.1 454.4 450.5 446 447.4 439.4 433.8 426.5 423.1 420 416.3 412.6 411.9 411.1 407.2 407.7 409.5 410.6 411.7 413 413.9 412.9 411.7 406 395.8 385.1 373.7 350.9 321.9 295.2 282.7 267.7 261.8 258.1 256 253.7 250 250.5 251.4 251.8 256.3 261 266.7 272.2 276.5 284.7 287.6 293.7 302.7 310.7 316.1 321.6 322.7 320.8 323.2 321.9 330.4 336.4 346.2 357 363.9 371 379.8 384.8 396.9 402.9 406.5 413 416.5 423.7 422.9 417.6 415 410 406.9 401.6 395.2 390.3 386.5 381 374.1 368.8 365.6 362.9 362.8 360.3 357 353.6 352.1 348.6 345.4 340 333.9 342.2 343.1 342.6 341.4 339.5 335.5 331.7 333.1 337.2 340.5 346.4 355.5 361.2 363.3 364.5 365.9 368.3 369.2 368 368 369.9 371.6 373.6 371.6 370.4 369.7 366.3 361.4 371.3 377.2 384.4 396.9 413.2 425.7 436.7 448.6 460.5 469.4 478.5 484.5 484.5 476.6 465.4 452 437.1 423.7 411.3 399.4 386.8 376.7 366.4 360 364.5 367.2 368 369.2 369.9 372.3 373.2 375.2 377.1 379.1 380.6 381.4 381.7 379.9 377.1 374.6 373.1 370.7 371.3 371.2 370.7 368.3 364.3 358.5 347.9 334 326.2 323.7 323.8 329 331.9 334 334.9 335 334.2 335.4 334.6 333.2 334.1 335.1 334.3 332.4
460.5 461.7 465.5 467.5 471.3 473.6 474.6 470.4 467.6 465.1 461.4 459.8 454 453.7 450.9 447.9 445.6 442.4 435.8 429.1 425.1 421.3 417.3 412.1 410.8 409.7 408.1 405.9 407.3 409 410.8 411.8 413 414.5 413 409.4 401.5 388.1 377.7 364.6 340.7 311.3 285.1 274.1 264.2 261.1 258.3 254.3 251.8 251.3 252.1 252.7 256.4 261.9 267.8 274.3 280.3 286.2 295.5 301.4 309.6 319.4 328.8 334.3 336.6 339.4 344.3 341 347.3 345.1 345.6 354.7 365.9 374 379.1 385.8 394.4 402.7 408.2 410.9 416.9 422.2 428 424.2 418.3 414.6 410.5 403.9 397.5 391.7 387.6 384 378.8 372.8 366.8 363.2 359.7 358.1 355.7 352.8 349.9 347.8 343.7 339.4 340.3 345.1 346 346.3 346.2 346.1 342.7 338.3 334.4 336.5 340.8 344.8 351.4 361 365.4 366.8 368.2 370.5 372.1 372.9 373.4 374.3 375.5 376.4 377.3 379 377.7 374.1 371.9 360.4 373.5 378.6 383.2 392.4 408.6 421.4 431.7 442.5 454.5 462.7 472.2 475.5 471 460.6 450.8 437.7 425.5 413.4 402.7 391.7 382 372.8 378.2 378 381.8 382.6 382.1 385 385.7 385 384.2 384.4 385.1 388.6 389.8 390.6 393.5 393.7 391.2 387.4 389.5 389.4 388.2 383.2 381.1 377.9 373.4 363.2 349.4 334.3 332.9 335.9 333.8 340.4 340.3 338.8 340 341.4 341.7 342.2 342.2 339.3 338.5 338.4 339.6 340.3
459.7 460.1 462.1 463.6 468 469.4 469.7 468.3 467.2 463.4 453.6 451 451.8 448.9 446.5 443.6 439.4 436.5 428.2 421.9 420.3 416.8 412.7 410 409 408.5 406.7 406 407.6 408.7 410.3 411 412.1 411.9 412.2 403.7 394.4 380.5 366.1 347.5 324.8 301.1 279.6 270 261.9 259 255.2 252.6 254.2 253.3 252.7 254.1 261.2 268 273.5 281.8 287.8 299.4 310.1 321.3 328.6 340.4 351.5 354.2 353.8 352.7 352.9 354.1 358.5 358.1 352.5 364.3 371.6 379.5 386 391.5 400.6 405.8 411.9 417.2 422.2 425.9 428.7 422.7 419.1 415.9 410.6 403.5 397.2 391.7 386.8 381.6 376.2 371.1 366.2 361.2 356.1 354.3 351.9 349.3 346.5 342.8 339.2 341.9 346.1 347.5 348.9 349.5 349.4 349.2 346.6 340.8 336.3 339.7 344.5 349.1 357 365.8 368.6 370.5 372 374.2 376.6 377.6 379.6 379.8 381.7 382.5 383 383.5 382.9 379.2 376.9 368.4 363.7 381 383.7 390.8 403.7 416.3 426.4 436.4 446.4 453.9 459 460.2 456.4 449.7 438.9 426.4 413.3 403.8 395.9 383.3 382.6 390.1 393.2 390.9 398.3 401.8 402.1 405.6 408.1 405.7 404.1 401.8 406.3 408.5 409.5 412.3 413.7 414.6 412.6 407.9 406.6 406.1 404 399.7 393.9 387.4 379.3 365.4 350.4 345.6 352.3 349.5 351.9 352.4 351.5 350 349 349.4 351.9 351.3 351.2 349.5 349 346.4 345.3 344.8
458.9 458.9 458.9 460.2 465.3 467.4 466 463.9 465.3 462.1 453.2 448.8 445.8 444.4 440.7 437.2 434.5 431.1 424.7 421.4 419 415.7 411.8 409.1 407.7 407.7 406 405.6 408 408.7 409.3 408.9 409.7 411.1 405.8 395.1 385.7 372.6 354.9 329.5 304.6 284.9 276.3 268.2 261.6 258.3 253.6 254.9 254.4 254.2 253.8 257.2 266.9 274.5 283 290.9 300.9 315.4 327.4 341.2 347.4 366.8 377.5 377.2 365.7 363 362.7 365.2 364.9 364 360.6 369.2 377.6 385.5 391.5 398 405.5 410.9 418.5 422.8 425.2 427 427 424.5 420.8 418 411.1 405 397.9 392 386.5 379.1 373.7 368.4 363.4 358.5 354.8 352.2 348.1 345.3 341.1 342.2 342.4 345.9 349 350.2 351.4 352.7 353 353.1 352.9 347.2 342.6 342.8 347.4 353.8 361.1 368 371.6 373.7 375.9 379.7 382.6 384.1 387.8 387.9 387.7 388.2 388.5 388.7 388.6 384.9 380.9 381.2 367.8 373 382.7 388.2 399.6 410.7 419.7 429.8 438.7 445.4 448 447.2 444.6 437.3 428.7 416.1 406.6 399.6 400.5 401.1 403.3 407.4 409.2 407.2 415.7 418.2 422.1 425.1 428.9 428.6 427.2 425.1 428.5 429.1 430 429.7 430.8 431.5 428.5 424.5 421.3 418.3 416.5 412.2 403.2 393.1 382.7 367.7 360.3 365.4 367.4 367.7 367.2 370.6 370.5 369.9 370.1 370.7 367.3 366.7 364.7 364.6 364 361.6 357.7 354.1
457.8 456.8 455.2 458.1 462.7 465.3 462.5 460.2 459.2 454.9 451.1 447.8 441.6 436.7 434.8 436.5 430.2 426.1 422.5 419.8 416.9 413.1 410.9 408.5 406.5 406.8 403.9 405.2 407.8 408.2 408.4 406.7 405.9 404.6 398.9 389 382.3 362.9 336.9 312.5 289.5 281.1 273.9 267.5 262 258.8 252.5 255.5 254.8 254.3 255.3 266.2 275.4 283.5 292 301.7 319.8 339.4 352.1 363.5 371.9 387.5 388.4 384.2 375.6 372.4 369.4 370.2 369.5 368.8 365.7 373.4 382.1 390 395.9 405.1 412 414.6 423.3 424.2 425.6 427.9 429.4 426.5 423.4 419 410.7 405.7 397.9 391.4 384.8 373.7 369.4 364.2 358.8 356 353.3 350.1 347.5 343.6 344.6 346.9 349 350.8 351.9 353.5 355.2 356.8 357.7 357 357.5 354.1 347.2 346.5 349.7 357.3 364.3 371.5 375.3 378 381.9 385.3 389.2 391.7 394.9 397.2 396.6 395.3 394.2 394 394.5 390.8 385.4 385.6 380.9 369.3 383 389.3 396.3 406.1 414.4 422.1 430.7 437.5 439.9 438.5 433.2 428.1 419.6 412.3 412.2 411.5 411.3 413.3 417.6 420.4 423.1 428.1 432 435.9 441.4 443.8 448.3 449.6 449.2 448 448 447.6 447.8 447.2 446.7 445.7 442.8 436.1 431.5 429.4 423.9 417.8 406.2 396.3 384.2 377.1 380.8 378.4 377.2 377.5 382.6 385.8 387.5 390.3 390.5 389.7 387.1 385.9 383.3 381.3 379 375 369.5 365.3
456.9 453.6 450.7 454.5 457.9 457.5 454.8 456.9 451.7 449.1 446.5 443.7 437.6 435.1 433 431.8 429.2 425.7 421.1 416 413.6 411.2 408.9 407.5 404.2 402.7 405.4 406.1 407.8 408.2 406.5 405 402.4 396.9 390.9 382.5 367.8 342.2 314.7 290 283.7 279.3 272.5 266.6 261.6 253.7 255.7 257.8 260.1 257.1 263.1 275 283.9 291.5 298.7 316.8 344.8 374 381.8 390.3 400.5 401.7 397.8 389.8 383.5 377.3 373.3 372.2 372.9 371.9 369.4 376.5 384.8 391.9 401 408.1 416.5 419.1 423.5 425.7 428.5 431.5 431.9 428.5 423.7 417.8 411 403.9 395.7 388.9 383.1 371 364.1 358.8 355.3 352.5 349.6 347.5 344.8 343.3 346.9 350 352.9 354.8 356.4 357.9 359.6 361 361.9 362.1 360.8 358 353.5 348.5 356.7 361.5 369 376.2 381.6 384.3 388.5 392.8 397.3 400.2 403.5 406.3 406.4 403.9 401.7 401 399.4 395.6 390.2 390 389 373.5 383.2 390.3 391.2 404 411.6 417.5 424.2 430.2 432.2 432.3 427.2 423.5 422.7 422.4 424.4 424.3 423.4 425.5 429.4 433.5 438.5 441.6 447.9 455.8 459.8 462.7 465.1 467.6 469 470.1 470.8 469.7 468.6 468.2 462.5 457.2 452.4 445.8 438.2 433 426.9 420 410.2 395.7 389.9 390 387.7 386 386.9 390.8 397.1 401.4 405.3 407.7 408.4 409.4 409 408 405.3 399.7 394.5 388.9 382.6 375.8
454.8 451.4 447.7 448.9 449.5 447.6 450.2 448.8 444.9 441.2 440.1 438.5 434.9 436.8 431.6 431.9 429.4 426.6 422.9 418.3 413.7 407.9 405.8 403.5 401.8 401.8 404.6 406.4 407.7 407.3 404.1 399.8 397.2 391 381.5 372.2 346 321.1 294.8 285 280 275.1 271.2 265.7 255 256 260.4 263.6 263.6 264.4 272.3 281.8 291.1 300.6 316.4 337.2 371.4 389.2 399.3 404.4 410.6 411.8 408.1 397.9 390.9 384.7 377.5 376.4 376.1 373.9 373.4 378.9 387.2 395.7 404.9 413.8 418.8 422.3 425 426.1 432 435.5 434.1 428.8 422.8 415.9 408.2 400.6 394.1 389.1 382 368.4 360.3 355.7 352.1 349.3 346.9 344 344.9 348.6 350.9 353.2 356.1 358.7 361 363.2 364 365.3 365.7 365.2 365 364.5 363.5 351 361.6 367.7 375.6 382.5 387.3 390.5 396.5 401.8 405.2 408.3 412.6 414.4 415 413.1 409.5 407.4 405 403.3 396.9 395.4 387.2 379.9 391 394.6 401.4 403.3 408.6 415 420.2 424.2 428 429.6 428.9 429.8 432 434.5 434.9 434.7 435 437.9 442.6 447.9 453 457.9 466.6 474.2 479.2 481.2 483.2 487.5 490.7 493.9 496.1 495.7 492.1 487 476.9 468.5 461 452.2 444.9 434.9 428.2 418.9 405.5 402.5 402.3 396.7 394.4 395.4 400.5 406.7 411.8 415.5 419.1 422.3 424.3 425.6 425.8 424.2 421.3 415.6 409.5 402.6 393.7 385.2
452.9 448.2 445.2 443.2 442.4 440.9 440.1 438 437 437.6 436.8 435.4 432.7 432.1 430.5 429.6 427.8 425 423.1 418.3 414.1 406.5 401.8 401.1 398.1 399.8 403.9 406 407.2 406.6 401.2 396.9 393.2 386.6 376.7 350.2 326.3 301.4 287.2 281.5 275.1 271 268.2 263.2 253.2 260.5 264.7 267.1 268.8 272 278.6 286.9 301.6 315.7 348.5 375.5 388 398.9 406.5 410.8 414.4 417.1 413.8 403.3 396.7 389.1 381.5 380.3 379.2 377.8 378.4 383.8 392.2 400.8 410 416.7 422.1 424.9 426.2 430.3 436.8 439.2 436.7 429 420.9 414.2 403.7 397.2 391.4 384.2 374.7 364.6 356 352.8 350.7 347.3 344.5 346.8 348.7 351.4 354.7 357.5 360.7 364.7 366.6 368.4 369.3 370.3 369.3 369.2 369.3 369.4 368.4 355.9 366.4 373.9 380.2 386.8 391.6 399.5 406.6 410.1 413.3 418.1 422.7 423.7 423.3 421.3 416.8 412.7 409.7 408.1 406.3 403 387.3 389.9 398 396.3 404.3 407.6 410.7 415.3 419.6 424.5 429.2 432.6 433.2 435.5 438.8 441.2 442.4 444 445.4 450.4 457 461.1 467.4 475.4 484.7 493.7 498.5 501.5 504.4 509.1 510 512.3 512.3 509.7 505.8 500.1 490.4 478.1 464.1 454 444.1 435 426.5 417.7 410.5 411.5 408.8 406.6 404.3 406.7 412.4 419 423.2 427 431.4 434.9 437.5 439.4 438.3 436.5 432.9 427.8 422 413.5 403.4 392.1
451.3 446.6 443.3 441.7 439.6 437.8 435.7 434.4 434.2 434.8 432.8 431.5 429.9 429.7 430.3 426.3 424.4 421.1 416.9 413 410.3 404.7 401.4 397.1 395 399.9 403 405.4 410.4 402.8 397.8 391.9 384.8 379.6 368.8 334.9 308.6 287.1 280 274.1 269.7 267.4 265.6 258.9 254.1 263.4 267 269.9 272 275.6 283.1 296.4 309.7 328 366.2 386.3 395.2 405.2 411.7 414.4 416.2 417.9 413.8 407 400.4 390.9 385.7 384.4 382.7 380.5 381.9 386.1 396.9 406.5 414.1 419.7 423.2 425 427.5 435.6 440 438.5 435.1 428 420.7 411.9 403.3 395.8 390.4 378.1 370.2 360.9 352.7 349.8 348.5 346 345.9 349 351.9 354.8 359.1 364.7 367.6 370.8 373 374.7 376.3 375.6 375 374.2 373.8 373.5 370.8 364 373.3 379.8 386.3 392.5 400.4 409.5 417.1 421.4 424 428 431.8 433.1 432.7 429.3 424.2 418.9 414.4 411.8 411.4 406.8 391.2 401.8 404 404 408.2 410.4 413.3 417.8 423.7 427.9 430.9 433.5 436.8 441.2 445.7 448.1 450.7 452.7 458.7 464.7 469.1 475.8 482.6 492 503.1 511.5 517.2 520.9 525.9 527.3 527.7 527.4 525.8 521.1 513.7 505.3 493.9 480.8 467.7 453.6 444.5 433.8 425.7 416.8 416.1 417.3 414.5 414.3 416.6 421 426.6 431.2 435.4 438.5 442.9 446.2 449.1 449.7 448.4 445.1 440.7 435.9 429.6 420.8 408.3 395.2
449.6 445.8 442.6 440.1 438.2 435.7 432 432.3 432.8 431.7 430.3 427.7 426.7 426.2 430.4 424 419.3 412.9 410.6 407.7 405.5 401.6 396 393.1 395.6 398.9 401.3 411.5 410.6 396.6 391.8 388.4 378.6 373.7 352.3 324.5 293 279.7 272.6 267.7 266.8 264.2 262.7 258.8 255.2 264.9 268.8 272.1 274.4 278.4 289.9 304.6 315.4 340.9 374.7 390.2 397.4 409.4 414.1 415.4 416.8 417.3 413 406.2 398.1 392.8 390.4 388.6 383.7 383.5 385.1 392.6 400.9 412.2 417.2 421.3 423.5 425.1 429.9 439 441 439.4 436.5 428.7 418.5 410.6 400.8 393.5 383.9 374.8 368 358.1 350.5 347.9 345.9 345.5 349.1 352.5 355.8 360.1 367.3 372.5 376.4 379 381.4 382.7 382.8 381.7 380.9 379.9 377.5 376.6 371.7 372.6 378.6 384.4 391.5 402.5 411 419.6 427.2 432.2 434.5 438.1 440.9 442.4 440.8 437.3 432.1 426 419.2 416 413.6 411.2 392.2 406.6 408.4 410 411.8 413.6 416.6 422.6 428.8 432.9 435.1 439.1 442.2 446.8 454.5 457.3 459.5 465.2 471.3 476.8 482.2 490.8 499.9 511.4 520.6 528.7 534.5 539.8 541.6 543.1 541.3 538.6 532.9 525.9 516.4 503.8 489.6 478.1 463.8 452.7 444.5 434 426.4 419.1 422 422 422 423.6 427.5 432.2 436.7 442.3 447 450.2 454 456.7 458.8 458.9 456.8 451.6 447.4 442 433.7 423.6 411 397.2
450.4 446.6 443.7 440.3 438.2 436 432.9 429.3 429.3 429.1 427.8 425.1 423.2 422 421.9 419.5 416.1 413 409.2 405.6 402.9 400 395.8 391.3 392.6 397.9 397.3 397.3 393.5 389.2 385.5 380.5 371.8 356.8 331 307.2 282.3 273.6 269.3 267.4 266.1 261.6 259.3 258.5 257.7 266.6 270.6 274.2 278 285 298.8 310.9 324.9 355 378.7 394.1 403.6 412.9 415 416.5 417.4 416.6 413.9 405.5 399.2 396.8 395.6 391.7 386.2 386.9 388.6 396.7 403.8 413.8 419.4 422.4 424 425.8 431.3 438.1 438.8 437.4 432.6 424.9 412.5 403.6 397.2 390.4 383.3 373.4 365.3 354.4 348.9 346.1 347.2 348.3 352.1 356.2 361 367.5 374.3 379.7 384 386.7 388.4 390.5 390.4 389.1 388.5 386.5 382.9 380.5 373.3 376.2 383.4 390 398.3 409.8 421.4 429.8 438 443.1 444.6 449.3 451.4 451.3 448.7 445.4 440.1 433.7 425.4 420.9 417.4 414.8 399.3 404.3 412 413 414.8 416.6 420.8 427.8 434.2 437.8 440.3 443.4 446.8 451.7 458.4 464.7 469.6 477 484 489.4 497.3 507 517.5 527.8 537.2 544 549 552.4 553.3 553.5 550.6 544.2 537.1 526.4 515.9 499.1 486.3 473.6 461.8 452 444.2 437.2 427.3 430.8 429.5 430.4 432.2 434.8 438.8 442.9 449.2 454.2 457.9 461.4 464 464.9 465.4 464.7 462.6 457 451.2 444.2 435.1 424 410.3 396.2
451.2 447 444.2 441.8 439.5 437.6 434.9 431.9 427.2 425.4 424.9 422.5 420.7 420 418 416 413.6 411.8 410.4 407.4 403.3 398.9 394.5 392 391 393.5 394.1 389.1 386.5 383.8 378 375.8 366.8 345.9 316.5 295.3 278.9 272.4 269.1 266.9 265 263.7 263.9 259.1 261.9 266.2 272.1 277.5 282.5 292 306.3 318.6 334 361.2 384.3 397.4 407.3 415.3 417.9 418.1 418.1 416.1 411.7 404.9 403.4 401.3 397.2 392.2 388.1 390.3 392 398.4 406.7 415.1 420.6 422.5 423.9 428.4 432.5 435.6 435 432.2 428 416 406.5 401.9 394.7 387 376.5 370.6 358.5 350.1 348.3 346.1 348.1 351.4 355.7 361.9 367.9 375.6 382.1 387 390.6 393.4 396 398.6 399.5 398 396.1 393 389 385.2 380.2 381.3 387.8 398.9 409 421.6 433.8 442 449.6 453.6 455.8 460.8 463.1 461.1 458.8 454.1 447.5 440.3 432.6 425.9 422 417.8 406.7 410.1 415.4 416.3 417.7 421.1 426.3 433.4 440 442.8 445.4 448.2 452.3 457.3 465.6 474 479.8 487 496 505.1 513.5 523.6 533.8 542.9 550 557.2 561.9 563.3 562.5 559.2 554.1 546.9 537.7 524.8 509.1 494.6 481.7 469.9 460.3 452 445.6 435.8 436.2 439.7 440.2 440.8 444.2 447.3 451.1 456.8 461.6 466 469.8 472.3 473.6 473.3 471.6 470.1 466.9 460.6 452.2 443.6 434.3 422.3 407.4 393.3
450.8 447.7 444.3 441 438.7 437.9 435.2 433.5 430.8 425.5 420.5 419.3 418.7 418.2 416.5 414.2 413.1 411.9 409.9 407.3 403.1 396.2 393.4 388.4 386.7 390.6 388.1 385.4 382.2 378.3 371.5 365.8 355.9 333.6 310.8 293.1 277.7 273.4 268.8 266.1 265.4 266 263.6 259.1 265.4 269.9 273.2 279.2 288.4 298.8 313 326.7 347.4 370.1 387.4 400.9 412.1 418.1 419.7 419.3 418.6 414.6 411 408.1 406.3 402.7 398.2 395.1 391.2 392.1 393.9 402 409.5 417 420.3 421.7 423.7 427.6 433 434.3 431.5 426.4 417.1 410.4 402.7 398.1 390.2 381.3 376.7 363.3 349.6 348.8 348.3 346.9 350.3 355.6 361 367.7 375.7 384.1 390.9 395.7 399.1 401.3 404.8 407.7 408.1 405.6 402.2 397.6 393.6 389.6 380.2 388.3 396.3 410.3 418.8 436.3 446.3 452.3 458.9 465.3 469.4 472.1 474.3 472.1 466.7 462.9 455 446.7 438.8 431.5 426.9 422.1 413.1 410.2 417.4 419.2 421.1 425.4 431.9 438.2 442.4 447.3 449.9 453.1 456.3 461.8 470.5 482.5 491.9 499.1 510.9 518.7 529.1 538.8 547.7 557.4 564.1 569.6 572 571.1 567.9 562.4 555.1 544.1 532.7 519.6 505.1 490.7 478.3 467.5 459.5 451.8 444.2 444.3 448.2 449.4 450.1 454.3 456.1 459.8 464.4 469.8 475.3 478.8 481.2 482.4 482.6 480.8 477.7 474.2 470.1 463.6 453.5 442.9 431.6 418 404.3 389.3
450.5 447.4 443.8 440.6 439.8 439.1 437.1 434.4 432 429.4 423 418.4 415.7 414.7 414 412.8 413.1 411.6 409.3 405.6 401.2 396.8 396.2 393.7 391.1 383.1 384.7 384.9 377.6 367.7 360.9 358.4 342.9 320.8 305 288.2 278.3 270.4 270.9 268.3 265.8 266.3 262.7 264.9 267.6 271.8 277.3 283 293.5 305.6 319.5 335.1 359.1 379.1 394.8 406.5 416.3 419.8 420.9 419.8 418.8 415.4 412.5 410.1 407.4 403.2 399.6 397.3 394 394.9 396.6 402.5 409.4 416.2 418.7 420.3 423.9 427.6 431.2 431.9 427.2 421.1 414 405.6 399.8 393.6 384.6 376.6 368.5 352 348.9 348.5 347.9 349.9 354.1 360.4 367 376.1 385.5 393 398.4 404 407.3 410.6 415.3 416.5 415.8 412.2 407.6 401.5 396.9 393.3 389.3 397.7 407.5 418.1 428.3 445.7 456.4 466.3 472.5 476.8 479.9 481.7 483.4 481.4 477.4 469.5 461.5 454.3 445.7 437.6 429.3 423.6 417.7 409.9 418.1 421.6 424.4 429.2 435.5 442 446.7 450.9 454.1 457.5 461.6 466.1 474.3 490.2 500.4 510.1 522.5 531.2 542.9 552.1 561.5 569.7 575.9 578 578.1 575.3 569.9 562 552 539.4 528.3 514.5 500 487.1 477.5 468.4 459.9 455.5 455.9 455.7 457.4 459.1 464.1 466.3 469.2 472.6 477 482 486.3 488.9 490.7 491.1 489.6 488.4 485.7 481.6 475.9 468.4 455.3 441.5 427.8 412.9 398.8 382.6
451.3 448.2 444.2 441.5 441.4 440.4 437.8 435.8 435.6 432.2 424.5 418.8 415.8 411.6 410.5 410.4 411.6 410.5 408.7 406.3 399.4 402.4 397.5 394.5 391.4 388.9 380.8 374.1 373.3 364.6 353 342.9 330.3 313.8 297.7 288 276.3 276.3 275 271.6 268.7 265.7 265.4 267.7 271.1 275.4 281.5 288.8 298.8 311.5 327.1 344.4 369.6 386.6 400.6 410.6 419.3 421.6 420.8 420.3 418.6 416.8 414.9 411.1 407.9 403 401.5 399.3 396.8 397.7 399.7 402.8 409.5 413.5 416.6 418.2 422.3 426.5 428.7 425.3 422.5 417.5 412.3 401.1 393.7 386.9 378.2 369.8 360 349.6 348.9 348.3 350.1 352.7 356.9 364.6 375.1 385.2 393.3 400.4 406.1 412 417.2 420.9 424.5 424.9 423.2 419.5 412.8 406.2 403.4 395.2 398.3 408.6 417.5 427.2 439.5 454.6 465.9 475.2 482.1 487.9 491.3 493.5 492.5 491.2 486.7 479.5 471.2 462.9 452.6 442.8 430.6 422.3 417 411.2 418.8 422.9 428 433.1 439 444.8 449.6 454.4 457.9 463.1 468.2 473.4 481.1 496.1 510.4 521 532.7 543.2 553.7 563.7 572.5 578.3 582.7 583.5 581 575.7 569.6 560.5 549.2 537.6 523.8 509.7 499.7 488.7 478.4 468.5 460.6 463.2 463.9 464.4 467.2 471 474.9 477.7 479.3 484.3 489 492.9 497.1 498.3 499.9 500 497.3 495.5 491.9 488.9 481.9 470.7 456.7 440.7 423.9 410.5 396.7 383.2
450.9 447.9 444.5 443.3 443 441.8 439.7 438.3 437 433.9 427.4 424.9 422.2 416.5 412.1 408.2 409.8 410.2 409.7 406.9 404.6 406 398.8 395 392.6 389.7 381.8 376.8 365.9 359.9 351.1 334.7 319.1 306.4 296.3 285.6 281.8 280.8 277.5 273.1 269.3 266.2 270.6 272.8 274.2 281.5 287.7 296.3 307.5 318.6 334.2 354.9 378.1 393.1 405.4 414.5 420.4 422.8 422.6 421.5 420.9 420.2 417.8 414.5 408.5 402.5 401.3 400.1 398.8 400.3 401.7 402.7 407.7 411.3 413.5 414.9 419.7 423.1 423.1 423.4 421.4 415.4 401.8 395.1 387.9 381.2 370.7 362.2 352.6 349.6 348.8 349.8 353 358.2 366 372.7 382.2 393 400.2 407.9 415.3 420.9 426.7 429.9 431.9 434.3 431.8 428.4 420.6 415.6 412.2 400.7 410.1 416.7 424.9 436.3 449 462.4 473.9 482.9 491.6 496.9 500.5 502.4 502.2 500.7 497.3 490.2 481.4 472.2 460.6 445.1 430.7 421.5 415.6 414.9 419 422.7 427.8 434.3 441.3 447 452.2 456.9 461.9 466.6 472.4 481.5 491.6 505.8 519.8 530.6 541.4 552.8 563.7 573.2 580 584.6 587.1 585.9 582 576.7 569.5 560.2 548 534.7 521.9 507.3 498.2 489.4 478.7 468.2 471.6 472.4 472.4 475.4 477.9 480.8 486.6 489.7 493.7 496.7 500.4 503.6 507.2 508.9 509.4 508.1 504.9 502.3 497.1 491.5 481.7 469.7 454.9 437.8 421.3 407.9 395 377.8
449.6 446.9 446.7 446.4 447.1 445.7 442.6 440.6 438.8 435.9 433.5 433.3 429.6 421.2 415.2 411.5 407.1 406 404.9 405 409.4 406.8 403.7 398.9 396.6 391.2 385.6 377 362.3 352.5 336.7 323 308.4 303.2 292.6 287.9 287.8 283.3 278.8 271.6 267.5 269.6 274.3 280.7 284.8 284.1 292.6 304.8 314.4 325.3 342.8 365.8 385.1 398 408.6 416.4 421.7 424.1 423.9 424.1 423.7 424.8 423 416.5 407.4 402.9 401.6 400.5 399.7 401.3 402 402.4 405.6 407.9 410.2 411.8 415.2 417.1 416.7 416.1 412.4 401.3 394.6 388.4 381.1 373.6 362.2 355.3 351.3 349.5 350.5 353.3 360.2 367.9 374.1 382.6 392.2 401 408.5 415.7 422.3 430.7 436.1 439.4 440.1 440.5 440.2 436.6 428.9 423 417.7 403.9 415.6 424.4 433.5 444.6 457.7 470.3 482.4 492.5 501.2 505.2 508.1 510.6 511.2 510.1 505.7 500.1 492.6 481.8 464.7 445.4 431.2 421.4 414.9 414.8 418.2 421.8 429.2 435.2 441.9 447.1 453.3 459.3 464.8 471.7 479.9 485.3 499.5 514.1 529.2 539.5 550.7 560.8 571.4 579.6 584.7 589 590 587.5 582.2 576.4 568.5 559.2 545.3 530.8 516.5 507.4 499 489.2 477.7 479.9 480.6 480.3 482.9 486.9 489.9 494.3 499.4 502.5 505.6 509.7 511.9 514.1 516.9 516.7 516.5 515.3 513.3 508.9 502.5 494.8 482.8 469.5 452.9 437.2 422.1 407 392.9 377.8
447.4 446.7 449 450.1 451.1 446.7 445.4 445.7 443.6 440.9 442.2 440.7 435.2 427.8 421.2 415.6 413.9 413.9 410.9 409.6 410.4 410.5 407.9 404.9 402.4 395.4 389.9 377.4 359.8 351.3 340.6 323 309.3 300.1 294 291.9 289.2 282.2 274.1 268.6 271.3 274.4 279.2 283.6 287.6 291.8 297.3 310.5 319.7 332.8 351.9 375 390.3 402.7 409 415.9 419.7 423.6 425.8 426.6 427.7 429 426.2 414.8 407 403.3 402.2 401.5 400.7 401.2 401.5 401.5 403.7 405.8 407.1 409 410 411.1 411.1 409.1 402.3 395.5 389.4 382 374.7 366.1 354 351.9 349.8 351.2 354.1 357.6 367.2 374.2 381.8 391.4 401.9 410.4 418.4 426.8 433.2 439.6 445 447.1 449.6 449 446 442.2 436.3 429.6 421.4 410.3 422.7 429.3 439.7 452 465.8 477 490.2 502 508.6 513 516.1 518.8 519.7 518.9 515.6 509.4 499.7 485.8 466.4 446.9 432.6 421.9 416.3 412.3 417.5 422.9 430.9 439.3 445.6 450.4 456.6 462.2 467.7 476.4 489.1 497.2 501.1 519.8 535.2 548.2 560 569.3 577.9 586 589.1 592.4 592.2 588.5 582.5 575.9 567.9 556.5 543.6 529.7 518 508.7 500 491.1 488.7 488.7 489.5 491.1 493 497.7 502.8 505.4 510.2 514.9 519.1 521.4 523.3 524.9 525.8 524.5 523.5 523.2 520.2 514.1 506.2 495.1 482.6 469.2 451.6 437.6 421.8 399.5 386.6 375.6
446.5 446.9 449.8 454.9 449.9 447.1 448.5 449.4 447.8 447.3 447.6 445.6 441.1 434.7 427 424.9 422.3 420.8 417.9 415.1 417.1 414.9 410.2 407.2 404.1 399.2 389.2 371.9 356.4 347.7 336.1 318.1 308.9 302.5 296.6 292.6 287.6 278.7 271.2 272.7 274.5 277.7 282.5 288.4 292.7 297.9 305.8 316.3 325.1 341 361.8 381 394.3 404.8 411 415.6 419.1 423.4 428.1 428.2 430.2 429.8 423.3 412.4 405.9 403 401.6 400.9 399.7 400.3 400.8 401.1 401.9 403.3 403.8 406.1 406.9 405.7 405.2 402.2 397.6 392 384 375.9 369.4 358.7 353.2 350.2 353.3 355.8 359.6 364.9 372.3 381.4 389.7 401.3 410.4 418.9 428.4 435.8 444 451.8 452.7 455.4 455.9 455.5 452.5 448.4 443.1 434.7 427.7 421.7 430.7 439.5 449.5 461.1 473.1 484.6 498.6 509.4 515.7 519.7 523.3 526 526.9 526.9 524.2 517.6 505.5 486.2 465 448.4 435.7 425.1 419 413.4 417.2 423 432.2 441.3 449.6 455.5 460.3 465.4 471.5 481.8 495.1 507.7 515.9 524.1 538.1 553.9 567.8 576.7 585 592.8 595.9 596.5 594.7 589.3 583.1 575.6 566.7 555.5 542.8 530.4 518.7 508.5 501.5 498 497.4 497.5 500.6 503.7 505.3 508.3 513.9 519.1 523.9 528 531.7 532.8 533.8 534.4 533.6 531.5 529 525.9 521.3 513.8 503.6 492.6 478.9 467.5 456.8 440.7 423.7 401.7 385.5 375.5
446 445.5 449.3 454.2 446.6 446.3 450.8 451.8 451.8 455.2 450.7 448.7 446.5 440.2 434.6 432 431.4 429.7 423.1 419.4 421.4 419.6 413.4 408.5 404.5 396.7 382.9 365.3 354 344.9 328.9 318.6 311.9 304.5 298.3 293.7 287.7 277.7 271.9 275.5 277.9 281 286.9 295.5 298.6 304.6 313.6 318.2 329.8 350.3 371.4 385.6 397.8 406.9 411.7 415.6 419.6 424 428 429.7 431.5 428 421.3 411.6 405.7 402.6 401 400 398.6 399 399.5 399.5 399.7 400.2 400.4 403.9 402.8 400.4 399.2 394.3 388.6 384.1 377.2 369.1 360.3 355.7 352.3 353.9 356.8 360.7 365.3 371.9 379.6 389.5 397.9 410.4 421 427.9 435.4 444.2 452.6 459.5 461.8 462.6 462.5 460.6 458.7 453.2 446.9 440.8 427.3 432.2 440.5 448.4 460 469.4 480.2 491.5 505.7 515.3 523.9 528.9 532.6 533.7 535.2 535.8 533.2 526.9 511.6 488.4 466.3 451.4 441.7 430.4 421.4 417.5 417.3 421 431.8 443.3 452.1 459 465.1 470.4 476.3 487 501.5 513.2 524.4 533.5 543.9 559.6 571.6 582.4 591.3 599.1 600.6 600.5 597.5 590.9 583.1 574.5 565.9 555.2 543 531.6 518.2 509 504.3 506.4 505.6 508.7 511.5 513.8 517.4 521.8 527.5 531.3 536.1 539.9 541.7 542.4 542.9 541.5 539 534.8 528.6 522.8 516.9 508.6 496.7 485.3 474.1 462.3 449.9 435.6 422.2 403.7 388.7 374.9
444.2 443.4 443.6 447.5 440.6 444 451.5 454.6 456.9 459.4 455.4 449.7 446.9 442.9 440.2 439.2 438.5 435.4 428.7 422.9 423.7 420 413.3 408.7 401.3 390.8 372.4 356.8 348 336.7 328.7 319.2 312.3 304.5 299.3 294.6 287.6 276.8 276.1 278.1 281.9 288.3 293.5 300.7 303.2 312.2 317.3 324.7 335.6 357.8 376.5 389.8 400.3 407.6 412.5 417 420.6 425.2 429.3 430.5 431.7 425.8 419.4 411.1 404.9 402 400.2 398.8 397.1 396.8 397 396.5 396.4 396.1 396.6 399.5 397.5 395 393.2 389.1 381.1 376.4 369.9 363.9 359.7 355.7 353.4 356 359.1 364.7 371.3 379.3 387.8 395.9 406 417.9 429.3 439.1 445.2 451.3 459.3 467.2 470.5 470.4 468.7 466 463 457.6 450.8 445.9 429.4 441.5 450.1 457.8 469 478.8 487.4 498.4 512.5 523.4 532.1 538 540.9 543.2 544.8 544.5 541.8 531.4 509.8 484.8 466.3 457.5 452.4 446.5 437.8 424.6 420.8 421.7 431.7 446.3 454.9 462.5 471.1 476.2 481.9 493.2 507.4 519.9 532.4 542.9 551.5 564.2 577.1 587.6 596.5 598.9 599 599.2 597.2 591.2 583.2 573.3 565.2 556 540.6 531.4 522.4 513.6 515.2 515.7 518 520.5 523.8 526.1 529.5 533.4 538.2 543.4 547 549.5 550.5 549.9 547.6 543.6 538.8 532.7 525.1 518.2 510.3 500.5 487.2 474.7 463.7 452.5 439.5 427.1 413.6 399.9 386.4 374.4
441.9 440.4 438.9 440.5 435.5 437.7 447.2 453.7 457.7 457.7 454.3 453.4 450.4 447.3 444.7 445.2 444.5 438.4 429.7 425.8 423.4 418.7 409.6 402.5 395.5 381.9 359.9 352.3 344.2 336.2 327 319.6 312.8 304.8 299 293.1 285 283 285.8 285.8 285.7 292.6 299.1 305.5 308.8 318 322.7 329.5 339.2 361.5 379.5 392.7 401.7 407.1 411.6 418.4 421.4 427.5 431.1 431.5 429.1 424 417.5 410.6 403.4 400.5 398.2 396.3 394.5 395.1 394 392.6 391.9 391.5 392.4 394.8 391.5 389.6 385.4 380.4 375.2 369.4 365 362.8 359.1 354.6 356.1 359.2 362.2 368.4 377.5 386.7 394.9 402.8 416.3 427.3 439.3 447.2 451.8 458.8 467.7 475 478 475.3 473.9 470 466.9 463.1 459.6 448.4 437.6 451.1 457.9 467.4 477.2 487.5 495.4 506.4 520.1 531 540.6 545.9 549.2 552.1 553.3 552.4 548.2 532.9 504.6 483.4 469.9 462.1 457.4 455.6 452.4 445.3 427.9 424.7 433.4 450.2 459.2 467.8 476.5 484.4 490.6 501.6 513.1 527.5 539.9 551.4 561.6 568.6 580.1 591.4 599.3 599.6 600.7 598.3 596.3 591.4 584.4 574.3 566.6 556 545.2 533.7 526.9 524.1 525 526.5 528.8 529.8 531.5 535.9 538.1 541.9 547.3 552.9 555.2 556.5 555 552.4 547.1 541.3 534.8 527.9 519.4 511 502.4 492.7 480.2 468.5 458.6 446.6 434.1 419.5 408.6 397.4 385.8 375.9
440.7 437.4 435.5 434.1 432.9 433.2 441.6 452.4 456.2 453.7 454.3 452.1 452.5 445.2 444.8 447.1 443.9 437.5 429.5 424.7 418.9 412.4 404.7 398.5 390.3 382.9 370 350 344.4 335 324.5 320 312.3 303.3 295.6 288.5 282.7 289.6 292.7 292.5 290.5 300 305.6 311.7 314.5 319.2 327 336.2 343.9 363.4 381.5 392.9 399.8 404.6 411 419.1 422.3 430.1 431.7 431.2 427.8 423.1 416.2 408.2 401.6 398.6 396.1 394.2 392.5 390.8 390.2 389.3 388 386.3 385.8 384.9 385 383.9 380.2 375.1 368.3 365.1 362.9 361.1 357.6 357.9 359.3 361.5 365.2 373.3 383 394.2 402.4 412.6 428 439.6 446.5 452.6 458.2 467.9 476.7 485.9 482 479.3 478.1 474.7 472.3 468.6 463.2 447.5 448.8 454.7 466.3 477 486.2 496.7 505.5 515 527.2 538.1 546.9 552.3 557.8 561.1 562.1 560.6 554.6 530.2 504 484.1 472.3 464.9 460.8 458.6 454.3 443.6 433.6 430 436.8 453.3 463.4 472.1 480.9 493.2 502.6 511.6 522 534 546.3 559.5 569.3 579.4 586.3 594.8 600.3 600.3 600.7 598.6 594.9 589.5 584.6 575.5 566.9 556.5 544.6 537.8 531.9 530.6 530.7 532.1 533.9 536.3 540.1 544.1 545.8 549.7 554.8 558.4 560 558.7 555.4 549.9 543 534.9 527.7 518.7 510.1 500.4 492.1 480 469.7 460.2 452.1 439.2 427.1 413.8 404.1 393.8 385 374
439.3 436.2 435.5 435 432.8 431.3 433.4 440.4 443.9 445.6 443.9 444.6 440.4 438.5 446.6 446 440.6 434.6 426.8 420.4 410.7 405.6 399.5 391.5 383.7 374.4 368 353.3 338.9 330.3 321.3 318 308 300.5 294.7 289.4 295.5 296.3 298.4 298.9 297.2 306.7 311.3 318.2 321.5 324.2 328.8 342.8 352.2 366 379.8 388.8 398.1 404.2 410.7 417.5 421.8 429.2 430.9 431.3 427.7 421.6 413.6 406.5 402.4 398 393.7 392.1 389.4 385.7 385 384.5 383.4 381.7 380.4 379.4 379.5 377.7 374.4 368.3 365.7 362.9 361.1 359.2 359.7 362.4 364.4 367.5 372.6 379 389.9 401.4 411 421.2 435.3 444.5 451.8 458.7 467.1 476.3 482.7 486.7 485.7 483.1 479.9 478.7 474.6 472 463.7 454 462.8 466.5 474.4 486.2 496.2 506.1 515 523.7 534.4 543 551 558.4 563.2 567.1 570.9 568.4 557.9 530.3 504.5 484.6 473.8 469 464.6 462 447 455.7 449 438.4 443.3 458.1 467.9 478 490 504.8 514.3 521.4 531.8 542.1 555 567 578.2 588.7 595.8 599.4 601.3 602.4 601.8 598.6 593.3 587.6 580.7 573.5 564.9 555.8 546.9 539.9 535.5 534.5 537.6 538.8 541.8 543.9 547.5 550 551.3 554.7 558.6 560.6 560 557.5 551.6 544.3 534.4 525.3 516.4 507 497.7 485.8 473.6 462.9 452.6 445.4 432.5 424.3 416.1 407 397.6 388 377.3 365.2
438.6 437.5 438.5 437.8 436.2 432.9 429.6 430.8 431.7 431.5 431.8 432.5 433.7 434.7 440.7 440.7 435.1 426.7 418.5 414.5 409.9 405 396.4 388.5 377.3 368.4 359.9 346.1 331.4 325.7 318.8 309.1 298.7 286.4 298.8 301.8 302.9 302.7 303.2 304.8 304.1 313.6 317.9 323.2 325 330.3 339.2 346.3 355.8 372.6 382.1 390.5 398.5 404.4 410.6 416.9 421.8 425.6 429.5 430.9 428.6 419.6 411.3 406.1 401.3 396.2 391.6 388.6 386.4 382.6 379.6 378.3 378 377.8 376.5 375.2 373.7 371.1 366.9 364.8 363 362.1 362.4 362.7 363.6 365.8 369 373.3 379.5 386.2 393.8 405.5 416.9 428.4 441 449.5 457.2 464.1 473.7 480.8 486.5 489.4 489.7 487.2 483.3 481.5 479.9 477.9 467 464.2 471.1 476.8 482.3 494.9 504.2 514.9 524.3 532.5 540.6 549.9 560.1 566.3 570.5 574.8 577.9 575.1 560.4 532.4 506 485.7 478 472.4 468.6 463.5 463 462.7 463.5 457.2 454.1 465.4 478.8 486.3 499.7 513.8 524.4 534.4 543.9 553.9 566.7 579.3 589.2 598.3 604.5 605.2 605.1 605 603 600.6 595.2 588.7 581.8 573.6 565.3 554.6 546.9 542.1 539.7 539.7 542 543.2 547.4 550.7 553.2 554.6 556.3 558 559.4 559.4 558 554 545.9 535.7 525.3 515.8 506 495.5 483.9 470.4 458.2 448.6 439.4 429.1 419.9 409.8 402.9 397.1 388.4 378.6 366 356.3
439.8 439.3 440 439.2 438.5 436.4 432.6 430.2 427.3 429.3 428.8 428.6 428.6 427.5 431.4 430.3 424.9 419.5 415.7 412.6 407.8 402.8 395.3 386.4 372.2 359 348.7 340.9 327 322.7 315.8 299.8 292 300.8 307 307.5 307.8 309 309.7 310.5 314.8 319.6 325.6 329.4 330.9 338.4 345.7 348.3 358.4 376.1 384.9 392.7 400 404.5 410 414.9 421.7 426.4 426 425.2 424 418.1 410.3 404.9 399.7 391.9 388.8 385.6 382.1 378.3 375 373.9 372.6 372.8 372.7 370.8 366.7 365 363.2 361.7 361.2 361.5 362.1 363.5 366 369.6 373.1 377.5 384.2 391.2 399.9 415.6 423.2 434.4 444.3 456.4 462.7 470.9 480.1 485.2 490.6 493.5 494.7 492.6 487.9 486.5 485 482.6 471.4 475.8 479.2 484.4 493.5 501.9 513 522.6 531.1 539.6 549.3 559.9 569.1 574.4 579.9 582.2 582.8 579 563.5 537 514.1 494.1 484.3 477.9 472.1 468.4 469 470.5 471.3 470.6 467.6 480.7 490.1 495.6 509 522.1 535.8 545.9 554.6 567.6 578 590.2 598.5 607.4 612.9 612.7 609.8 607.4 604.9 601.2 595.3 589 581.5 573.6 565.1 557.7 550.5 546.3 542.4 541.8 543.5 546.1 549 551 553.6 555.9 556.5 557.2 556.4 554.6 551.3 545.5 537.9 526.2 514.9 504.3 493.4 482.2 468.4 457.8 446.4 437.5 428.4 419 409.8 401.1 394.5 386.9 376.1 366.4 360.7 354.6
440.7 440.6 439.3 438.3 437.6 436.4 434.4 430.3 427.4 425.3 426.2 427.1 425.2 422.9 420.8 419.2 417.1 415.7 411.6 408 403.5 399.5 391.6 382.8 370 354.7 349.7 342.7 331.5 321.6 311.8 305.1 296.6 308.8 314.1 312.1 311.8 314.7 315.8 318.1 323.1 328.3 331.9 335.4 337 344.4 350.8 349.5 359 375.7 385.5 394.3 400.7 404.7 407.8 411.1 418.9 424.2 422.3 421.8 419.9 415.5 408.8 403.4 397.1 387.3 384.4 382.6 379.9 376.5 372.3 368.8 367.8 367.6 367.7 365.4 362.7 361.4 360.3 359.9 359.7 360.1 362.7 365.3 369.6 373.3 377.4 382.7 388.3 395.3 404.1 417.4 428.2 438.3 449.6 462.1 470.4 479.7 486.1 491.2 495.8 499.3 499.2 497.3 492.4 490.3 489.9 487.6 480 484.8 488.3 493.8 501.3 510 519.1 529.7 538.5 547.4 557.5 568 577.3 583.4 587.4 590.8 591.3 585.9 565.7 539.9 517.6 505.3 491.6 484.5 476.8 474.2 474.6 476.6 478.7 481 483.7 493.3 501.2 508.2 520 534 547.5 559.8 570.1 578.1 589.5 598.3 606.3 615.5 619 617.8 614.7 610.1 605.7 600.2 595 586.7 578.6 571.4 563 555.4 549 545.7 543.7 542.4 542.8 544.3 547.6 549.3 551.5 553.5 553.8 553.5 553.1 550.2 544.3 537.7 528.7 517.3 506 493.6 482.3 470.4 457.1 447.5 436.7 426.7 419.2 410.7 401.6 392.3 383.9 375.3 368.3 361.7 356.8 352.1
441.9 439.9 439.3 437.9 437.3 435.3 433.1 429.8 426.7 424.8 424.2 423.8 421.7 418.7 416.7 415.3 412.6 410.9 406.9 402.8 396.4 391.2 384.5 378.4 362.7 353.5 346 336.1 328.4 319.8 316.1 307.2 299.7 313.1 316 315.4 318.1 319.5 320.5 326.6 331.6 335.9 336.7 339.9 342.6 349.1 354 353.5 358.3 374.9 383.8 393 400 404.1 407.7 411 412.6 415.7 420 420.2 417.9 413.5 407.3 400.3 391.2 384.2 380.7 377.9 375.5 373.6 368.3 364.2 363.9 363.3 362.9 362.7 360.6 359.6 359.1 358.5 358.2 359.9 363.1 367.4 374 378.1 382.4 387.6 393.8 400.2 407.9 419 433.2 446.2 455.4 468 480.3 491.2 497.4 501.1 503.1 503.7 505 502.7 497.5 494.4 494.3 493.6 484.5 492.8 495.5 501.2 508.8 516.8 528.2 536.7 546.2 555.1 564.1 575.6 585.6 591.8 594.6 599.3 599.7 593.7 571.1 545.9 530.4 519.5 503.1 492.7 482.6 480 479.4 482.2 484.7 491.4 500.3 506.1 512.2 520.7 534.2 548.5 563.1 576.3 583.1 590.5 598.4 607.3 617.7 627.8 627.8 624.3 618.3 613.3 604.9 598.2 591.2 582.9 574.7 565.5 557 551.9 547.3 544.4 541.7 540 540.5 541.8 544 544.8 547.5 548.1 548.4 549.5 547.5 543.8 537.5 529.5 519.3 508.3 497.2 486.2 475.8 462.4 451.3 438.6 430.6 419.2 409.2 400 391 383 374.9 371 364.6 356.6 355.4 354.5
441 440.8 439.5 438.7 436.4 434.2 431.8 428.1 424.6 422.8 420.9 419.4 417.3 414.3 413.2 411.7 409.3 407 403.4 398.1 393.7 388.5 381.2 372.9 361 351.9 340.7 335.2 329.7 328.8 319.1 303.7 299.1 317.5 320.2 321.5 323.4 325.7 329.6 334.1 337.9 340.9 341.6 343.8 347.6 352.9 356.9 356.6 359.7 369.7 379 389.8 399.8 405.2 409.2 410.7 413 415.4 417.4 419.4 416.1 411.9 406.1 399.4 385.9 380.7 377.6 374.4 371.6 368.4 364.8 361.9 360.8 360.6 360.2 359.9 358.6 357.9 357.8 356.8 359 365.8 368.3 373.1 379.9 384.3 388.8 393.4 399.5 406.1 413.7 425 436.7 453.6 464.7 474.7 489.7 498.6 505.5 509.1 510 509.7 510.8 510.1 504.3 499.5 498.7 498.1 496.7 500.6 505.1 512.5 520.8 530.8 534.4 543.8 551.5 560.6 569.5 582.3 592.6 599.6 602.8 606.2 607.1 602.7 580.1 555.9 536.7 530.5 516.8 504.2 496.1 489.5 488 489.8 492.3 497 505.9 515.3 527.7 537.9 553.9 564.3 577.6 590.8 601 608.3 615.5 626.1 633.4 636.1 632.6 628 620.9 614.5 604.6 595.8 585.8 576.8 567.9 558.4 550.8 545.9 541.6 539.5 538.1 537.8 537.4 536.8 538.9 540.9 543.3 542.4 541.5 541.7 540 535 529.3 520.1 510.9 502.1 491.1 481.4 469.7 457.6 448 437.3 423.4 411.8 403.2 393.9 385.1 380 374.6 368.3 360 363.4 363.9 361.5
439.8 439.1 439.2 437.3 434.6 432.3 429.5 426.4 423.6 420.1 416.5 414.1 411.6 408.6 408.5 405.6 404.4 401.5 397.3 393.1 386.7 380.3 371.9 364.7 356.6 349.4 348.7 340 333.3 326.1 318.9 322 309.6 320.8 324.1 325.5 327.5 331 335.1 338 342.3 345.1 345.9 348 351 356.1 360 361.8 361.9 367.4 379.7 389.4 400.7 406.7 410.8 412.7 414.3 415.9 417.4 417.8 415.5 410.5 403.1 391.9 383.1 377 373.7 370.7 368 365.6 362.6 360 358.4 357.9 357.8 357.3 356.9 356.2 357.2 359.7 363.7 370.7 373.9 377.6 386.1 390.8 395.4 400.1 405.4 412.1 420.6 430.1 442.6 458.9 473 482.3 497.6 504.1 511.8 516.2 516.1 518.1 516.9 517.2 513.6 507 505.4 505.3 508.1 511.7 519.3 525 531.3 538.8 543.1 550.2 559.7 567.5 575.2 586 597 605.4 609 611.2 613.1 609.2 587.7 566.5 549.7 541.9 531.6 516.1 515.7 502.2 497.9 498.9 502.3 510.5 522.8 527.2 541.3 555.9 571.3 580.9 591.8 606.4 617 625.8 631.4 637.5 641.1 639.5 635.3 629.4 622.2 613 602 590 579.1 569.3 559.8 551.7 544.5 539.8 535.3 531.8 531.3 531.3 530.9 531.1 532.4 535.5 536 534.5 534.5 534 529.3 524.6 519.8 512.3 505.7 496.2 488 478.5 467.7 456.9 446.9 433.4 423.1 411.8 397.4 386.6 381.9 377.1 374 368.7 368.6 371.1 368 366.6
439.7 438.2 437.4 435.5 432.8 429.9 426.6 422.4 420 417.1 411.5 400.9 403.9 402.7 400.4 399.4 399.2 396.6 390.3 384.4 379.5 374 365.2 360.1 356 354.6 352.4 342.2 336.5 315.7 319.1 325.6 320.8 312.4 328.8 328.3 330.5 335.9 339.6 342.2 346.8 348 347.5 350.3 354 359 362.3 364.5 366 370.1 378.2 387.5 400.2 406.6 411.8 414.9 416.7 418.1 419.4 419.2 415.2 409.3 399.5 387.9 380.1 374.6 371.1 368 365.7 363.1 360.1 358.1 356.6 356 355.4 355.6 355.6 356.9 360.1 365.1 372 378.1 383.9 384.1 391.3 395.7 400.5 407.1 412.7 419.5 428.5 438.3 449.4 464 476.7 486.5 498.4 509.4 517.8 525 527.4 527.5 526.5 524.4 524.7 519.3 517 515.7 512.7 526.1 536.5 540.7 543.3 547.9 554.6 556.7 566.4 575.2 583.7 591.2 599.8 608.8 613.9 616.9 619.1 617.4 602.9 582.9 565.9 553.8 542.5 532.9 530.1 522.6 519.1 519.3 522 530.5 542.7 550.9 562.6 581 590.5 597.4 605.5 619.2 628 635.7 639.5 642.2 642.8 640.4 637.4 630.2 619.9 608.5 597 586.3 574.5 563.9 554 545.5 539.4 534.5 529.7 525.8 523.2 523.5 524.8 524.3 525.3 526.7 526.7 526.7 525.8 523.4 520.9 519.2 514.2 508.5 501.8 492 484.3 476.4 466.2 455.5 443 429.6 415.4 406.1 395.8 387.8 381.8 379.2 374.4 369.8 373.7 375.2 373.8 372.3
436.6 434.9 434.2 432 429.3 426 422.2 418 413.7 410.4 405.9 400.6 396.7 397.8 394.4 393.8 391.6 387.4 378.8 373.4 369.1 364.9 356.9 361.2 352.8 354 346.5 332.2 324.1 333.4 329.6 327.4 325.2 309.6 330.8 330.9 334.8 337.4 342 346.5 349.6 350.5 349.8 352.8 356.4 360.6 363.9 366.7 369.3 372.8 376.6 383.4 399.9 407.6 412.7 417 418.7 420.5 421.7 421.1 413.8 405.6 392.1 384.8 377.5 373.2 369.4 366.3 363.5 360.6 357.7 356.1 355.1 354.8 355 355.4 357.9 361.1 363.6 370.6 378.8 386.3 391.7 394.6 391.9 400.3 406.8 413.4 419.9 427.1 435.8 445.2 457 468.1 478.8 489.5 501.4 516.4 525.3 533.6 537 536.1 537.8 535.6 535.1 531.8 528.6 528.4 522.9 540.4 548 553.4 556.3 559.6 565 570.1 575.1 583.3 591.1 599.5 605.6 613 616.8 621.4 623.3 623.1 615.5 599.9 580.8 563.8 551.8 551.7 545.8 542.5 534.2 542.8 545.9 551.4 560.1 571.6 589.6 599.8 606.6 613.3 616.4 627 634.8 641.1 645.6 643.8 642.3 641.3 638.1 629.7 618 606.5 591.9 578.3 569.4 558.6 549.7 543.1 536.6 531.1 526.1 522.2 518 515.8 514.2 513.5 515.9 520.2 521.2 521.4 520.1 517.3 515.8 514.4 510.5 504.5 497.4 489.7 481.1 473.9 464.4 451.6 439.8 428.1 414.9 401.5 392 386.7 383 376.2 374.5 380.4 380.6 381.9 382.1 381.8
432.7 430.7 430.2 427.8 424 419.6 415.2 410.6 406 402.2 398 394.3 387.5 389.5 386.9 381.3 381 377.8 368.6 357.7 357.4 355.1 360.7 361.5 357.4 352.4 345.3 348.3 344.4 335.4 331.2 328.9 328.2 323.8 330.6 333 336.3 340.7 344.6 348.3 351 352 352.3 355.1 358.3 361.8 364.9 367.9 371 374.4 378.6 382 393.2 407.3 416 420.6 421.4 423.7 425.1 422 408.8 398.6 390.1 383.1 376 371.6 367.6 364.4 361.3 359 356.2 354.7 354.1 354.3 357.4 360.5 363.5 366.2 369.2 375.2 383.9 390.8 394.5 398.8 393.4 406.6 412.9 420.3 426.8 433.5 442.8 452.3 462.6 473.8 485 495.3 507.3 520.8 532 538.4 543.3 548.7 549.4 547.3 545.8 543.1 543.7 543.7 540.9 554.6 559.8 565.1 569.3 574.5 575.7 580.5 583.8 592.1 599.9 606.1 611.7 616.6 619 622.1 625.2 625.2 624.1 616.8 596.8 580.5 572.5 567.4 564.5 557.2 555.2 560.8 566.2 570.4 581 591.8 606.7 612.9 617.9 623.3 624.7 631.6 638.8 645 647.4 644.5 641.5 642.5 637 629 618 606.7 590.6 573.3 562.5 553.2 546.9 541 533.9 527.1 522.9 518.7 514.9 510.9 508.8 507.5 508.5 512.5 514.1 513.9 514.3 511.9 509.7 507.7 505.2 499.9 495.5 487.1 479.1 472.7 461.6 450.8 438.8 426 414.7 400.5 390.4 384.2 380 382.2 387 388.7 388.6 390.4 392.1 393
427.1 425.3 423.7 421.8 417.2 412 406.9 401.1 395.9 393 388.9 385.7 379.1 379.7 377.9 371.5 359.8 364.9 372.1 372.2 371.5 370.4 367.3 365.2 361.1 355.3 353.4 350.7 345.5 335 333.4 333.2 329.9 329.8 324.7 332.8 336.3 342.7 346 349.2 351.1 352.7 354.1 356.6 359.7 362.8 365.9 369 372.7 376.2 380 384 394.2 410.2 419.5 422.1 423.9 426.4 427.2 416.5 401.1 394.7 388.3 380 374.2 370 365.7 362.4 359.3 356.8 354.9 354.2 353.5 356.5 359.8 363.2 366 368.8 373.7 379.6 387.3 394.5 399.4 402.1 396.1 411.3 418.2 426 432.4 439.8 449 459.1 470.1 480.6 491.3 502.2 513.4 525.3 538.3 543.5 551.6 557.4 556.4 556.5 556.6 558 558.7 556.5 555.3 562.5 571.3 573.5 577.8 583.2 589 591.6 595 603.9 610.6 615.1 618 620.4 622.7 624.1 625.1 625.8 625.1 621.5 613.4 601.6 599.6 590.9 578.3 568.6 575.6 579.2 586.8 591.5 599 609.7 618.7 623.5 626.5 630.6 630.8 634.4 640.5 649.1 648.9 646.9 642.9 639.2 632.5 626.5 616.1 603.8 588 570.8 555 547.5 544.5 537.5 530.7 523.6 519.2 514.9 511.7 508.3 503.1 501.5 501.6 503.4 505.2 507.6 507.1 507.2 506 504.5 500.6 495.6 491.5 483.7 477.9 471.2 458.7 447.5 434.7 424.2 414.3 401.1 391.5 382.4 390.4 395.7 400.3 402.6 402.7 406.4 407.5 406.8
420.5 418.5 416.9 414.4 408.9 404.2 398.2 392.8 387.6 386.1 380.4 376.1 369.1 373 372.7 373 374.9 375.2 376 375.5 374.6 376.6 377.4 370.8 364.9 361.3 356.3 353.7 343.2 336.1 334.8 332.8 330.4 328 316.9 332.3 336.3 342.8 347 349.2 350.5 352.2 354.2 357 359.9 362.9 366.6 370.6 375.1 378.9 382.6 386.9 394.2 410.2 420.2 423.7 424.8 426.9 423.4 411.4 398.4 393.9 386.1 377 372.2 368.5 364 359.8 357.1 355.3 354 353 353.5 357.6 361.8 365.8 368.6 372.4 378.2 383.6 390.7 398.9 405.4 408.3 398.8 414.9 424.2 430.7 437.5 446 455.3 465.9 476.7 488 497.9 509.1 519.2 531.5 543.5 551.8 560.7 563 564.7 565.6 566.9 569.6 569 568.3 569.8 574.5 577.9 584.1 589.4 590.5 596.5 602.3 607.4 613.7 619.3 622.2 623.9 624.5 626.3 626.2 625.6 625.5 625.1 622.6 618.8 616.7 619.2 612.7 602.1 587.8 591.9 600.6 607.6 612 617.7 621 624.7 627.8 632.2 633.4 634.9 632.9 640.5 649.1 649.9 646.4 642.1 634.2 626.1 619.6 611.2 597.3 585.1 565.7 548.7 546.2 541.1 535.1 527.7 520.5 515.6 511 507.5 503.7 498.7 495.7 495.5 496.7 499.7 501 502.4 503.1 502.5 500.7 498.3 492.1 488.3 482.5 476.5 468.7 455.9 444.8 433.1 422.9 410.8 400.6 387.4 401.3 408.2 411.4 416.6 418.8 419.8 419.6 418.5 415.3
413.3 410.6 409 405.6 401.1 397 391.5 386.5 383.4 374.6 371.5 371.5 377.8 379.3 378.5 378.8 381.3 381.7 383.5 380.1 382.5 381.9 377.9 373.7 369.2 366.3 361 351.4 342.6 338.4 335.9 334.1 330.1 326.1 318.9 330.7 335.5 340.9 346.5 347.8 349.2 351.2 353.4 356.1 359.5 362.6 366.9 372.5 376.3 380.3 384.2 387.9 394.4 407.1 418.2 424.3 425.5 424.6 414.7 403.6 397.5 392.1 384.4 374.3 370.5 366.7 362.4 357.4 355.4 353.9 352.9 353.1 355.2 358.9 364.3 367.5 371.3 376.9 382.8 387 397.5 404.6 410.4 413.8 402.9 418.8 429.5 436.8 442.8 452.4 461.9 471.4 484 493.8 505.6 516.9 526.7 537.7 547.3 558.7 565.8 570.5 576.8 578.4 580.7 583.3 583.8 583.6 580.6 581 587.8 592.9 598.8 601.7 603.2 608.4 615.4 620.8 625 628 628.7 629.2 629.7 629.4 629.1 628.1 626.2 624.2 621.4 623.3 624.3 623.6 618 611.7 613.7 619.3 624.2 625.7 626.5 628.2 630.3 633.8 634.1 634.5 637.2 636.6 639.7 645.6 647.8 644.7 639.1 631.2 619.3 612 601.1 590.6 575.8 559.5 549.7 542.9 538.6 531 525.3 518.9 512.2 506.9 503.1 498.9 494.4 491.5 491.1 491.7 493.7 497.6 498.5 499 498.5 496.8 494.7 491.6 487 480.7 474.2 463.6 453.4 442.4 431.3 418.4 406.6 394.5 410.6 418.5 421.4 423.4 429.4 430 429.2 427.7 426.1 421.7
404.8 403.2 401.9 398.2 391.7 386.5 383.5 381.9 376.5 379.4 379.3 378.3 380.1 382.1 383.4 386.7 390.7 388.2 387.3 388.3 389.4 386.1 383.5 376.8 377.1 374.3 364.1 351.3 344.4 339.7 336.9 334.8 331.5 325.7 324.6 330.8 337 341.3 344 345.8 347.9 349.7 351.6 355.2 359.8 363.6 367.8 373 377 381 385 389 394.3 408.6 420.3 423.9 422.9 419.5 409.6 402.2 396.9 389.5 380.4 373.6 368.9 364.8 358.8 355 353.8 352.5 352 353.8 355.8 360.3 367.4 371 376.1 381.8 386.8 393.5 404 410.3 414.8 419 413.9 417.7 433.9 441.9 448.5 457.1 466.2 475.9 488 498.5 510.2 520.6 531.9 541.8 551.6 561.6 568.1 573 577.4 580.6 583.9 588.1 590.8 592.7 590.5 589.3 594 600.6 605 605.4 607 614.8 621.3 624.1 626.5 628.5 629.9 630.5 630.7 630.2 630.1 628.9 627.5 625.5 626.8 625.6 625.7 625.8 624.9 623.2 624.4 626.9 627.5 628.1 627.9 630.2 632.1 636.3 636.9 637.4 639.5 637.8 636.9 641.5 643.4 642.4 636.1 624 612.6 604.4 591.5 579.9 565.4 555.6 549.4 541.3 536.3 530.3 524.1 515.8 508.7 503.2 499 494.7 488.9 486.4 486.1 487.5 489.3 493.9 495.5 495.6 495.9 494.6 491.6 488.9 485.4 476.9 470.2 462 449.7 435.9 417.3 409.8 408.9 421.1 428.2 434.3 436.7 438.4 439.4 438.7 436.3 435.9 433.3 428.3
397 395.1 393.3 387.6 382.4 378.1 377.3 375.3 379.1 384.3 384.2 383.6 385.3 387.4 391.1 394.8 400.6 397.2 394.5 399.2 399.6 398.4 390 386.5 381.2 376.2 366.1 354.4 346.5 340.8 337.1 334.8 331.7 330 327.2 332.3 333.7 340.1 342.7 344 345.8 348.2 351.1 354.8 358.8 363.2 368.1 373.2 377.3 381.3 385.4 389.6 395.9 408.9 420.7 422.6 418.4 410.2 405.6 400.7 396 387.3 377.7 372.1 367.6 362.3 356.8 353.9 352.1 352.2 353.1 354.3 356.5 362.4 369.5 375.9 380.8 385.4 390.1 396.7 407 416.6 420.6 424.9 423.4 419.4 437.6 446.4 454.6 460.9 470.4 479 489.6 497.7 508.1 520 532.2 541.1 550.4 559.2 565.5 571.2 575.7 579.2 583.5 589.3 592.2 595.7 594.5 593.9 598.4 605.9 608.3 607.2 605.3 613.4 618.3 620.8 623.3 626.3 627.5 628 628.3 628.9 628.7 628.5 627.4 625.3 626.3 626 625.9 626 626.9 626.2 626.8 627.1 628.5 629.2 630 631.1 634 636.6 639.7 639.4 641.2 641 636 639.2 640.4 638.7 632 619.4 610 598.8 583.1 570.5 559.4 554.2 549.8 542 535.9 527.9 522.5 513 504.8 499.6 495.1 491.2 485.5 483.1 483.3 483.9 485.8 489.8 491.7 493.8 494.4 493 490.8 486.9 481.9 474.3 463.5 454.8 445.3 436.6 418.8 420.9 434.5 442.4 449.4 452.3 454 451.5 447.9 444.3 442 441.2 437.6 432.3
389.6 387.4 384.9 381.8 378.8 376.7 381.2 383 382.8 388.1 391.8 393.3 395.4 399.8 404.2 407 411.8 407.7 406.9 410.9 407.7 404.7 395.9 390.8 384.8 379 367.5 357.8 351.5 344.8 339 336.4 336.3 335.9 332 325.7 328.3 334.8 339.1 342 344.8 347.2 350.6 353.8 357.5 362.2 367.8 372.8 377.2 381.1 385.1 389 396.9 408 418.6 419.7 413.7 407.9 403.6 398.7 393.4 384.3 375.7 370.3 366.1 360.6 355.7 353 351.3 352.7 354.5 355.9 358.3 364.1 370.4 378.6 384.1 388.7 393.4 403.4 414.6 421.1 424.7 428 429.5 416 438.9 450.6 458.8 466.3 472.6 481.3 488.8 497.5 507.1 515.3 525 534.7 545.9 555.1 562.4 567.5 573.8 581.7 586.1 591.1 594 595.3 597.4 598.5 601.1 606 610.6 613 613 614.5 614.9 615.6 618.8 623 624.6 624.9 625.5 626.6 625.6 626.9 627 625.7 626.5 625.6 625.6 626.2 626.7 627.6 627.1 627.4 628.2 629.4 630.2 632.5 633.4 638.2 639.3 641.7 641.8 640.4 636.8 633.9 634.8 633.8 628.3 614.8 603.6 592.3 578.1 566.1 557.4 551.9 548.3 542.8 535.2 524.7 516.7 509.9 501.3 495.9 491.3 486.9 481.1 478.8 479.5 478.5 482.8 485.5 487.4 489.5 491.8 490.3 488.3 483.4 478.3 471.4 462.3 453.9 443.8 435.2 437.9 445 452.9 461.1 465.1 464.9 463.4 460.6 455.5 451.7 447.6 443.7 438.4 429.1
385.3 383.6 382 379.8 377.5 378.7 385.4 388.2 390.5 393.4 399.5 405.1 406.3 409.6 417.6 420.9 424.1 420 417.7 418.3 414 407.3 402.2 396.9 395.1 386.7 373.5 363.8 359.3 352.3 347.1 340.1 340.6 338 334.2 329.4 326.1 330.5 334.8 339 342.8 345.4 349.1 352.1 355.9 361.7 367.3 372.1 376.7 380.9 384.8 388.7 395.3 410.1 415.1 415.7 410.7 405 400.8 396.5 390.9 381.6 373.8 368.3 362.1 357.3 354.6 351.9 351.4 352.7 354.7 357.7 359.6 363.3 372.7 381 386.9 391.7 397.4 406.5 417.5 424.7 427.9 430.4 428.2 422.4 439.5 453.9 461.3 468.5 476 482.8 489.7 497.3 504.6 511.2 518.4 528.2 540.8 551.7 557.6 566.5 573.5 580.7 586.8 592.6 596.5 597.8 600.9 602.6 604.5 606.6 613 616.2 619.2 621.3 620.6 616 615.5 618.8 621.4 622.1 623 624.1 623.1 623 623.2 623.5 624.5 625.8 626.9 626.9 627.1 626.7 628.1 627.9 627.2 630 630.4 633.9 635.5 639.1 643.2 645.1 643.8 642.7 637.7 630 626.8 627.6 623 610.6 594.4 582.3 574 566.2 556.6 548.7 545.5 540.7 532.7 522.2 512.7 506.9 498.1 491.9 487.3 482.5 476.4 474.5 470.9 471.3 476.3 479.3 481.1 483.8 486.5 485.4 481.7 476.1 471.2 465.4 460.5 456.1 446.2 445.5 454.2 460.8 468.6 475.4 475.4 474.5 470.7 466.9 463.8 458.7 452.7 447.5 439.5 432.9
382.9 381 379.6 378.1 378 386 393.6 397.7 402.4 399.1 411 414.6 418.7 422.1 427.1 435 435.3 433.3 428.9 430.6 429.9 423.2 414.8 406.4 404.7 393.9 381.9 369.7 363.1 358.1 346.5 344.3 342.1 339.7 336.7 332.5 328.7 332.7 334.7 338.1 341.2 343.6 347 350.4 355.6 360.4 365.3 370.3 375.7 380 384.6 388.3 394.2 408.5 412.4 412.3 407.9 402.5 398.4 394.2 387.8 378.6 371.5 365.9 360.1 356 353.7 351.1 351.8 353 355 358.8 362.4 367 371.6 382.9 389.1 394.5 402.6 411.5 422.9 426.8 430.2 432 431.7 435.5 439.7 459.2 465.8 470.8 478.4 483.3 489.6 496.1 502.8 509.3 515.7 524.9 536.3 545.8 554.3 563.5 571.5 578.8 585.1 590.7 596.2 600.2 601.9 605 609.9 611.2 616.5 619.7 622.3 623.3 624.1 620.6 618.9 618.1 619.3 619.5 620.4 621.9 621 619.9 619.7 620.8 622.5 624 624.3 623.9 624.3 623.9 624.9 625.1 624.6 627.8 634.1 635.6 637.5 642.2 646.4 645.1 644.3 642.3 637.7 630.5 622.2 617.7 612.8 598.8 586.1 577.2 570 565 556.3 546.4 540.7 535.9 530.1 521.2 512.9 504.7 496.2 488 483.4 479.3 473.2 469.4 467.6 467.1 469.6 472 475.9 475.7 477.4 479.3 478.6 472.3 468.3 463.4 457.3 450.8 445.4 458.2 469.4 474.4 479.8 486.8 486.9 484.1 478.6 474.4 469.1 461.3 455.9 446.6 438.1 434.1
380.6 378.5 377.8 377.2 388.3 394.5 402.7 409 415.1 407.3 419 425.3 432 437.4 439.5 444.4 450 448.3 444.2 449.3 447.9 441.6 430.5 418.2 408.6 397.9 385.4 373.9 367.8 361.1 353.5 349.2 346.1 341.7 338.5 335.2 328 330.8 334.1 337.1 340.3 342.3 346 350 354.3 358.7 362 368.6 375 379.2 383.3 388.5 394.7 405.9 409.7 408.8 403.5 399.8 396.5 390.5 382.7 376.4 369.2 362.4 356 354.2 352.4 350.3 351.9 354.2 356.6 361.7 367.3 372.9 378 381.5 390.1 398.1 405.8 417.1 428.3 431.3 431.8 432.4 433.9 439.5 440.2 459.8 469.7 473.8 478 483.7 489.9 496.1 502.8 508.8 514.7 522.2 533.2 543.2 551.2 559.4 566.6 574.9 581.2 586.5 593.1 598.1 601.4 606.3 612.9 615.7 623 627.1 628.2 625.7 625.7 625 621.7 620.5 618.5 618.6 618.8 618.3 618.4 617.3 617.7 618.2 619.8 621.4 621.6 622.8 621.4 621.6 624 624.7 625.5 627.7 632.8 637.7 641.8 644.6 645.7 644.7 643.8 641.4 636.2 625.7 613.6 603.8 599.3 588 577.5 572 566 560.6 553.4 544.2 537.7 533.4 528.1 520.4 512 505.1 492.8 484.1 479.2 475.4 471.1 467 464.6 463.9 466.7 468.6 470 471 469.6 469.1 472.1 471.2 466.5 459.6 450.5 452.7 459.8 470.3 478.8 484 488.6 493.5 495.8 493.4 486.8 480.2 470.7 461.9 453.5 445.4 437.3 431.1
