ncols 200
nrows 84
xllcorner 280000
yllcorner 371050
cellsize 50
19.7 15.6 8.1 20.1 21 22.2 26.5 37.6 44.8 48.5 52.8 59.4 67.4 77.6 77.2 67.8 68.9 71.8 69.2 78.3 84 91.7 94.4 100.1 105 110.5 117.3 125.7 128.6 122.8 125.3 131.5 137 142 149.4 156.5 162.4 167.3 173 177.9 183.4 182 181.8 167.1 170.8 189.2 206.2 225.3 238.6 244.8 246.9 245.1 245.8 246.3 241.2 240.1 234.9 232 229.4 227.2 228.4 228.5 227.4 231.9 234.4 231.4 228.1 223.8 219.3 217.1 220.4 225 229.9 233 232.6 229.6 223 215.1 217 222.1 221.8 228.8 234.5 238.4 243.2 249.4 254 256.8 261.3 265.3 269.1 271.2 272.3 273.4 274.3 275 276.3 274.9 272.6 271 272.1 273.4 275 276.8 274.6 273.4 272.5 271.7 270.1 267.9 264.5 257.9 251.2 243.8 235.5 229.6 221.4 213.6 207.5 199.3 193.3 187.2 186.4 189.3 186.8 185.9 186.9 187.1 185.8 179.5 176.5 174.5 175 176.4 175 175 177.5 176.2 174.8 172 168.4 167.5 165.8 162.8 159.4 155.2 153.3 150.6 148.2 143.7 143.6 141.5 137.4 132.9 128.5 124.2 119.3 115.6 113 111.9 111.1 110.4 110.9 112.8 115 116.5 115.9 112.5 109.7 107 106 104.5 103.3 102.5 100.5 90.1 95.7 98.8 99.5 99.1 99.8 101.8 102.6 101.6 100 95.1 91.2 97 101.3 100.5 99.4 98.9 96.6 94.5 92.4 91.2 88.1 87.3 87.7 82.7
21.6 15.1 9.5 18.8 25 25.2 29.7 38.6 43.1 47.9 53.6 60.3 68.5 80 82.7 74.5 68 69.4 70.2 75.7 82.2 90 94.1 99.5 105.1 110.6 117 125.5 131.3 130.8 125.2 129 137.2 143.5 151.6 156.8 162.1 167.3 173.2 178.3 183.7 185.7 184.7 181.4 168.1 179.3 200.4 214.7 225.8 238.9 244 243.2 243.8 240.5 236.2 232.1 233 229.3 225.6 224 225.2 224.8 226.2 233.7 235.7 232 229.1 224.4 221.1 219.1 221.9 226.3 234.4 238.4 238.1 236.1 231.2 225.7 228.5 231 231.3 230 238.3 245.5 251 254.7 258.4 261.4 259.6 262.1 265.4 268.5 273 275.9 274.8 274.1 273.7 272.7 271.4 273.3 278.4 279.4 280.4 282.5 282.1 280.3 279.2 276.5 273.8 271 265 258.3 252 244.8 236.8 228.3 220.8 214.2 206.3 198.2 193.6 190.5 189.4 189.7 188.9 189.7 189.2 188 185.8 182.6 180.3 177.4 180.4 181.3 179.6 179.1 182.1 177.4 174.4 171.6 171.6 170 165.4 161.2 157.9 156.1 154.5 150.6 147.5 143.6 137.6 137.9 135.7 131.6 126.7 121.8 118.5 116.2 112.6 110.7 109.3 109.3 111.1 111.3 111.1 112.6 115.5 115.4 114.4 113.1 111.8 109.4 106 103.2 98.5 83.9 90.4 93.2 94.1 93.4 92.9 94.1 96.9 96.8 96.5 96.1 96.3 81.9 96.7 96.7 95.1 94.2 92.5 91.7 89.7 87.3 82.9 84.1 78.4 74.7
28 19.9 15.3 14.5 25.9 29.5 31.7 36.6 42.4 48.4 53.3 60.2 68.9 78.4 86.4 79.5 71.3 68 71.5 80.7 83.6 90.4 94.9 99 104.8 110.8 116.8 125.2 131.7 132.2 128 130.7 137.3 143.8 150 159.5 164.2 171.4 178.3 180.7 181.9 184.2 186.8 184.9 176.5 176.1 190.7 205.1 211.7 224.5 235.5 236.9 240 231.7 228.1 228.8 225.9 223.6 222.5 223.6 225.7 227.3 228.3 230.2 232.2 230 227.3 224.8 221.8 222.4 226.4 231.9 238.6 243.5 244.7 242.6 239.5 233.5 233 236.2 235.7 237.1 243.8 249.9 254.1 258.5 262.7 265.3 263 261.8 267.6 272.5 277.8 281.3 280.5 278 274.7 273.6 273.4 275.4 280.5 284 285.3 286.1 286.5 286.8 285.1 282.2 278.5 272.8 265.2 258.4 252.9 245 238.1 231.7 224.2 213.9 207.2 201.4 198 195.6 193.6 192.6 202.5 199.5 194.9 193.1 192.4 189.9 185.5 182.7 183.7 185 183.4 182.3 180.6 177.3 175.2 172.7 171.6 172.1 167.6 161.5 157.7 157.2 156.8 152.7 147.5 143.3 137.5 131.2 129.9 128.7 124.2 120.6 118.5 116.6 113.5 110.4 108.7 107.8 110.2 109.8 108 109.3 114.6 117.2 117.2 113.6 111.1 106.5 101.6 97.4 93 84 85.6 88.8 88.8 88.7 87.4 85.2 87 88.8 92.1 91.7 90.4 77.2 88.9 89.5 89.8 88.6 87.9 87.4 86.3 81.3 76.4 72.7 70.3 69.1
30.1 23.6 18.1 10.8 20.5 30.6 32.3 37.5 41.3 46.9 52.5 59.5 69.1 78.1 88.2 81.6 75 68.6 74.3 83.9 86.7 93.1 95.9 100 104.3 110.2 117.6 124.5 131.2 132.4 131.4 133.7 141.2 148.9 152.2 161.6 166.7 172 179.8 183.9 187 190.7 192.1 196 185.6 175.9 178.6 189.5 198.5 204 220.1 219.2 220.1 220 216 219.4 223.4 220.7 223.5 226.6 229 229.2 228.9 228 229.1 227.3 226.3 225 223.3 226.4 233.3 238.1 244.9 250.1 250 248.8 246.6 242.3 238.2 240.3 242.5 240.3 246.6 253.8 258.3 261.8 266.3 268.9 266.1 264.9 270.7 275.2 280 285.7 287.4 281.5 276.9 276.9 276.4 277.8 284.5 285.8 287.8 289.2 289.6 289.3 287.8 285.3 281 274.9 265 258.5 252.7 246.2 240.3 234.2 226.5 217.8 210.6 205.6 202.4 199.6 199.2 201.1 202.5 203 201 197.8 195.6 192.8 187.3 186 186.1 185.7 185.2 184.9 182.5 180.9 178.1 174.9 173.3 170.2 165.8 161.2 158.8 158.8 158.1 154.6 148.9 144.4 138.8 130.8 124.8 124.9 122.8 118.9 117.6 116.3 112.6 110.5 108.8 106.8 106.6 106.7 106.7 108.3 112.7 114.5 111.5 107.7 104.4 100.9 96.2 92.3 88.9 82.7 77.5 83.6 85 84.9 83.2 80.4 80 82.1 84.4 86.2 85 70.5 82.4 82.9 83.9 83.7 82.8 82.6 81.2 77.8 71.5 68.4 67.1 66.3
42.1 27.4 22.5 18.4 14.3 22.5 31.1 37.1 41 45.6 50.6 58.6 68.4 78.3 87.4 82.1 76.4 69.6 73.8 86.6 90.6 92.4 96.6 101 105.6 111.5 118.7 124.2 130.2 131.4 133.2 137.2 144.2 152.4 156.1 161 168.9 171.5 178.8 184.9 186.6 192.5 194.2 193 190.7 183.6 178.7 181.2 187.7 190.9 194.1 198.5 200.4 202.2 205.1 208.3 215.3 219.9 222.9 223.8 223.9 223.8 224.7 222.2 223.4 223.5 222.7 222.1 225.2 230.3 239.1 247.2 250.5 255.9 256.1 255.6 252.2 248.7 243.4 246.6 248.3 246.4 251.6 258.6 262 264.7 269.1 271.3 270.1 269.6 272.9 277.5 282 289.3 288.7 283.6 281.1 282.3 281.4 281.6 283.3 287 290 292 291.1 290.4 289.3 287.8 283.7 275.3 266.5 260.2 254.3 248 241.9 234.8 227 219 213.1 207.6 204.5 203.1 200.4 200.2 202 204.1 202.6 199.8 197.3 194 189.3 187.3 186.3 185 184.6 184.4 182 179.2 177 174.6 174.1 171.3 166.7 163.5 160.5 159.9 159.1 155.1 149.3 143.6 139 130.7 124.3 121.2 120.3 117.6 115.8 113.9 111.2 109.2 107.5 106.1 104.3 103.7 103.9 105.8 109.8 109.5 106.7 103.5 101 98.5 93.5 89.6 86.6 82.5 73.9 77.8 79.1 79.6 78.3 75.8 75.4 75.6 75.7 77.6 77.5 72.1 71.7 75.1 74.9 76.1 77 77.4 75.8 72.4 67.9 65.3 64.1 63.2
50.3 33.3 26.3 25 22.3 15.3 25.4 32.5 39 44.5 49 55.9 67.2 77.8 84.9 82.3 78.4 74.5 76.9 92.1 94.7 96.2 98.4 102.8 107.8 113.4 119.4 125.7 130.2 131.6 135.4 140.8 152 154.2 160.5 165.5 167.7 172.9 175.3 179.8 184.3 189 192.7 193.5 192.3 188.7 187.9 179 180.3 184.3 185.5 186.9 188.3 191.9 196.8 203.2 209.8 213.9 216.8 218.2 218 218.7 219 216.9 216.5 217.9 217.5 219.9 227.6 239.7 246.3 253.2 257.9 260.3 260.5 260.5 256.4 253.6 249.8 251.6 252.4 251.6 257.1 262.9 266.3 269.2 273.7 275 275 275.2 276.9 281 284.7 289.9 289.1 286.5 285.5 285.3 286 286.5 284.9 289.4 293.3 294.6 293.5 291.6 290.6 288.3 284.3 275.5 267.3 263.4 255.7 249.2 242.8 235.6 228.1 220.4 214.8 209.9 205.7 204.5 200.5 199 198.2 198.9 199.2 196.9 195.6 193.2 190 187.3 185.4 183.7 183.3 183.6 183 179.8 177.2 174.1 173.5 171.6 168.8 165.5 161.5 158.6 156.8 153.7 148.5 142.3 139 131.3 126.5 120 118.4 116.3 114.6 112.7 110.3 108.6 107.1 105.7 102.7 101.4 102.1 104 106 104.8 103 100.8 98.4 95.8 91.3 88 85.4 81.6 74.2 71.4 72.7 72.4 73.1 73 71.9 70.8 68.1 67.6 67.7 66.8 64.6 67.8 70 71.3 72.2 72 70.6 66.8 64.3 61.7 60.1 58.9
56.4 42.7 30.8 26.3 25.3 15.6 21.8 27.9 34.2 39.8 45.5 53.1 63.7 74.6 81.4 83.2 84.7 77.5 80.5 93.8 99.3 102.5 103.9 106.9 111 116.6 122 126.3 129.7 131.5 138.6 144.5 156.2 157.2 163.7 169.7 170.8 171.3 175.5 178.7 182 188.5 190.8 191 189.6 187.1 185 177.4 174.9 177.3 177.9 180.5 183.7 188.8 192.9 198.1 202.9 206.9 210.3 213.1 213.6 213.3 213.3 211.2 209.6 210 213.8 221.7 238.6 245.9 254.4 260.8 264.3 265 263.6 263.5 259.1 255.7 253.3 254.9 256.6 255.5 261.5 267 270.9 274.7 277.3 277.9 278.5 281.3 284.3 288.1 290 292.7 292.9 290.2 289.7 290.4 288.7 289.1 287.2 291.7 294.6 296.8 296 293.3 289 285.6 281.7 273.9 268.4 263.9 257.9 250.4 242.9 236 228.4 220.2 214.5 209.1 203.5 199.3 193.3 190.2 190 191.8 191.3 191.4 190.4 189 188.6 188.6 184 182.1 180.5 181.7 183 180.1 176.4 172.8 172.2 171.3 168.8 165.5 160.8 156.8 154.7 151.4 147.5 140.5 137.2 132.7 128.3 122.7 119.1 117.8 115.2 112 110.1 108.6 106.9 103.9 101.2 99.8 100.8 103.1 103.8 101.6 99.9 98.1 95.9 93.3 88.6 84.1 79.9 77 72.6 70.2 68 66.6 69.1 69.7 68.2 65 60.8 60 59.6 60 60.5 62.6 65.5 67 67.6 66.8 65.8 62.6 60 58.8 57.8 56.3
63.1 51.5 37.1 28.6 25.6 19.9 16.4 24.5 30.8 35.3 41.6 51 58.6 67.8 76.2 83.9 87 82 83.4 96.6 103.2 107.4 108.4 110.9 114 119.9 125.3 127.9 129.3 131.8 139 146.7 157.4 160.9 166.1 172.5 176.7 179 180.1 185.4 183.2 181.7 182.8 183.9 184 180.1 175.2 170 167.2 169.6 171.6 175.1 180.2 186.2 189.7 193.6 196.1 199.4 203.5 207.6 208 207.8 206.3 205.1 205.4 206.5 211.1 226 243.6 252.2 259.3 265.9 271 271.4 267.1 264.3 261.2 258.8 257.3 260.2 264.1 262.9 266 270.7 275.3 280.8 281 282.6 284.1 287.6 292.5 295.5 296.1 298.2 297.2 295.7 295.5 293.9 292.1 291.3 290.4 295.1 295.7 295.7 293.2 291.7 287.4 281.1 276.5 272.5 266.3 261.9 257.1 250.6 242.8 234.5 223.2 214.2 208.3 202.1 195.2 189.9 183.2 179.3 176.3 175.1 179.7 182.3 183 184 183.1 181.7 180.1 178.4 173.9 173.8 175.3 175 173.3 170.2 169.4 168.5 167.7 165.4 161.4 156.4 153.3 149.1 144.8 140.1 135.9 132.6 129.3 125.9 122.4 120.4 117.2 114.1 110.7 110.1 107.8 104.4 100.5 97.1 97 102.1 101.3 98.4 96 94.4 91.9 89.3 85.1 79.4 75.3 73 70.5 68.2 66.2 64.8 63.7 62.3 60.5 59.7 58.8 58 57.2 56.9 56.7 57.3 60.6 61.8 62.6 62.2 60.5 57.7 57.1 57 55.6 54.1
68.6 60.5 46 34.1 26.7 24.1 18.8 20.1 27.5 32 37.7 43.4 50.5 62.8 74.3 83 86.6 87.2 85.3 96.8 105.6 112 113 115.5 117.7 123 127.5 129.6 130 132.3 137.3 145.9 153.9 161.2 165.7 173.8 178.4 181.4 181 182.6 182.9 178.3 179.6 179.1 172.2 170.2 163.7 161.7 161.6 163.9 166.2 171.6 177.7 182.9 186.4 189.5 192.7 195.2 197.1 201.6 200.8 201.2 199.7 198.5 200 202 208.4 228.5 243.2 253.9 260.9 268.5 275.7 277.1 273 266.7 264.3 262.3 262.6 265.8 269 270.2 271.3 274.6 278.4 284.3 284.9 286.6 289.8 295 299.9 301.9 302.6 304.3 302.9 300.8 300.8 299.4 295.9 295 293.2 297.4 296.1 291.5 287.3 289.3 286.4 276.7 273.2 269 263.6 258.4 252.8 247.4 239.7 231 219.8 209.5 202.5 195 187.4 186.6 188.4 188.6 187.2 182.8 171.6 166.3 171.8 176.1 178.5 176.2 174.4 173.4 168.2 166.4 166.2 163.9 163.5 165.7 166.2 168.2 165.2 162.5 159.5 156.1 152.3 147.5 143.3 139.1 136 132.5 129 126.3 124.7 123.5 119.3 113.6 111.7 111 108.7 105.3 102.5 101.6 97.9 90.3 89.4 86.5 82.8 86.3 87 84.9 81.2 76.9 73 70.9 68.6 66.9 65 63.2 62.2 61.4 60.5 59.9 59.3 58.5 57 56.2 55.1 54.3 54.5 56.3 57.9 56.6 55.2 54.3 54.6 54.8 53.5 52.1
72.7 65.8 54.2 37.3 31.5 26.8 20.4 21.1 23.9 27.4 33 36.2 43.5 57.2 71 82.1 88.8 93.2 92.5 98.3 107.7 113.8 117 118.5 119 124.2 128.7 130.1 130.8 134.2 137.2 144 150.3 157.5 163.1 173.9 176.9 180.5 179.6 177.1 177.5 173 173.7 171.4 167.8 157.1 162.9 162.8 160.9 164.1 163.4 167.3 174 179.9 183.6 186.5 188.7 190.7 192.4 194.9 195.7 195.9 194.2 192.3 195.2 199.9 207.8 227.1 241.1 252.4 256.4 262.1 272.9 279.3 276.7 270.6 268 268.1 269.4 269.9 275.1 273.1 275.7 279.5 281 286.9 288.7 290.8 297.1 302 306.1 308.4 309.8 309.7 306.2 303.9 304 300.4 299.5 294.8 293.5 296.7 296.6 289.5 285.4 292 286.9 273.1 267.7 266 259.3 253.9 248.6 241.5 234.9 225.1 213.8 203.5 204.6 200.4 191.8 195.2 195.7 195.5 193.9 190.4 184.5 172.3 161.7 166.5 167.6 169.4 169.5 166.8 161.4 156.9 156.6 157.7 152.9 156.7 162.1 162.9 162.6 157.8 156.7 151.5 148.4 143.9 141.4 136.8 133.6 131.1 128.5 126.2 124.9 121.1 116.6 113 110.8 107.8 105.9 105.2 104.5 103.9 102.1 100.1 97.9 94.4 91.3 87.8 85.7 82.5 76.7 74.3 71.1 69.5 68.3 66.1 64.1 61.8 61.5 60.5 60.4 59 58.7 56.4 56.6 55.6 56.9 54.5 53.4 53.1 53.6 53 52.4 52 52.7 52.6 52.3 50.5
75.2 68.1 60 45.1 31.7 26.9 25 23.9 23.7 23.4 24.9 32.6 39.3 50.3 66.5 80.3 89.2 94.2 99.2 101.7 109.2 116.7 120 121.6 121.8 124.8 128.6 129.5 131.8 134.5 137.8 142 148 154.9 159.4 167.9 173.4 175.3 174.6 170.8 168 164.3 161 154.9 154.9 165.7 171.8 174.8 176.5 176.2 173 165.1 171.1 176.3 179.7 182.5 184.8 186.7 188.3 189.4 190.3 191.1 190.8 191 192.9 198.1 206.8 220.3 232.2 237.4 241.8 251.3 263 274.8 278 273.5 273.4 274.5 276.7 274.4 279.3 279.1 279.8 282.2 285.3 289.2 292.3 294.8 301.5 307.4 314.2 316.4 318.6 315.6 309.8 304.9 302.2 300.1 300.9 299.8 294.4 295.4 297.1 290.9 284.8 286.9 281.9 271.5 266.8 260.1 256.8 252.9 244.3 233.2 225.2 220.9 218.7 213.8 208 201.5 200.9 200.4 197.2 193.7 190.8 187.5 183.3 176.2 162.5 159.6 161.4 160.6 162.2 161.7 156.9 147.4 147.2 146.7 143.2 150.9 153.8 153.1 150.6 150.6 149.2 144 140.8 139.1 137.1 134.6 130.3 127.8 126.7 124.7 121.7 116 112.2 109.3 104.7 102.6 103 104 104.5 105.1 104 101.3 98.6 94.7 92 89.2 86 81.4 76.4 75.9 74.9 71.2 67.4 65 62.4 61 60.6 59 67.7 65.3 62.6 61.8 58.7 56.4 57.3 55.9 54.4 54.6 52.7 51 51 51.3 51.5 51 50.5 49.6
77.2 68.7 59.5 46.2 33.5 29.8 30.3 28.6 25.7 25.9 26.2 33.9 40.1 47.7 59.8 75 87.1 96.3 103.4 105.4 108.7 117.2 121.7 122.1 122 123.6 126.1 127.2 129.2 132.1 136.8 137.2 137.4 141.9 151.9 160.9 163.4 163.7 161.8 157.8 155 150.5 140.9 154.9 163.2 169.3 175 180 182.5 182.3 177.7 166.9 169 171.8 175.4 178.8 180.3 182.4 183.5 185.3 186.7 188.2 192 191.8 195.4 198.6 207.1 214.5 221.6 228 233.1 240 250.3 261.4 272.3 274.9 277.8 280.7 283.1 277.4 282.3 283.8 284.4 286.7 289.3 293.4 295.6 298.8 305.3 314.4 319.9 323.3 326.6 322.7 313.5 307.6 301.4 299.1 299.5 296.9 295.7 293.5 294.5 289.7 285.1 285.4 278.9 269.9 263.9 258.6 254.3 244.8 239.3 240.7 234.2 229.4 223 217.1 210.7 202.5 207.7 203.9 198.5 192.8 188 184.1 179.8 174.1 162.6 156.9 156.5 156.2 153.8 151.7 148.3 138.6 135.6 133 132.1 130.5 132.4 135 136.5 135.8 133.7 130.2 129.4 134 134 131 127.2 124.7 123.3 119.8 115.8 111.4 107.4 104.1 99.1 99 100.7 102.9 104.2 104.3 102.8 101.2 98.1 93.5 89.8 86.6 84 79 76.2 75 72 68.5 65.6 63.7 61.7 61.3 67.5 69.2 69.4 67.4 64.9 62.2 60 58 57.4 55.7 55 54.3 54.9 54.1 50.9 50.1 50.8 50.5 49.4 49.5
78.6 70.1 59.4 50 37 34.3 37.4 32.5 28.2 28.1 28.6 28 42.8 50.4 57.1 70.5 84.4 92.8 101.4 106.4 109.8 114.9 120.7 120.5 119.5 121.2 121.7 123 124.7 124.9 123.2 109.8 104.6 109.5 117.9 132.8 141.6 143.1 144.1 140.9 139.1 139 143.9 156.2 162.5 167.8 173.5 183.4 186.7 184.2 177.5 169.3 167.9 170 169.9 171.6 174 178.1 179.4 181.9 187.1 193.1 196.5 197.7 201.6 204.4 207.9 213.4 218.6 224.4 231.2 240.5 247.8 255.7 264.1 275 278.8 282.8 285.9 278.3 283.9 287.7 288.3 291.7 294.6 297.3 299.8 304.8 310.7 319.4 325.1 329.3 330.5 325.8 317.7 309.8 302.7 300.3 298.3 295.9 295.1 291.6 291.7 287 283.5 281.8 274.9 267 260.3 256 249 249.6 253.4 246.4 239.5 233 227.4 222 214.6 211.1 211.8 206.5 201.1 194.1 188 181.7 176.9 171.9 162.9 157.3 152.6 151.3 149.7 144.6 140.8 141.6 139.8 136.6 136.3 135.4 132.9 126.5 123.3 126 124.7 123.6 119.8 120.3 123 124.4 123.5 119.8 117.9 115.2 111 106.4 101.9 98.9 96.1 98.4 98.9 100.2 101.7 102.3 101.8 99.7 95.1 90.4 86.7 83.6 82.2 80.1 77.4 73.8 69.7 67.2 65.7 64.1 61.8 65.2 69.5 72.4 71.3 68.9 65.9 62.5 60.2 59.8 58.9 57.5 56.7 56.1 56.3 55.4 54.6 53.9 52 51.4 53.2 60
79.5 72.2 62.3 54.6 46.3 39.5 39.1 34.8 30.4 30.4 31.4 31.8 35.7 47.3 54.2 64.2 73.2 83.8 93.8 103.4 112.4 115.1 117.2 113.2 108.8 105.2 102.4 102.6 101.7 97.2 92.1 95.5 101.5 103.3 100.7 105.1 114.4 121.9 125.3 124.8 123 129.4 145.5 153.1 159.7 167.5 173.7 180.7 183.7 181.3 176.5 170.3 170 173.8 177.2 179.2 178.4 181.9 187.3 190.6 194.5 199.3 203 206.3 210.8 215.1 213.6 215.4 220.1 227.8 235.8 241.3 248.6 254.3 260.2 268.2 275.5 280.7 283 281.6 286 291.5 293.1 295.9 301 303.2 305 308.9 314.8 323.4 328.6 331.9 331.6 327.3 321.1 314.2 305.1 299.6 295.4 292.7 290.3 287.1 285.5 284.8 282.5 279.8 278.2 268 265.4 262.4 258.2 259.5 258.6 252.9 244 238.9 232.4 227 218.3 214 215.7 211.5 204.9 197.6 190.6 181.2 172.4 167.8 161.7 158.9 152.1 147.8 145.4 145.6 147.5 148.6 147.4 147.2 146.3 145.8 143.7 131.4 121.4 120.2 121.6 118.8 115.7 114.2 112.5 113.7 113.1 114.5 113.6 110.5 106.3 100 96.8 96.1 95.4 96.3 97 99.3 100.4 100.5 98.9 99.5 93.5 86.8 84.1 81.4 82.3 81.2 78.1 73.7 69.2 67.2 65.2 63.4 61.8 69.4 73.3 75.2 71.7 68.4 64.5 62.6 62.1 61.7 61.1 60.4 59.4 59.4 58.1 56.8 56 54.5 54.5 55.7 60.1 62.6
79 72.9 65.6 59 50.8 45.2 41.7 39 33.7 31.3 33.8 35.7 34.1 32.8 37.2 54.8 67.7 80.5 89.9 98.6 109.3 113.9 112 99.1 87.8 81.6 79.7 80.6 87.5 94.4 95.4 104.4 112.1 114.6 110.8 103.2 110 114.5 115.8 120.2 127.8 135.9 142.5 148.4 156.8 161.2 168.3 174.2 175.1 177.4 173.7 172.1 174.8 179.3 182.3 184.8 183.6 184.7 190.4 194 198.4 203.8 209.6 213.9 217.2 220.5 222.8 224.1 230.9 235.2 241.8 247.1 252.3 254.4 259.6 265.8 271.3 276 279.4 283.4 287.1 294.1 297.9 301.6 306.6 308.6 310.4 314.1 320.4 326.5 330.8 333.2 331.5 328.1 322.9 316.5 307.2 300.5 295.4 289.8 284.6 280.3 279.2 280.4 282.8 278.4 274.5 271.6 270.9 268.8 267 265.9 261.7 256.3 251.6 245.8 237.2 231.2 222.2 216.5 214.5 208.7 202.4 195.9 187.7 179.8 170 163.5 157.9 154.1 148.8 146.8 145.6 147.5 151.9 153.2 152.6 152.4 151.5 150.6 146.9 139 129.7 119.2 116.5 113.6 111.4 109.4 108.1 107.6 107.7 107.5 106.7 104.7 99.2 96.2 94.9 95.2 94.2 96.6 97.7 99.3 99.8 98 95.8 93.3 90.6 84.8 80.2 79.7 81.3 80.7 76.4 69.7 67.6 66.9 65.3 62.7 64.3 73.3 76.8 74.3 71.2 67.7 64.5 63.8 63.9 64.7 65.7 66.5 66.2 65 60.9 58.5 57.5 56.8 58.3 59.3 63.4 65.8
78.2 73.3 67.5 60.7 53.7 49.1 42.4 38.5 34 31.5 34.7 40.7 41 38.4 38.4 43.5 64 74.3 82.6 91.8 100.2 101 103.5 91.8 77.2 80.7 86 98.2 105.5 108.8 112.7 115.9 120.7 125.4 124.2 120.8 112.3 111.6 117.2 121.3 127.1 133.7 138.6 144.4 150.5 156.3 161.4 163.7 168.1 172.1 171 174 179.6 182.6 188.6 190.6 192.5 190 194.7 198.9 204.2 210.4 215.6 220.8 223.4 224.7 228.2 231.8 236 240.9 248.1 250.7 255.6 257.9 262 264.1 269.8 272.6 278.5 286.2 292.5 297 301.7 308.3 310.4 313 315 319.3 325.7 331 333.4 331.7 330.5 328 323.2 317.6 309.4 302.5 295.5 288.3 280.1 275.9 274.7 275.8 279.6 276 274.7 277.6 277.9 275.2 272 271.3 267.3 261.3 256.7 249 243.1 236.5 229.5 220.7 212.6 200.4 191.7 184.6 177.5 171.6 165.8 159.4 155.3 151.6 149 148.9 149.6 153.2 157.2 157.6 156.5 155.7 153.9 152.2 149.5 143.1 135.7 126.6 121.2 112.5 108.1 104.7 101.8 101.1 98.5 98.6 99.6 96.8 93.3 92.4 93.1 93.2 91.3 95.2 98.4 99.3 97.9 95 89.3 86.1 83.4 78.5 75.6 72.9 72.1 71.3 69.4 67 65.7 65.9 66.3 66 71.4 75.8 75.8 72.8 69.4 67.1 66.4 66.5 67.8 69.8 70.5 72.3 72.3 68.2 62.9 58.3 58.2 62.2 64.1 65.3 68.6 70.6
72.9 71.1 70.8 64.4 54.7 48.8 43.9 39.7 35.3 32.4 33.4 40.7 44.3 43.3 48.5 45.2 51.7 62.8 77.2 88.7 88.9 86.3 87.5 86.1 75.7 85.5 95.6 106.5 116.9 119.1 120.5 124.6 127.1 132.2 135.5 135.6 137.2 130.1 119.9 115.2 117.7 120.3 129.8 139.6 144.9 150.6 155.4 158.6 163.8 166.5 171.1 177.6 182.9 187.8 194.5 195.8 198.4 198.9 199.8 204.4 209.3 214.5 220.1 224.6 226.8 228.3 231 234 238.5 243.5 250.1 254 259.8 262.5 264.9 267 271.4 274.8 281.6 289.6 295.7 299.1 304.8 310.1 313 317.3 319.8 324.9 331 335.3 334.9 330.8 328.9 325.8 322.6 316.6 309.8 303.9 296.8 288.4 279.4 273.1 271.5 271.3 273.8 273.1 275 282.3 280.7 278.6 276.4 275.4 270.9 265.4 261.1 253.9 249.5 242.9 234.1 223 216.4 208 200.2 188.4 175.1 167.2 162.7 159.3 155.2 152.5 151 152 154.9 159.9 161.3 160.1 157.9 155.9 153.7 151.8 148.8 144.3 139.4 135.9 127.8 119.5 112.6 106.6 103.7 101.7 102 100 97.4 95.3 94.2 91.7 89.1 87.5 87.9 91 95.4 95.5 95 90.1 83 78.4 73.9 72.6 72 70.8 69.6 69 66.8 67.1 66.4 66.1 68.8 70.7 72.7 74.9 74.3 71 69.6 69.5 69.4 68.7 70.9 72.8 74.7 76.7 74.6 70.1 63.7 59.8 62.5 66.4 68.9 71.3 73.8 76.5
66.2 63.9 64.3 61.5 57.6 49.3 41.5 37.9 34.8 33.9 33.4 38.9 45.8 48.2 49.3 53.4 49 56.1 68.9 81.7 77.7 71.3 71.7 66.5 74.9 86.3 96 107.9 120.1 130.6 136 137.7 138.5 142.9 146.7 147.3 149.4 147.3 141 138 136 140.3 134 127.7 138.5 146.7 151 153.5 155.7 160.7 172.2 178.9 184.7 190.4 195.8 200.6 204.2 204.7 201.7 206.3 211.2 216.3 220.9 226.5 228.1 229.6 233 235.4 240.6 247.1 253.5 257 261.8 266.6 269.6 273.4 275.9 279.2 286.7 291.7 297.8 302.3 308.7 312 315.5 320.5 324.2 328.7 333.1 334.6 331.8 327.1 324.7 322.4 320.2 314.9 308.8 301.7 292.8 283 276.5 271.7 271.6 271.7 271.6 273.1 277.2 285 281.6 281.7 281 278.5 275.7 270.5 265.1 259.7 254.1 246.2 237.7 229.5 220.4 212.7 201.9 190.5 176.2 169.7 165.8 162.6 158.2 155.2 154 155.6 158.3 162.7 162.2 160.3 158.3 156.1 154 151.8 150.9 148.4 144.3 139.1 131.8 126.4 118.2 110.4 106.7 106.7 107.4 106.7 102.1 98.8 97.2 95.1 90.1 86.3 84.3 81.7 87.8 89.4 87.8 81.1 75.9 74.8 72.9 72.1 70.4 69 69.9 70.4 69.7 69.7 68.6 67.6 70.5 72.6 74.3 74.5 73.9 73.2 73.6 73 72.8 72.5 74.5 77 78.5 76.6 73.5 69.1 63.6 63.2 66.5 69 71.9 74.4 77.7 80.9
62.9 58.5 54.8 55.5 53.8 49.2 44.6 40.4 35.5 34.4 34.7 41.4 46.2 51.8 51.2 55.8 60.4 53.5 61.9 79.1 73.7 57.3 62.5 73 80.8 87.3 98.9 108.4 118.9 130.1 142.4 149.8 152.4 155 158.7 160.7 161.2 159.5 158.2 154.7 146.3 153.4 151 146.2 131.1 139.7 141 143.9 149.4 158.8 171.1 179.4 185.2 190.8 196.7 204.1 209.7 211.5 203.5 207.1 213 217.7 222.6 227.8 231 231.6 233.8 238.2 242 246.2 254.3 261.5 265.7 271.2 277.9 283.3 282.2 285.9 295.2 298.2 300.2 305.4 311.5 316.2 320.3 324.1 328.2 333.1 333.8 332.7 328.3 322.7 321.7 318.3 313.1 308.9 304.6 297.5 290.7 279.2 274.6 272.2 271.5 271.6 271.8 272.9 276.4 279.5 283.2 286.5 287.7 285.4 282 276.3 270.1 264.6 259.1 251.4 244.3 235.3 224.1 214.7 201.8 190 183.8 178 171.4 167.4 162.2 159.5 157.4 158.1 160.7 163 162.2 160.5 160 157.2 155.2 154.7 154.1 151.1 146.5 141.1 135.3 129.6 124.8 117.5 115.9 115.9 114.9 113.1 109.1 104.4 101.1 98.7 96.4 92.5 89.4 84.8 80.3 82.3 79.6 75.7 74.8 73.7 72.5 71.1 70.2 75.5 76 73.1 71.9 71.1 69.8 68.5 70.5 72.4 73.7 73.6 74.6 77.1 77.7 76.7 76.3 75.8 77.2 79.5 79.4 75.9 71.6 67.7 64.5 66.4 70 73.2 75.8 78.5 82.5 86.1
58.9 56 50.7 48.4 45.7 41.7 38.8 36.8 35.8 35.3 36.5 39.5 46.1 53.9 54.5 59.2 65 64.3 55 60.7 56.1 66.2 65 73.3 82.1 90.5 100.3 109.2 119.2 130.2 143.1 152.6 162.8 168.3 169.7 170.3 169.7 169.3 169.2 168 161 164.2 162.4 156.1 150.3 146.1 147.3 144.9 148.4 161 168.5 176.7 183.6 191.5 198.1 204.9 212.8 218.4 216.3 204.9 214.5 219.4 224 228 232.5 233.5 234.3 237.7 241 247.8 262.3 268.6 268.7 273.9 281 288.4 286.8 291.9 299.1 302 303.6 308.1 313.1 317.9 324.2 327.4 330.9 332.5 331.1 330.1 329.2 322.9 319.6 313.1 307.2 300.9 294.9 291.5 285 277.1 275.4 276.3 274.5 272.5 272 272.5 275.7 278.5 285.8 294 291.5 290.3 285.7 279.9 275.2 270.6 264.7 256.1 247.5 238.5 227.9 215.2 207 196.8 188 180.5 173.4 170 168 164.9 161.7 160.6 162.3 165 163.6 162.9 161.8 160.8 159.6 158.7 156.2 151.6 146.5 141.3 137 132.3 126.8 121.1 121.2 120.6 118.8 116.5 113.7 111.9 109.1 105.8 102.2 95.9 90.1 86.1 82.3 79 75.2 74.6 74.3 73.9 72.1 77.8 79.5 79.7 79.3 75.9 74.3 71.8 70 70.6 71.5 73 74 74.8 77.5 80.1 80.7 79.7 78.9 78.3 78.9 78.8 79.2 76.5 71.9 70.2 68.3 68.1 73.2 76.7 80 84.2 88 91.8
51.4 54.7 50.5 47.3 42.5 40.5 38.9 37.3 37 37.5 39.6 41.3 44.8 52.8 57.3 60.6 67.2 71.8 68.8 73.4 75.5 75.3 74.3 69 82.3 92 102.1 111.5 119 128.7 140.6 150 160.5 174.2 177.9 179.3 177.7 177.5 177.7 173.6 167.9 173.6 175 167.8 164.5 164 167.2 165.1 144.7 158.8 169.9 176.7 183 191.4 199.7 206.6 214 221.6 221 216 215.8 220.1 224.2 228.5 233.8 235.6 235.1 237.3 241.9 256.7 269.3 275.1 274.6 276.6 285.6 290.6 293.5 300 300.9 303.6 307.1 311.7 314.1 315.9 325.6 330.1 331.4 330.3 328.3 327.1 330.1 321.9 312.8 307 301.2 296.4 289.8 282.2 279.1 275.2 276.5 278.9 277.5 274.7 271.4 272.2 274.2 276.3 286.4 300.6 297.3 295 289.4 284.3 280.4 276.2 270.6 261.8 252.6 241.3 232 221 210.1 200 189.5 181.1 176.1 176.6 175 171.2 166.5 164.8 168.4 171 170.5 169.1 166.7 164.9 163.1 160.4 156.2 151.5 146.2 141.9 137.5 131.4 128.6 125.5 124 121.7 120.2 118.6 117.4 116.5 113.9 110.8 105.8 96.2 87.6 82.8 80.3 78.3 76.3 75.6 76.7 77.3 80.2 81.7 81 79.9 79.3 76.9 74.1 72.2 72.3 72.7 73.5 74.8 75.6 76.7 79.8 82.5 83.5 82.4 81.8 81.6 84.6 84.5 83.9 81.6 77.9 75.2 73 70.1 76.2 80.6 85.1 89.1 91.1 90
47.7 49.2 47.7 44.1 43.1 49.6 46.4 42 42.9 43.7 45.3 44.5 45.6 52.2 60.2 63.7 69.2 74 79.9 87.5 88.2 84.1 78.6 75.1 76.1 89.9 99 107.6 119.1 127.4 137 145.1 160.3 165.5 174.5 182.5 181.5 181.7 181.1 175.3 172.3 181.2 184.7 181.8 180.2 179.7 179.1 175.6 155.9 158.1 169.7 177 183.3 191.6 200.4 208.7 216.4 224.7 224.6 221.3 216.2 220.4 224.6 229.2 235.4 237.9 235.8 237.9 250.1 267.3 276 284.3 280.7 280.9 286.2 291.8 298.7 304.5 303.9 305.5 309.2 314.2 314.4 317.5 327.3 330.6 332.1 329 327.5 322 324.3 321.6 311.1 305 297.5 293.1 284.5 277 270.6 272.3 274.8 276 275.9 273.5 271 271.1 273.6 276.6 287.9 300.4 300.2 298.8 293.1 289.6 285.4 278.4 270.8 265.5 256.9 246.6 234.7 223.4 210.6 199.8 190 184.6 183.6 182 179.2 175.4 170.7 173.6 177.6 177.5 176.5 174 170.6 167.9 165.6 161.3 155.9 150.8 146.5 142.5 137.9 130.9 128.7 128.4 124.8 121.8 120.2 119.5 117.1 116.3 115 112 106.2 96.2 87.7 81.8 78.8 77 80.7 82.3 80.7 81.4 82.5 82.6 82 79.8 77.8 75.2 73.5 74.2 75.3 76 76.5 77.3 79.7 81.5 84 85.1 85 84.4 84.1 87.1 89.5 91.1 91.3 89.6 84.6 82.4 78.5 70.1 80.7 85.1 88.8 87.8 86.8 85.8
48.5 46.2 46.5 46.3 46.2 53.7 51.3 49.1 51.3 52 53.5 54.5 51.4 51.3 59.5 66.4 72.7 77.2 81.5 90.3 92.3 89.9 83.9 79.2 75.8 85.2 93.9 108.4 117.9 124.7 132.2 142.2 153.2 161.8 173.4 180.1 181.4 182.2 180.5 174.7 177.2 186.4 192.2 192.3 192.2 189.8 187.1 181.2 162.6 158.8 171.1 177.3 183.8 192.1 201.4 209.1 217 227.7 226.6 221.6 215.9 220.7 224.8 230.1 235.8 237 236.2 240.1 260.1 276.4 281.9 287 286.6 286.2 291.1 294.6 300.1 304.6 305.6 307.6 311 312.1 312.7 319 329.5 331.7 331.2 328 325.2 319.7 317.8 316.5 311.1 301.5 294.7 287.9 281.3 273.6 266.7 268.8 270.9 272.5 271.8 271 270.3 270.7 274.1 278 287.7 294.3 300.9 302.3 295.1 293 287.5 280.8 272.4 268.9 260.5 250 235.6 220.4 209.1 196.1 190.6 190.2 189.2 186.6 180.3 177.5 180.8 184.4 184.1 183.1 181.6 178 174.7 171.5 167.8 162.4 156.2 151.2 146.5 142.3 137.1 133 130.5 127.4 124.8 122 119.7 118.4 115.5 114.2 112.1 110.1 103.5 91 86 82.9 78.6 81.8 86.8 86.8 83.7 85.4 85.4 87.9 84.1 79.6 75.8 74.2 75.6 77.1 78.8 79.8 80.5 79.6 85.4 87.6 89.5 89 87.3 86.1 89.7 92.8 94.5 96.3 96.9 94.8 91.3 88.2 82.9 74 78.5 84.4 85.2 84.1 82.5 83.3
56.5 56.4 52.2 50.4 50.2 53.4 53.1 53.2 58.7 62.6 63 62.8 61.1 56.8 58.5 67.8 76 80.6 85.2 93 94.9 93.4 89 84.8 80.6 77.9 92.6 105.7 113.8 122.5 131.1 141.1 151.2 161.5 168.3 175.5 177.9 178.5 177.7 175.7 181.3 189.8 197.3 200.1 199.7 195.9 191.8 185.1 164.4 158.8 171.7 177.3 185 193 201.5 209.9 221.8 228.8 225.9 222.8 220.3 220.7 224.9 229.9 234.6 236.4 236.5 248.4 271.1 278.8 284.5 289.3 289.8 292.4 296.1 300.5 303 305 306.6 310.2 310.9 311.2 312.7 316.8 328.1 329.4 330.7 326.7 320.7 316.1 310.9 307.4 303.9 301.1 294.6 287.9 281.7 273.1 263.6 265.3 266.1 269.4 268.9 270.1 273.1 272.1 274.8 279 287 293 296.4 299.2 293.8 293.9 287.5 279.5 273.8 267.5 256 245.5 234.2 220.9 206.4 199.1 196.7 195.2 193.9 190.4 187.1 188.3 191.4 191.9 189.5 187.5 185.4 181.8 178.3 174 169 163.1 156.6 151.4 147.4 143.6 137.3 134.3 130.7 127.1 124.7 122.5 119.8 116.7 114 112.3 108.8 104.2 97.4 93.2 90.4 84.4 80.3 87.6 92 90.5 87.7 85.6 83.3 84.4 84.7 81.2 76 75.4 78.8 79.5 81 84 85.4 81.2 88 91.2 93.3 93.6 91.8 91.3 94.7 97 99.1 101.3 102.3 98.9 97.8 95.9 93 84.2 77 78.1 79.8 79.5 80.1 81.3
61.5 61.1 58 57.6 52.9 51.8 51.8 54.3 64.4 68.7 71.3 71.1 68.2 65.3 63 71.3 79 84.3 90.4 95.7 97.6 95.4 91.8 87.6 81.8 79.3 86.1 101.3 109.6 119.6 126.9 137.2 147.2 157.2 163.9 168.8 170.9 171.6 172.6 177.6 182.5 190.3 197.4 202.7 202.1 198.2 194.3 187.4 168.3 158.1 171.8 178.8 186.4 192.9 201.3 211.1 221.4 227.5 228.4 225.1 222.3 221.4 224.2 228 232.8 234.2 237.2 256.1 269.4 280 284.3 288.5 291.1 294 299.1 304.1 305.4 305.9 307.4 308.6 309.1 310.8 312.4 316.4 322.6 327.2 326.5 323.9 319.2 312.7 305.6 299.3 295.6 292.8 289 283 278.1 270.2 259.2 260.5 262.9 270 271.9 272.9 275.1 275 280 282.7 289.1 295.8 301.4 301 290.2 286.8 283.8 279.5 269.8 263.4 252.7 244.3 230.1 215.7 206.3 202.9 200.8 199.9 197 194 193.5 195.6 198.1 197.2 194.6 192.8 189.1 185.1 180.6 175.1 168.9 163.2 157 151.9 148.9 144.9 139.8 136.7 132 129.1 126.8 124.1 122.1 119.3 117.3 114.7 110.7 106.9 101.4 97.2 88.4 82.8 79.5 89.5 95.9 92.6 86.1 83.6 81.2 82.3 83.5 80.8 80.5 79.3 81.3 81.2 83.7 86.8 88.5 85.5 88.3 92.3 93.9 96.1 96.3 95.6 97.2 98.9 102.5 106.6 108.9 107.9 107.3 104.3 99.6 94.6 84.4 83 83.5 82.1 81.9 82.7
68.4 63.8 62 62.8 58.9 52.2 50.4 51.9 60.3 71.7 75.8 76.4 75 72.2 71 79.2 84.7 90.3 98 101.4 101.6 97.3 93.2 87.9 83.4 82.1 84.3 91 104 113.3 121.5 131.3 141.9 153.5 159.8 162.6 164.9 166.7 170 176.3 181.5 187.1 192.7 198.5 198.9 196.8 193 186.5 173.4 157.4 171.2 179 186.7 194 204.3 215.8 226.1 230.8 232.6 229.6 223.8 223 224.9 228.1 231.3 233.4 237.7 253.2 263.7 275.2 277.8 285.4 289.6 294 300.3 305.2 305.9 308 308.9 308.6 309 312 312.4 316.3 320.1 320.4 320 318.9 315.9 311.4 302.2 293.8 287.2 284.4 283.6 278.2 274.8 265.2 252.7 256.5 263.4 271.6 274.6 276.7 276.4 275.5 280.8 284.4 289.7 293.7 300 300.4 291.8 282.9 279.4 272.5 265.8 258.4 249.8 241.2 227.6 217.9 208.5 206.5 204.7 202.8 200.1 199.9 200.4 202 201.4 200.1 197.7 195 191.9 187.4 181.7 174.9 169 163.2 157.3 153.6 150.8 146.3 142.2 138.4 136.7 135.3 131.8 129.5 127.9 122.6 119.9 116.6 113.3 109.1 102.8 96.7 91.3 85.2 84 93.1 96.5 93.7 85.2 83.2 83.1 81.2 81.2 81.2 81.2 81.2 81.2 83 85.8 88.9 90.4 87.9 86.5 91.2 94.2 97.8 99.8 99.5 99.7 103.3 107.5 110.9 114.1 116.6 113.6 108.8 104.3 99.6 89.9 89.3 90.8 90.4 88.7 85.9
78 69.3 66 65.7 61.3 55.3 52.4 51.5 55.1 62.7 73.2 78.3 80.4 78.9 78.1 84.4 89.3 96 106.9 112 110.3 102.7 93.3 88.3 85.6 85.4 87.7 93.6 94.4 109.6 119.3 127 137.7 148.9 156.1 158.2 160.2 162.7 167 174.3 179.3 183.8 188.7 193.8 194.3 194.5 192.5 185.7 176.6 158.8 174.4 181.9 188.3 196.6 206.8 220.8 232.9 237.6 237.8 231 225.5 225.4 229.1 231.1 233 235.4 238.7 246 254.3 263.8 270.3 275.6 283.1 292.2 298.1 303.5 307.6 310 309.6 309.3 310 310.4 310.7 313.3 316.7 315.6 312.9 310.7 308.3 306.4 300.7 292.7 285.4 276.2 275.2 271.4 264.9 257 248.1 258.2 265.3 272.7 278.1 280.7 278.5 276.3 276.4 282.4 289.4 289.9 289.8 287.2 285.6 280.2 272.7 267.7 260 251.5 242.9 231.8 221.1 215.9 211.9 208.6 207.3 205.6 205.3 205.3 206 204.6 203.6 202.2 198.3 194.7 191.1 186.9 180.8 174.7 169 163.5 159 154.9 151.8 147.9 145.2 143.3 141.1 138.4 135.6 135.3 132.1 126 121.8 118.6 113.2 106.6 99.7 96 92.4 83.5 88.4 95.6 97.5 93 87.1 84.8 84.2 82.9 81.2 81.2 83.2 84.8 84.9 86.2 88.9 91.9 92 89.2 89.1 91 94.8 98.7 101 100.6 101.9 105.3 111 114.9 119.2 121.3 117.1 112.1 107.1 102.3 93.5 94.6 96.2 97.2 95.7 91.9
86.5 76.5 70.4 67.5 66.4 60 57 53.2 54.2 59.3 67 78.9 82.1 82.9 83.5 88.6 93.8 100.6 114.3 122.7 125 112.7 102.1 94 90.1 88.3 91.8 103.4 100.8 105.3 115.9 125.2 134.6 145.2 151.4 153.5 156.1 159.6 165.4 172.1 176 178.9 184.5 188.7 189.6 191.4 191.5 185.4 175.1 162.4 178.8 183.2 190.1 199.4 212.7 230.3 240.4 246.6 242.3 233.1 228.1 228.9 235.2 237.4 236.9 237.3 239.9 244.3 250.2 263 269.2 276.1 282.9 290.5 294.6 302.9 309.2 310.8 310.2 310.7 310.9 309.7 307.7 309.5 310.5 310.3 307.3 303.6 300.9 301.1 299.6 293.4 284.9 275.2 267.3 265.7 260.3 252.5 246.6 255.9 270.7 275.5 281.2 280.6 281.2 270.3 274.4 279.2 283.5 284.9 284.3 283 279.8 272 265.7 263.8 255.3 247.7 238.6 225.7 220.5 216.9 213.2 211.2 211.2 213.4 212.1 209.7 208 206.4 204.2 202.1 198 194.8 191.2 185.6 180.3 175 169.8 163.8 160 156.1 153.1 149.5 148.6 147.3 144 141.3 138.4 138.1 135.3 130.1 124.8 118 110.9 102.5 99.3 99.6 90.7 87.6 93.9 97.8 99 93.8 88.4 87.1 87.3 83.3 82.5 84.7 88.2 89.3 90 90.9 92.9 94 92.8 91.4 91.1 91.4 95.1 98.6 99.1 98.8 100.8 106.8 112.6 117.7 121 119.4 117.2 114.5 109.6 105 102.5 100.2 102 103.3 103.1 97.1
90.9 83.4 75.3 70.2 68.1 62.7 58.9 54.9 56.1 63.5 69.5 78.3 82.6 85.5 88.6 93.1 98.3 106.4 115.4 124.5 135.1 125.8 116.2 106 99.1 91.6 96.9 109.6 111.9 99.3 103.5 121.5 134.2 140.8 146.8 148.2 152.1 156.1 163.2 171.6 172.9 173.8 178.2 181.5 184.3 188.8 190.2 183.5 169.1 174 181 185 191.1 202 219 243.1 244.7 254.1 246.8 236.4 230.6 242.2 243.7 243.1 240.5 241.9 244.9 255.2 258.4 266.9 274.7 281.5 285.6 290.4 294.9 302.3 307.8 309.5 310.3 311 311.1 309.8 306.1 305.4 305.6 304.3 301.6 298.6 294 294 291 289.1 282.7 275.2 268 259.9 252.2 247.7 243.8 247.5 266.5 272.9 282.4 278.8 276.9 271.2 272.4 280.3 283.3 284.3 284.6 283.6 280.3 274.3 264.3 259 254.9 245.2 229.8 223 219.1 217.6 218.9 219.7 219.5 218.4 216.1 212.3 208 205.1 203.1 201.1 197.6 195 190.4 184.7 181.7 175.7 169.1 164.5 161.8 158.7 155 153.5 152.7 151 147.9 145.1 142 140.2 137.6 132.8 125.6 118.2 105.7 102.2 100.5 96.6 87.8 91.9 97.6 100.7 99.8 94.1 89.7 89.1 89.8 84.5 87.6 90.1 91.6 93.1 94.6 96.5 96.8 95.1 93.5 92.8 92.5 92.1 94.2 96.8 97.1 98.5 102.4 111.8 115.3 119.2 119.2 117.2 114.8 113 112.1 110.2 107.6 105.2 107.5 109.1 105.4 97.3
93.4 85.9 77.1 69.6 66.7 63.5 60.3 57.7 60.6 61.2 66.2 73.1 79.5 85.3 92.9 98.9 98.9 107.8 117.9 127.3 140.8 134.9 126.8 116.2 110.6 97.7 102 109.5 114 108.7 106.7 103.9 122.7 137.2 140.6 141.4 148.1 153.3 161.7 169 170.5 170.7 173 176.1 180.9 187.6 189.4 182.5 163.1 177.6 182.5 186.4 193.7 202.8 226.3 250.6 247.7 262.7 251.6 242.3 238.3 249.8 251.7 251.3 247.4 250.7 256.4 267.5 268.6 272.5 283.7 287.3 288.6 292.3 296.2 301.2 304.9 307 308.6 309.6 310.2 309.1 305 303.2 302.7 300.7 296.2 290.6 287.5 283.4 282.1 281.2 278.8 272.9 266.2 259.5 252.8 250.1 242.7 242.7 255.1 270.7 278.4 274.7 272.1 267.5 265.4 274.5 283 288.7 290.5 287.7 281.2 275.6 270.8 266.4 257.8 250.3 236.9 232.9 233.4 233.5 232.7 230.5 225.8 223.6 218.7 212.4 207.8 203.9 201.4 199.3 196.7 191.9 187.4 183.4 179.8 174.9 170.7 168.4 165.8 162.1 160.1 158.4 156.5 154.5 151.3 149.6 146.5 143 137.1 130.3 119.4 110.4 104 101 97.9 90.9 89.7 95.6 100.3 101.2 100.1 94.7 90.6 91.8 86.4 90.5 94.4 96.8 97.8 98.8 99.9 100.2 98.6 97.1 95.5 94.4 94 93.4 95.4 97.7 99.7 101.2 105.7 114.1 116.5 119.9 119.1 117.2 115.5 116.6 116.8 115.3 111.9 110.4 111.7 109.8 103.5 102.3
92.7 87.6 80.1 73.1 66.7 63.4 59.9 61.5 69.2 68 67.3 66.9 74 82.2 92.2 94.5 99.6 110.8 122.5 129.1 135.5 135.2 134.4 126.7 120.4 112 116.6 116.8 120 121.4 119.9 118.8 118.1 116.6 126.5 133.5 143 149.3 160 166.8 167.4 170.5 172.8 176.6 181.8 187.2 187.4 182.5 167.6 176.7 182.9 188.4 192.8 199.9 225.2 249.4 249.7 259.8 254.6 247.6 247.5 257.7 261.7 260 254.3 263.1 267.6 278.3 278.1 283.9 291.7 293.8 293.5 295.6 298.2 302 305 307.1 308.1 308.1 308.7 308.6 305.7 302.4 299.8 297.5 293.4 284.9 281.1 276.3 273.9 273.9 271.8 269.7 264.9 258.6 258.2 252.6 244.5 239.5 244.1 259.2 268.1 269.1 263 260.5 259.7 272.6 283.8 293.7 297.6 292.2 284.6 282.3 275.6 270.6 263.9 256.1 251.3 253.1 251.7 247.6 242 236.5 231.7 225.7 220.4 212.7 207.3 203.2 200 196.9 194.7 189.7 186.2 182.7 178.5 174.7 172.2 169.7 166.3 163.9 163 159.2 156.7 154.8 152.9 151 149.1 142.6 133.3 123.7 111.5 103.9 101.1 97.5 92.2 88.7 93.7 98.5 101 101 98.5 94.5 93.9 87.6 91.9 96 98.7 101.8 103.4 104.8 104.9 103.4 101.8 100.2 97.4 95.8 96.3 96.1 98 100.7 102.5 104.3 109.4 115.2 117.3 120.6 120.3 118.7 118.8 121.3 122.3 119.7 115.7 112.4 111.5 109.2 107.4 109.3
90.2 87.5 81.1 77.2 71.2 71 64.4 65.3 70.5 70.8 73.9 78.3 79.1 81 88.5 94.9 101.8 117.4 128.9 133.4 135.6 138.1 140.4 134 127.9 125.5 131.2 129.7 130.7 129.5 126.6 127.9 127.5 126.9 130.2 131.6 139.7 151.8 156.2 162.9 170 173.7 176.2 179.2 182 184.9 183.8 181.2 168.8 173.2 180.5 186.6 194.6 200.1 219.9 244.3 250.5 259.4 259.5 253.9 252.3 264.8 271.1 271.5 262 275.1 277.8 288.1 287.6 297.8 300.3 300.5 298.7 299 301.5 304.9 306.9 308.7 309.3 309.4 308.9 307.9 305 302.2 298.4 295.4 292.5 288.8 284.9 279.5 275.2 272.1 268.5 266.7 264.2 263.5 260.9 255.5 246 239.5 237.3 247.8 257.1 259.7 256.4 251.2 253.8 271.1 281.8 293 299.2 296.1 290.2 283.2 279.7 272.6 268.9 263.6 257.6 255.6 256.6 254.8 245.8 241.2 234.6 228.3 222 214.4 206.9 202.6 199.4 195.1 192.1 188.4 184.9 181.8 179 176.9 174.4 170.4 166.2 162.4 160.1 157.6 154.8 153.1 151.2 149.3 146.6 138.4 128.9 115.1 105.9 100.1 99.4 96.1 88.9 95.3 99.2 101.2 102.1 100.2 97.8 96.8 95.7 90.4 100 103.6 107.5 109.4 110 109.5 107.7 105.8 104.8 102 99.2 98.1 98.2 99 100.8 103.2 105.5 108.1 111.7 117 120.8 122.3 122.5 122.1 124.1 127.6 127.6 123.4 118.6 116.5 119.4 115.7 113.6 114.6
89.1 87.2 81.8 78.3 74.9 71.2 69.3 71.2 74.6 76.8 81.7 85 83.3 89.5 94 99.2 107.5 121.6 135.7 141.3 141.1 144.2 144.7 140.8 136.1 131.5 142 142.9 140 138.2 133.6 134 131.4 135.6 140.2 145.1 145.3 149.5 165.7 169.4 172.3 176.2 179.8 182.1 183.2 183.5 181.7 178.9 175.1 169.9 176.7 184.3 192.8 200.1 216.8 240.9 250.2 262.3 263.8 259.7 255.7 271 274.9 276.8 269.4 283 286.1 297.7 297 301 308 306.2 303.6 303.7 304.8 308 310.2 311.9 311.9 311.3 310.5 308.6 305.4 302.4 299.4 296.8 293.6 289.9 285.5 283.3 280.5 275.9 272.7 270.1 267.8 266.1 263.1 258.8 251.5 241.7 236.3 236.6 251.7 257.3 254.8 246.3 250.6 269.5 280.4 287.2 294.2 296 293.7 288.5 282.3 278.3 271.6 267.3 264 257.8 255.6 255.4 246.2 240.5 236 228.6 222.1 215.6 209.2 203.5 197.4 193.3 190.5 188.4 186.1 183.2 181.8 180.3 176.7 171.1 164.6 159.7 155.8 153.5 151.4 149.4 149.1 146.5 141.5 130.6 119.2 107 100.9 96.9 97.8 90.9 94.8 99.8 102.8 103.4 101.8 99.9 99.4 99.3 99.3 90.4 103 108.6 113.3 114.3 113.5 111.5 109.1 108.3 107 104.3 102.2 101.1 100.7 102.3 105.1 107.5 111.9 115.6 118.9 121.8 124.5 126 125.7 126.2 128.9 132.1 131.4 127.2 124.3 127.4 128.1 124.5 122.6 120.6
89.9 88.6 85.7 81 78.1 73.7 73.9 76.4 79.9 83.8 88.8 92.1 91.8 100.1 102.9 101.9 113 131.4 145.6 149.5 148.2 148.2 146.5 145 138.8 137.1 147.9 156.1 158.1 149.5 143.4 139.2 132.7 140.7 148.9 152.7 156.4 152.4 165.9 174 175.4 177.2 182.5 184.3 185.2 185.7 185.6 184.1 179.6 170.9 175.7 182.2 191.4 198.4 213.6 235.9 248.1 266 268 265.6 260.5 269.4 279.8 281.3 277.4 287.4 293.6 304.6 303.4 306.2 309.2 310.7 311 310.8 310.1 311.5 313.5 315 314.8 314.2 312.6 310.5 307.4 303.5 299.3 296.6 293.9 290.7 288.6 285.7 281.9 277.7 273.5 270.9 269.1 267.5 265.3 260.8 252.2 241.4 239.9 235.1 237.4 244.4 238.4 234.9 246.2 262.2 277.9 286.3 290 290.2 290.9 291.1 286.8 282.4 276.6 269.5 262.8 257.9 253.2 246.4 239.5 237.4 233.6 228.3 221.4 215.1 209.1 203 195.9 192.2 190.2 188.2 185.9 183.6 181.9 179.9 173.9 168.8 162.3 156.4 151.7 149.3 147.7 146.3 145.1 140.2 132.9 117.8 106.7 101.2 97.3 93 91.4 91 98.3 102.7 104.4 104.8 102.5 102 103.5 104.1 104.3 99.1 100.1 106.4 112.3 115.3 114.3 111.9 110.4 111.6 109.5 108 106.6 104.6 103.6 106.6 110 110.7 114.7 119.2 123.2 125.8 128.7 132.4 130.7 135.9 135.6 134.4 135.3 139.9 134.8 135.2 134 132.2 129.4 127.8
93.8 92 90.5 88.4 81.5 78.9 77.7 79.9 83.1 88.4 93.6 96.6 100.3 109.3 112.4 109.8 121.4 134.1 148.5 155.8 153.6 152.9 150.8 149 142.9 148.9 156.8 165.4 167.7 164.6 156.2 147.7 139.7 147.4 155.5 162.5 166.9 169.1 154.9 174.3 180.2 178.8 183 186.2 188.9 190.2 192.8 190 184.5 171.3 177.1 180 186.9 197.2 211.2 233.2 244 264.7 271.5 270.5 267.9 272.2 284.1 288.1 282.5 291.9 297.6 304.2 312.1 314.7 315.8 318.5 319.5 317.9 316.5 315.5 315.9 317.2 317.1 316.5 314.1 311.9 309.6 305.4 299.4 296.4 293.5 290.9 288.4 285.2 280.6 276 272 269.2 267.6 266.8 264.9 259.6 244.5 249.9 246.8 244.3 234.2 230.6 229.2 227 233 254.7 275.2 283.9 286.8 285.6 287.1 286 284.3 280.2 275.8 270.7 265.4 258.3 251.6 243.5 234.5 232 229.6 223.8 218.5 213.4 207.6 201.5 193.6 189.7 189 188.7 187.2 182.6 177.5 173.4 168.5 163.4 157.7 152 147.7 144.6 141.8 139.9 136.9 132.3 118.2 105.7 101.6 97 94.2 92 92 97.4 101.3 104.2 106.5 107.7 106.5 104.5 108.5 108 107.7 103.4 97.1 103 109 113.1 112.3 110.7 114 114.4 113.4 112.6 110.1 107.9 107.1 110 113.7 114.9 117.6 122.1 126.7 129.4 133.6 137.1 136.5 140.5 143 144.9 144.4 145.5 144.5 142 140.9 140.3 140.8 136.8
97.9 97.7 93.3 88.8 85.7 82.8 84.9 87.7 93 96.1 98.2 100.3 109.6 120.2 122.3 119.6 126.4 138.6 151.9 158.7 158.9 158.2 154.5 152.8 147.4 153.7 161.4 171.3 179.1 174.2 166.4 154.3 153.8 162 165.8 171 176.4 177.8 171.4 168.3 183.2 182.6 189.5 190.5 191.8 196.4 199.4 198.4 192.4 178.9 174.8 178.3 181.3 192.7 207.7 227.2 244.1 261.9 272.3 272.7 273.3 275 285.6 293.4 288.2 295 304.9 306.2 319.7 322.7 323.2 327.7 329.4 326.3 323.3 323 319.8 320.3 319.5 318.1 315.4 313.2 311.2 306.9 298.7 294.9 292 289.9 287.1 283.9 279.4 274.6 269.7 264.6 261.4 260.1 257.9 249.1 256.2 254.7 253 250.5 246.4 242.4 238.2 234.1 227.2 237.5 266.4 275.8 278.1 279.6 284 285.3 283.5 277.3 271.7 266.3 260.9 255.3 249.8 242.4 232.1 227.6 226.4 220.7 215.4 210.5 205.9 199.8 193.3 186.3 187.4 189 186.4 182.8 174.8 167.9 162.9 158 152.2 147.6 142.5 139.2 135.6 130.2 125.3 115.2 106.7 101.5 97.6 94.9 92.9 93.3 97.5 100.1 103.9 110 112 113.8 108.3 106.3 112.1 111.4 108.5 104.3 99.2 97.7 104.3 109.7 110.2 109.7 115.1 118.1 118 116.9 114.6 113.1 111 111.3 116 119.4 122.4 128.3 132 135.2 139.1 142.3 142.6 144.4 147.1 150.1 153.8 152.7 153.1 154 150.6 152 154.9 147.3
102.6 103 93.6 87 84.1 84.9 87 87 91.1 96.8 103.8 108.9 121.5 129.2 130 129.6 132.9 141.5 155.6 161.3 161.9 160.7 156.9 154.7 149.7 158.3 164.8 174.6 183.5 179.6 168.9 157.4 161.2 167 171.4 176.6 184.2 184.6 184.3 169 187.5 187.1 195.6 195.4 197.7 203 205.4 204.3 200.5 188.6 183.8 183.9 178.6 184.9 199 220.3 242.6 258.5 274.2 273.9 272.7 279.8 287 294.8 293.8 297.7 309 313.4 321.5 328.6 331.2 334.2 337.2 334.8 332.1 328.4 324.5 324.2 323.6 320 316.5 313.2 311.2 306.5 298.9 293.5 290.6 288.2 285.6 282.7 277.8 271.4 269.4 268.8 265.3 261.1 258.5 259 258.6 257.6 256.8 253.8 248.5 243.9 240.1 240.4 237 224.4 248.9 267 277.8 282.1 284.5 285.5 283.2 275.3 267.9 260.8 255.8 250.1 243.5 236.5 229.4 224.8 222.8 218.7 214 208.5 203.6 197.1 189.9 182.4 181.1 186.7 186.5 180.7 174.6 168.9 162.1 154.8 149.4 145.1 138.6 132.5 123.5 117.7 110.8 106 101.6 98.1 95.9 93.6 95.3 100.1 103.9 107.1 109.9 116.1 120.8 117.5 111.6 109.3 113.5 112.4 108.5 106.3 106 103.6 99.6 105.6 107.9 112.3 117.3 122.2 122.5 120.6 119 116.7 115.1 115.2 119 123.2 128.2 134.5 137.6 141.1 144.9 147 147.9 149.8 151.7 156.3 158.4 161.8 163.8 162.3 164.6 162.2 162.7 160.6
97.4 96.5 91 86.3 82.6 82.3 88.6 91 95.4 102.2 113.4 121.3 130.7 135.9 137.2 137.7 141.4 149.5 158.4 163 165.6 161.9 157 153 152.6 160.1 166.8 174.5 184.3 178.5 169.6 159.5 165 172.2 177.1 181.2 190.9 191.7 186 177.9 191.6 192.6 198.6 199.5 203.9 208.9 211 209.3 204.6 191.4 191.6 197.5 191.6 180.6 185.6 206.8 233.6 255 272 275.4 275 285.5 289.8 295.9 297.3 299.7 307.7 312 326 332 336.6 338.7 341.8 341.6 338.2 333.6 328.5 327.7 325.9 322.5 318.1 313.7 309.3 305.2 298.5 292.3 288.8 286.3 283.5 280.2 275.8 274 273.8 271.9 268.8 265.6 262.5 259.8 257.7 257.6 256.7 252.9 250.1 248.3 244.8 244.6 238.5 219.1 223.2 248.6 265.6 278.4 283.4 283.1 279.4 273 266.4 259.8 255 250.2 245.6 237.2 233.2 229.1 223.2 218.6 212.3 207.7 202.2 195 184.4 176.7 175.7 179.1 187.3 181.6 176.8 170 163.4 155.6 148.6 144 136.9 128.6 118.9 111.1 105.4 101.6 98.9 96.5 94.6 93.9 101.3 107 111.6 115.1 116.2 122.7 126.3 122.4 116.7 111.8 114.2 113 110.1 110.7 111.5 108.9 104.5 102.1 108.2 114.3 118.7 124.3 124.3 123.3 122.2 120.1 120.5 121.2 123.4 128.4 133.7 139.7 143.7 145.5 147.9 150.9 153.3 156.5 159.7 163.2 167.8 167.1 169.2 172.9 172.4 170.5 169.3 168.2
86.7 86.2 82.9 82.7 79.8 81.9 86.3 93.6 103.7 112.7 119.8 125.8 134.3 142.2 144.7 144.9 150.8 158.7 164.9 165.5 166 163.1 157.2 152.1 156.3 162.5 168.6 176.2 183.5 177 168.1 166.1 170.1 176.3 181.9 186 194.9 197 192.2 191.4 199.4 199.6 201.6 203.5 208.2 213.7 215.9 213.2 207.1 192.1 195.8 203.7 204.5 198.3 188.1 190.5 220.9 250.4 271 276.8 278.5 288 293.3 297.5 298.4 297.4 303.5 310.1 322.6 333.5 337.7 341.6 346.1 342.7 340.6 337.7 333 329.4 327.5 323.9 319 314.2 309 303.5 296.9 290.5 287.7 284.9 280.3 280.3 278.7 277.6 275.8 274 270.7 267.8 263.9 259.7 256.4 254.9 253.5 251.5 251.4 249.9 247 247.7 244.7 235 214.3 223.5 252.1 271.5 284.9 280.9 276.7 270.9 264.9 262.1 255.7 250.6 247.9 244.4 241.6 236.2 229.4 223.5 217.9 211.2 204.1 195.9 186 175.3 170.5 170.9 176.2 182.3 179.3 169.5 163.6 155.2 147.3 140.2 132.6 123.4 113 106.4 102.3 99.8 97.9 96.3 94.7 102.9 111.6 115.1 119.2 121.4 120.5 129.1 133.2 127.7 121.4 114.4 115.1 114.5 116.5 118.1 116 110.3 105.9 105.4 110.5 116.2 121.5 125.3 124.7 124.8 125.1 123.9 126.1 126.9 130.2 135.6 140.4 145.2 149.6 151.6 153 154.7 158.1 162.5 166.6 170.7 174 176.8 178.4 178.1 179.3 179.6 176.9 178.4
78.7 77.9 76.7 76.7 76.6 79.4 84.3 94.9 109.2 124.9 128.9 130.2 147.8 155.2 155.2 152.7 157.3 166.7 172.4 168.3 164.1 159.7 155.5 152.4 158.4 166.2 169 176.6 179.4 173.3 166.7 172.1 174.6 180.1 185.6 190.8 198.2 200.6 191.4 197.8 205.6 208.1 208.1 208.1 212.8 217.9 220.5 217.5 209.9 195.8 198.2 207.4 211.9 211.9 207.5 194 203.3 235.2 263.1 275.9 283 292.6 296.4 299.6 300.3 299 305.6 312.9 320.9 330.6 337.4 342.5 346.5 343.8 342.6 339.9 335.8 331.9 329.1 324.6 319.4 314.2 308.4 302.8 296.3 290.1 286.9 284.6 284.1 283.1 280.9 279.2 277.6 275.4 272.5 270.1 265.6 260.8 255.3 252.8 250.6 249 249 246.9 245.1 244.8 241.1 236.6 224.7 209.2 230 256.7 272.5 275.5 272.6 268.9 265.1 261.5 256 253 251.2 250.4 249 243.1 235.4 228.2 220.6 213.3 205.5 196.7 187.5 176.4 167.1 165.3 163.8 169.5 175.3 170.8 162.1 152.4 142.7 133.6 124.1 115 107.9 103.6 100 98.3 97.2 97.1 102 114.7 121.3 126.4 128.8 128.1 126 135.3 139.5 132 125.6 119.1 118.4 121.7 125.6 123.8 117.5 110.4 105.8 107.7 113.3 118 123.2 125.1 124.8 126 127 128.9 134.1 135.4 138.3 144 150.3 155.1 158.5 160.1 158.3 159.8 163 165.8 171.2 179.7 183.5 185.3 186.9 184.2 187.3 188.2 189 187.2
70.4 70.8 68.3 69.5 73.7 78.1 85.5 97.4 109.8 128.7 129.4 141.6 162.2 166.2 161.3 158.2 162.1 170 170.3 169 165.7 159.7 154.4 153.6 158.9 165.3 167.9 174.3 176.1 170.5 172.1 177.1 178.1 183 187.9 192.9 199.9 200.8 188.6 203.6 210.4 216 215.9 216 219.7 223 224.9 221.9 214 200.3 198.9 207.7 215.9 217.4 212.6 203.4 192.3 224.3 249.1 270.4 285.7 297 302 304.6 304.3 301.6 308 312.9 326.5 334.7 338.7 342.1 344.9 344.2 343.4 338.3 334.6 332.7 329.6 323.8 319.1 314.2 308.4 302.4 296.5 291.8 289 287.4 286.8 284.9 282.3 280.1 278.4 275.9 273.8 271.1 266.3 259.1 257.5 255.4 253 249.3 244.5 240.9 240.3 239.1 235.8 230.9 224.6 206.2 213.2 241 260.3 265.3 263.8 262.4 261.3 259.9 257.3 255.4 254.2 253 252.7 248.9 240.8 231.5 223.5 215.6 206.6 197.7 188 177.6 167.9 161.3 159.1 157.7 159.9 165.6 163.1 148.5 133.7 125.5 118 110.7 105.5 101.3 98.9 98.8 98.7 99.5 108.6 120.3 127.6 134.8 135.9 134.5 131.9 140.5 142.6 138.4 132.2 125.2 125.9 131.7 131.9 125.8 118.1 110 105.8 109.5 114.2 119.7 124.7 126.2 126.1 126.8 128.9 136.9 141.9 143.2 147.8 155.1 161.3 166.4 169.1 169.6 165.8 169.2 170.7 175.8 181.2 188.3 192.1 195.3 195.9 193 197.2 197.3 201.3 197.7
63.3 61.2 62.3 68.3 75.3 81 86.1 97.6 112.5 125.4 135.8 155.1 168.9 179.1 173.9 161 159.5 164.9 167.1 167 167.4 162.5 154.9 154 158.5 163.7 166.5 171.8 173.2 169.9 175.1 180.2 182.4 185.9 189.6 194.4 201.4 194.5 195.9 206 214.1 221.4 222.7 221.1 225.6 229.2 230.7 228.3 219.4 204.1 198.3 206.3 213.1 217.1 212.1 205.6 193.2 208.2 235.6 258.7 281.4 299.8 304 306.6 306.2 303.7 304.7 314.4 325.9 332.6 338.5 342.6 343.7 342.8 340.7 337 335.9 332 328.4 323.3 318.5 313.7 308.3 302.3 298.1 295.2 292.4 289.8 289.2 286.7 284.1 280.6 278.6 275.7 273.7 269.9 267.1 264.9 262 259.1 257 252.8 248.6 243.7 240.6 229.4 231 225.1 221 208.7 201.5 223.8 247.4 255.4 254.8 253.7 253.6 254.5 253.5 253 254 254.7 253.1 249.7 243.8 235.4 225 215 206.6 197.9 188.3 177.8 167.2 158 152.8 150.8 145.4 150.1 146.4 138.9 126.8 119.1 113 108.1 103.6 100.3 99.8 99.8 101.7 108.3 117.9 124.8 133.8 139.7 141.3 139.9 137.1 145.1 146.7 143.1 137.5 131.4 134.9 138.6 134.4 126.4 117.5 110.2 108 112.1 117.2 124.2 128.3 128.4 129.8 131.4 138.2 149.5 153.1 153.9 157.5 163.9 169.8 175.6 178 177.9 176.6 178.6 185 189.8 195.8 199.7 206.8 211.6 205.4 205.3 209.2 214.5 212.5 210.3
54.7 56.9 61.6 68.5 76 83.6 91.9 104.8 123.9 135.6 137.6 160.5 166.2 169.9 170.6 167.2 157 165 164.5 164.7 163.3 159.2 155.4 155.1 159.1 161.5 165.4 169.3 171 172.1 178.1 184.9 188.5 189.7 190.9 197.9 202.2 198.3 202.6 208.2 217.6 224 225.9 227.2 230.5 235.5 236.4 232.8 227.5 216.1 200.6 203.6 210.4 215.6 212.2 206.9 200.2 194.8 222.1 246.1 271.3 298.4 303 310.7 313.4 316.9 309 314.4 328.4 335.4 341.6 344 345 343.4 340.7 336.2 334 329.9 327 322.7 317.8 312.4 307.8 303.3 299.9 297.8 295.5 291.8 291.1 288.6 285 281.1 278.9 275.6 272.3 269.3 267.1 266 264.2 262.4 259.8 256 252.6 249.4 246 239.7 228 218.6 214.5 209.2 194 209.6 224.5 237.6 245.6 244.6 245 246.4 247.8 247.1 249.7 253 252.1 251.1 245.2 235.7 224 211.7 201.9 195.1 186.7 176.7 166.8 156.4 149.1 142.1 137.1 132.5 132.2 126.4 118.5 114.6 110.7 105.2 101.9 101.2 100.7 102.4 113.3 118.8 125.9 136.1 145.2 149 151.7 149.8 146.4 146.3 148.5 146.4 142.5 137.5 141.5 141.7 134.2 125.5 115.8 109 112.4 116.8 126 132.3 135.3 132.4 133.6 138.6 146.8 154.5 158.8 160.7 162.5 167.6 173.5 177.9 181.5 184.2 185.7 192.3 199.7 203.3 208.8 213.7 216 220.2 219.9 220 223.3 227.4 224.2 222.1
53.1 57.3 62.9 69.7 78.2 87.6 103.2 118.8 134.2 136.5 140.8 157.5 158.7 161.2 162.9 158.3 154.2 160.4 161.5 159.4 159.1 156.1 154.5 156.5 157.6 159.5 163.4 167.3 169.7 175.2 183 189.4 195.1 195.4 195.8 199.6 201.8 199.8 203.8 211.8 220.3 226.2 228.3 229 233.7 240.1 241.7 237.2 233.1 226.2 210.3 201.9 206.9 211.3 211.6 208.9 203.8 197.9 210.5 237 260.8 289.9 301.2 315.9 320.7 325.6 318.1 325 335.1 337.2 339.6 343.9 345.4 344.2 341.6 337.4 333.4 328.1 324.5 320.8 317 313 308.8 305.4 302.7 300.4 298.8 295 291.6 288.7 285.2 282.6 280.5 275.6 272 269.2 268.1 268.5 265.4 264 261.2 257.9 254.9 253.4 248.5 240 230.3 218.9 209 202.7 191.5 193.3 203.4 214.7 223.3 230.2 234.7 237.9 239.4 239.7 240.1 244.1 246.4 245.8 241.7 229.7 217.7 203.6 195.6 189 180.8 172.5 164.3 156 144.8 136.8 128.5 124.5 120.1 117.1 115.1 110.9 105.4 103 101.8 100.9 103.3 114.9 123.6 130.7 139.8 148.9 159.7 162.5 163.1 162.1 160.8 158.2 156.8 147.8 142.9 144.3 145.7 140.1 132.3 123.9 114.7 111 117.5 127.9 137.3 140.3 140.5 139.5 143.5 146.7 159.6 168.3 175.6 173.6 175.3 178 179.3 186.1 193 195.9 198.8 207.7 214.5 218.7 221.5 227.4 232.8 235.7 237.4 238.4 239.7 237.6 233.2 231.8
53.3 58.7 64.2 71.8 83.2 96.9 113.9 131.8 140.2 136.5 142.1 150.9 151.8 153.8 155.4 153.2 150.7 152.7 154.7 156.3 156.9 154.2 154.3 157.8 159.7 160.8 162.3 165.4 171.7 180.5 186.5 191.7 200.7 201.8 200.6 201.7 203.4 203.1 206.9 214.2 222.7 226.6 229.6 231.6 237 244.5 245.4 240.9 236.2 230.5 219.2 206.7 204.5 205.5 206.7 209.6 208.4 203.6 198.4 225 251.6 279.7 297.3 315.3 321.5 326.8 325.1 326.9 337.1 341.2 343.7 345 345.9 344.3 342 338.3 333.8 328.7 323.6 319.7 316.7 313.4 311.2 308.9 305.8 303.9 301.7 297.8 293.9 289.3 285.5 282.7 279.8 275.2 271.8 269.4 267.8 268.3 266.1 265.1 261.9 258.4 256.6 253.2 247.2 240 229.4 218.3 210.7 205.3 202.9 186.4 189.3 200.6 208.6 221.8 225.9 225.6 223.6 225 224.5 223.6 223.6 221.5 217.7 212.4 203.2 192.9 181.5 173.5 166.8 160.8 153.4 144 135.3 125.8 120.2 118.6 116 112.4 109.3 106 104.5 103.1 102.7 107.1 116.3 125.3 134.5 147.2 157.5 166.8 177.5 179.2 175.4 175.1 174.1 172.1 167.4 152.2 147.6 148 146.1 138.5 129.6 118.9 112.7 114.4 126.2 145.9 154 160.7 155.1 151.1 156.2 167.7 176.7 184.1 189 188.1 190 191.4 195.2 198.3 205.1 210.1 214 222.3 228.9 230.1 235.6 238.2 246.1 249.5 251.1 250.5 249.9 245.6 242.2 240.4
51.2 59.2 67.4 77.7 93.9 107.3 131.6 142.1 141.7 136.8 136.2 142.5 143.4 146.7 146.4 146.4 147.5 149.6 152 155.3 155.7 154.9 156.7 160.4 163 163.2 164.5 167.5 175.2 181.8 187.8 194 201.8 209.2 207.7 206.4 206.9 208 208.8 216.7 225.9 229.2 231.7 232.5 236.6 242.2 245.6 241.7 237.2 232.4 223.5 213.1 208.2 206.6 206.6 207.8 207.3 208.1 207.6 209.5 235.3 266.3 292.1 304.6 313.6 324.8 326.3 327.3 338.2 342.9 343.9 346 343.9 342.8 340.6 338.4 334.9 329.9 324.9 319.8 316.3 314 312.1 310.4 308.9 307 304.2 300.1 295.3 290.6 286.5 282.5 279 274.3 270.8 268.6 266.7 265.1 264.8 264.1 261.6 257.6 255.9 251.5 244.8 237.7 226.8 217.6 213.5 210.2 207.5 200.7 196.1 185.5 196.4 198.9 203.1 200.4 199.3 195.9 193.1 187.6 185.2 183.3 180 175.8 173.1 176.1 169.8 159.8 156.9 150.2 140.8 135.9 128.5 118.6 115.7 112.7 111 108.6 106.6 104 103.6 103.5 107 115.5 124.8 135.3 150.3 163 172.7 179.8 186.7 188.6 188.4 190.4 188.5 180.4 170.5 158.5 151 148.6 144.1 136.3 127.6 117.9 113.1 118.4 133.8 157.9 171.1 176.2 172.1 163.5 169 181.9 191.8 199.2 200 202.6 203.2 207.7 211.9 213 217.1 220.8 224.6 232.1 237.1 239.5 242.9 246.3 252.4 258.4 258 255.6 254 248.7 244.3 242.8
54.2 61.2 71.5 84.9 103 124.6 135 134.5 132.1 128.2 127.6 134.4 138.1 143.2 142.8 144.6 144.8 147.5 151.3 153.9 154.8 156.4 159 162.6 162.8 164.3 166.1 168.2 178.3 183.7 188.9 197.3 203.4 210 215.4 211.8 210.4 209 210.8 217.9 226.2 230.7 233.5 234.1 236.7 240.8 242.2 239.4 235.5 232.9 226.3 220.9 210.5 209.6 209.7 207.4 207.5 212.2 216.3 208 224.5 253.8 279.5 293.2 300.9 311 321.1 325.8 338.6 341 342.2 344.5 341.1 340.5 339.4 338.1 334.3 330.7 325.9 320.5 317.1 314.2 312.3 310.5 308.7 306.6 303.7 300.4 296.2 291.7 286.2 281.3 277.5 274.5 270.6 268.2 267.8 265.3 263.3 261.3 258.9 256.2 254.1 249.4 243 233.7 225.9 220 218.8 217.1 214.5 211 209 205.9 197.4 192.8 189.9 187.4 183.4 180.9 179.7 182.1 181.7 173 165.2 157 140.7 144.2 151.9 149.4 145 138.3 130.7 125.4 121.4 114.4 110.7 109.9 109 107.6 106.8 107.4 109.5 110.8 118 125.2 135.1 151.7 167 179 188.6 195.4 205.1 203.1 200.5 197.5 196.1 189.2 179.8 166.8 155 149.3 141.9 133.3 126 119.3 115.3 120.3 134.3 159.4 179.5 179.8 181.6 172.1 194 202.8 205.7 208.9 217.4 214.9 219.7 225.5 224.8 229.3 231.8 234.3 233.9 236.5 241.6 244.3 246.6 252.4 256.5 262 260.8 257 254.1 249.9 245.6 241.8
55.7 62.7 73.2 90.9 110.7 123.2 130.5 132.4 130.4 127.5 121.9 130.1 133.8 135 137.8 139.8 142.9 145.9 149.7 152 153.8 157.9 160.5 161 162 165.1 168.1 171.2 174.5 184.1 190 199.5 207.5 213.8 222.1 219.4 213.5 207.6 212.6 218 224.3 229.8 233.9 235.9 237.4 239.4 239.5 236.7 235.2 233.4 229.8 226.1 213.5 216.2 216.2 213.1 210.1 215.6 221.1 212.9 217.1 239.9 257.3 270.9 287.8 302 314.2 320.3 329.6 336 338.4 336.6 336.1 336.5 335.9 334.2 331.8 328.4 324.2 320.4 317.8 314.4 312.9 310.2 307.8 305.9 302.4 299 295.5 291.6 285.8 282 280.2 276.4 271.6 268.8 266.9 263.8 262.1 259.7 257.6 255.2 250.1 244.7 237 230.4 225.1 220.6 218.7 215.1 213.8 211.8 210.1 208.3 205.2 205.9 209 211.3 208.5 205.9 202.7 200.9 196.9 193.6 183.7 171.5 157 144.6 132.4 133.1 133.6 127.5 120.9 116.5 113.8 111.8 110.9 110.2 109.5 113.5 116.1 120.4 125.1 129 135.5 145.7 155.3 171.9 187.2 198.9 208.6 215 224 233.3 231.7 222.3 213.9 207 194.9 181.1 166.4 154.9 142.2 136.2 129.8 120.8 115.3 120.2 128.3 151.9 177.6 180.6 183.3 181 202.4 214.4 222.2 227 233.3 228.9 231.3 236.1 239.1 240.5 241.7 242.6 241.9 242 243.8 245.7 247.3 252 256.8 259.4 258.8 255.1 250.7 248.1 243.4 237.4
56.5 63.9 78.9 94.5 107.6 119.7 124.7 126.1 126.2 123.8 119.9 127.9 129.7 130.8 131.9 136.6 140.2 140.8 144.9 148.1 153.5 155.9 156.4 160.3 163.9 169 172 175.6 175.9 186 192.9 202.3 211.6 219.6 227.3 224.5 216.3 207.6 212.8 219 222.7 225.8 230.9 232.9 235.9 238.1 237 234.7 234.9 235.3 231.3 223.9 221.8 224.3 222.2 218.7 212.7 217.7 222.8 215.5 212.2 231.5 245.3 253.4 263.5 281 296.9 311 316.3 324.5 327.6 326.8 331.2 330.2 326.6 327 324.5 321.7 318.1 315.8 314.1 311.6 311.1 308.5 307.6 304.9 301.5 298.2 294.7 290.7 284.8 279.8 279.1 277 273.9 272.2 270.2 263.2 259.7 256.6 255.1 252.8 242.4 237.8 231 227.4 220.9 214.1 209.7 209.9 208.7 207.2 205.4 205.8 208.4 210.9 215.1 216.9 212.7 208.1 203.3 199.4 194.2 187 180.1 171.9 160.8 150.6 139.9 126.5 123.2 122 119.6 116.7 113.3 111.1 113.5 121.7 128.7 131.9 136.7 142.9 147.4 151.8 156.8 165.9 175.8 190.1 204.5 216.7 226.3 234.7 242.4 249 249 241.7 233.1 234.1 223.7 205.3 184.4 165.9 152.7 147.2 134.4 124.6 117.9 121.7 127.4 143.3 163 178.5 183.8 186.9 202.5 217.5 226.4 233.6 238.4 236.2 233.6 240.4 244 245.5 245.8 245.3 244.7 244 244.8 245.2 248.2 250.1 254.6 254.7 252.4 250 246.1 244 239.1 231.8
56.9 68.9 83.6 94.4 102.7 115.9 119.8 119.6 120.4 122.2 118.6 123.5 124.4 125.9 129.4 133.3 133.1 134.9 140.7 146.6 149.4 153 157.5 162.3 167.7 172 176.1 179.7 180.8 192.7 196.8 202.1 209.3 217.9 224.2 226 218.8 209 212.6 218.6 221.7 224.6 226.2 228.8 234.4 236.7 235.1 234.5 234.1 232.7 229.8 225.9 229.2 231.2 227.4 221.7 215.1 217.8 221.4 218.9 211.4 222.2 234.6 243.5 250.2 261.5 278 291.6 297.7 306.4 314.9 316.5 320.1 320.6 317.7 316.4 313.3 310.8 310.5 308.4 308.2 307.8 307.6 304.7 304.8 304.3 301.3 297.2 292.8 288.5 282.2 275 273.7 273.2 270.5 270.8 268.9 264.3 258.7 250.5 247.1 242.8 238.1 232.7 226.3 218 211 205.2 204.5 204.4 202.8 200.7 199.1 201.2 203.7 205 209.8 209.5 206.4 201.5 196.4 189.5 183 176.3 170.2 157.7 148.5 139.8 135.2 126.3 122.9 119.8 118.8 116.4 112.9 116.1 135.5 145.3 149.5 149.7 154.6 156 161 166.2 169.6 180.4 190.8 208.6 222.6 229.2 237.3 247.5 257.3 256.6 257.2 254.8 246.3 250.1 246.1 232.8 215.2 186.8 170.7 159.2 143.1 129.6 121.5 122.8 127.6 138.6 156.3 177.4 188.1 192.5 201.5 219 228.6 239.4 240.1 241.4 235.9 242.5 243.7 246.1 247.9 247 246.1 244.6 245.2 245.9 247.6 249.3 252.4 252.1 249.4 246.4 243.7 241.9 234.6 225.2
59.8 73.6 85.9 90 98 108.4 113.6 116.3 116.5 118.3 115.4 117.4 117.5 123.1 124.5 125.9 127.2 132.2 139.6 147 149 154.8 159.9 164.8 169.1 173.8 180.1 184.8 184.3 194 198.2 202.6 209.9 217.4 225.8 224.9 218.8 210.5 215.3 219.2 222.2 223.8 226.9 229.1 232.5 235.6 236.5 237.1 240.8 241 238.6 231.2 239.2 239.9 235.2 225 219 217.3 219.5 219.5 209.9 220.7 228.2 233.9 240.9 246.4 262.1 270.7 277 286.3 300.7 309.4 309.9 310.3 310.1 307.7 304.6 302 300.6 299.4 300 299.9 299.6 298.4 297.7 296.4 293.4 290 285.1 280.6 273.8 262.6 257.5 260.3 259.7 257.4 253.2 249.1 241.2 237.3 237.4 237.9 233.9 227.2 220.2 209.5 203.9 200.3 199.3 197.2 192.5 193.4 188.3 186.3 188.9 189.7 194.3 194.9 192.7 190.2 184.4 177.7 172.3 164.9 157.2 147 138.6 134.1 131 125.8 120.3 118.5 117 114.6 113.6 128 147.7 157.8 161 159.5 161.6 166.5 170 175 186.3 196.2 212.1 228.6 235.9 238.6 244.8 255.3 258.5 259.5 260.6 258.4 257.2 256.2 258.3 252.2 238.7 218.2 200.3 183.8 157.9 138.5 124.9 122.5 127.9 137.1 155.2 181.4 192.4 202.4 207.8 220.9 235.4 244.1 246.4 246.1 242 246.6 250.3 249.8 250 249.7 249.3 248.4 248.6 248.6 248.3 249.4 250.7 248.6 246.1 243.1 240.8 235.6 233.1 233.1
61.3 78.1 88.8 89.2 93.6 102.2 110 110.6 111.5 112.2 108.8 109.3 113.2 115.9 119.9 124.9 127.3 130.8 136.6 145.9 151.7 156.4 161.7 166.9 171.5 179.2 185.1 189.8 188.5 193.8 198.9 203 209.2 216.1 223.9 221.8 217.9 214.2 215 220.4 221.3 223.5 225.4 228 232.5 236.8 240.4 243.3 245.1 245.5 243.1 241.9 244.2 247.3 247.7 236.3 224.9 221.4 220.8 220.8 215.4 215.2 224 229 234.1 238 245 252.7 259.5 272.9 286.2 296.9 299.4 302.8 303 299.4 297.3 295.9 294.2 292.6 289.9 286.8 284.5 282.7 280.3 282.4 279.7 275.1 271.1 265.2 255.8 246.2 237.5 234.7 232.5 229.7 228 225.5 225.4 226 227.2 230.9 223.5 216.7 208.9 201.9 191.9 188.2 186.6 182.9 183.1 182.9 182.5 180.3 174.9 173.5 175.8 176.3 177.1 173.8 168.8 162.8 159.5 153.7 144 135.5 130.9 126.3 124.3 121.5 119.7 117.4 114.9 118.8 129.9 143.3 158.1 169.2 171.1 173.1 174.4 176.4 183.5 191.1 207.8 217.6 228 237.8 243.1 248.5 254.2 259.5 261.6 261.5 262.7 262.1 261.6 261.4 261.1 257.8 254 241.2 225.3 205.2 181.6 148.5 128.9 123.2 127.4 135.4 153.9 181.7 194.4 205.6 211.9 223.8 240 246.4 248.7 251 244.5 246.5 251.4 255.5 256.7 255.5 253.8 254.4 254.5 255.9 252.5 252.3 251.5 249.4 245.3 241.4 237.3 237.5 237.3 235.4
60.5 76.6 88 89.1 90.7 93.9 100.7 105.2 106.9 105.7 102.8 104.5 109.2 113.6 118.5 122.6 126.3 129.2 140 148.9 153.9 155.7 160.1 169.8 177 182.8 188.5 193.4 190.3 191 197.2 202.6 208.3 215 221.2 218.4 215.5 216.7 218.3 216 219.2 222.4 223.1 228.3 234.3 239.4 243.8 248.1 250.6 250.1 249.1 248.8 248.6 251.7 252.7 248.9 237.4 228.5 224.8 224.8 220.7 211.1 219.6 224.8 228.9 232.6 237.9 242.8 248.9 262.4 279 291 293.5 294.3 294.1 291.9 291 290.2 289.3 284.8 284 272.7 269.7 269.3 270 269.6 267.4 266.6 262.2 252.4 240.2 233.5 229.7 225 221.2 220.1 219 215.6 216.8 211.3 218.1 220.7 215.7 208.6 200.2 192.5 198.2 201.4 200.3 198.9 198.7 198.8 200.9 199.5 192 185.2 167.7 164.6 165.7 162.1 154 147.2 145.9 139.4 134.7 130.1 127.5 125.3 124.2 123.1 121.8 121.1 125.8 133.8 145 161.5 173.6 181.2 181.8 182.5 185 186.2 198.2 213.9 223.5 232 236.8 243.8 250.8 263.7 269 269.4 268.3 267.5 266.2 268.1 266.7 263.9 262.6 260.4 255.9 250.1 246 228 198.7 160.6 134.2 124.6 127 133.8 152.8 182.4 202.9 214.3 215 225.5 239.7 244.9 250.7 254.2 250.4 255.7 257.9 260.6 262.9 261.6 260 261 259.2 257.3 258.2 256.5 255.3 252.7 247.1 241.6 242.1 242.1 241 238.3
60.7 72.1 84.1 87.3 87.8 89 92 96.3 100.2 99.3 97.8 104.5 109.8 112 115.3 121.2 124.2 127.5 139.7 147.6 152.6 155.8 160.2 172.9 177.9 183.6 191.6 190.8 190.2 192 196.3 200.8 206.4 212.6 216.7 214.6 213.7 216.7 218.7 221.8 223.9 226.4 224.3 232.1 237.1 241.8 246.3 251.4 255 256.4 256.6 257.9 257.2 258.4 259.1 256.4 249.9 239.8 233 229.4 225.5 222.1 215.6 221.5 226.2 228.9 232.5 237.4 242.4 253.2 269.9 280.5 289.2 290.2 288.6 285.4 284.5 283.5 281.4 274 268.4 264 263 264.4 269.7 268 264 258.2 250.4 237 238.2 241.1 236 230.1 229.5 229.4 229.8 227.9 223.5 218.1 206.6 212 209.5 202.4 196.3 204.5 208.9 214 212.6 211 211.3 212.1 211.6 207.9 201 194.7 189.9 176.8 171.4 165.6 158.2 151.4 148.9 141.2 132.2 131 131.8 130.1 129.8 127.3 126.3 126.7 137.4 146.2 162.7 182.1 192.9 197.3 192.7 195.8 206.2 215.4 221.5 227.9 233.5 238.3 246.8 254.1 260.1 268.8 275.6 275.4 279.4 276.7 277.3 278.1 272.6 273 270.8 267 261.8 255.8 249.8 241.1 210.7 172.3 142 129.3 127.4 136.2 152.9 181 214.4 221.5 222.9 234.5 240.2 252.7 257.1 264.2 259.3 259.2 265.7 267.3 268.5 267.7 266.8 263.8 261.7 259.4 261.3 259.4 254.6 251.7 247.6 245.9 246 244.2 243.5 241.6
61.4 66.7 80 83.5 84 85.8 89.2 93.8 98.2 96.1 93.5 103.9 106.7 110.8 114.4 118.3 121 127.9 138.8 145.3 150.7 154.7 159.9 169.9 177.9 185.1 189.7 187.8 192.1 196.1 197.4 198.5 202.9 208.3 210.2 209.9 212.6 216.2 220.1 224.8 231.2 234.6 228.2 234.6 238.6 243 248.9 254.1 259.3 262.7 264 264.7 265.8 267 266 263.7 259.2 256 249.6 243.5 233.5 228.4 221.7 217.9 222.8 226.7 229.6 232.6 237.7 249.3 262.5 275.3 280.5 282.9 282.3 280.9 283 279.3 277.7 270 270.6 268.2 264.5 259.9 258.7 258.6 248.9 246.4 250.4 253.3 254.3 254.7 250.1 238.7 237.6 235.3 235.1 229.5 220.5 214.4 207.5 201.8 200.3 197 201.4 209 213.8 218.5 217.2 218.3 219.4 219.6 218.3 215.4 213.5 214.3 211.6 204.7 197.4 189.9 182.6 175.4 160.7 145.4 142.6 144.4 140.5 140.6 145.8 145.5 144.2 143.2 145.1 158.9 183 197.2 202.3 202.4 209.7 227.3 232.1 238.4 241.6 250.6 252.7 254.9 257.8 258.8 261.7 272.4 278.4 280.5 287 288.1 288.6 289.3 287.3 283.3 278.5 274.3 269.1 263.4 254.6 245.5 216.7 184.6 149.7 132.6 129.5 138.3 157.4 183.9 217 235.2 240.5 257 255.8 256.6 259.8 265.3 269.3 268.6 273.3 272.7 269.9 270.9 270.4 267.1 266 260.7 259.5 258.3 254.3 250.8 248.7 248.6 249.9 249.4 248.6 245.9
56.9 60.2 70 76.7 79.8 84.1 84.7 87.1 90.6 92.7 91.5 101.6 106.1 112.2 115.2 117.8 118.5 125 137.4 142.8 148.6 152 157.1 168.8 176.8 183.8 187.5 190.9 194.3 197 198.1 198.4 200.9 203.3 203.1 205.2 210.4 216.4 221.3 226.7 235.1 239.3 233.1 234.4 239.7 244.8 250.9 255.6 261.5 267.8 270.4 272.7 274.2 273.3 271.5 268.6 266.3 262.2 260.7 258.4 245.3 234.6 224.6 219.8 218.7 222.4 225.5 229.7 234.7 242.3 255.3 266.5 273.8 275.7 275.4 276.5 276.9 275.7 274.6 275.2 278.5 279 274.5 267.7 263.6 260.6 259.7 265 264.3 267.1 265.2 260.4 254 244.3 241.9 238.6 233.9 227.8 217.7 209.8 206.8 201.3 197.9 201.1 208.2 212.9 217.2 220.1 222.3 224.6 225.4 224.9 224.4 226.5 232.6 235.8 228.9 222.4 213.7 206.5 200.4 189.5 171.1 148.3 155.5 162.2 160.1 161.2 161.8 163 164.4 162.6 151.9 172.6 193.2 213 213.3 209.8 218.3 247.3 253.2 261.2 265.2 268 273.8 272.8 273.4 266.2 272 279.3 284.4 286.7 289.5 292.1 293.5 295.4 296.6 292.5 287 281.5 274 268.1 259.2 247.3 222.7 190.4 155.5 135 131.1 139.6 161.1 187.8 215.9 241.4 258 269 280.1 275.6 272.5 273 276.6 279.1 278.3 277.1 276.6 276.2 275.2 273.4 270.3 265 262.9 259.7 256.3 253.1 252.5 253.2 253.8 251.7 251.5 251.3
51.7 56.3 61.8 65.2 75.4 81.7 82 83.1 84.8 88.3 91.5 99.9 105.4 112.2 114.7 116.5 117 125.3 135.4 139.6 143.4 147.1 153.8 165 176.5 182.3 186.5 192.1 195.9 199.7 199.5 198.5 199.5 201 199.6 202.4 209.4 217.3 222.7 228.5 236.6 243.5 236.5 233.4 240.2 246.7 252.5 258 264 272.2 275.5 278.8 281.2 277.4 275.4 273.1 271.6 268.4 264.9 262.9 257.5 249.7 233.4 224.3 220.3 222.3 226.5 232.2 238.6 242.1 243.8 253.4 262 271.3 273.6 275.6 276.5 276.9 275.4 279.1 283.4 285.7 283.2 277.9 274.9 271.7 270.6 271.9 272.5 272.2 266.5 259.2 253.1 246.3 240.3 233.4 228.4 222.7 214.7 204.7 202.4 200 199 204.8 212.7 219.3 222.4 224.6 227.7 230.6 231.1 231.3 231.8 240.4 253.4 252.4 248.1 238.1 222.2 213.3 203.1 186.2 171 152.9 164.9 173.8 182.3 184.2 182.5 177.6 179.4 178.8 173.9 171.9 192.7 212.6 225.2 223.9 224.8 241.9 254.1 263.6 270.5 276.3 279.5 280.9 281.6 276.5 285.5 289.9 292.1 293.5 294.3 294.8 296.7 298.3 299.8 297.8 292.6 286.1 278 270.5 261.3 250.5 229.5 196.6 167.5 139.7 132.8 140.4 161.3 191.3 214.4 235.5 254.4 272.5 285.1 287.2 292.7 291.9 292 290.9 289 286.1 284.6 283.2 281.4 276.2 270.9 268.7 267 262.6 258 256.1 256.2 257 257 255.7 255 254.1
48 50.4 55.7 60.9 70.1 76.7 79.2 82.6 84 83.8 88.8 99.3 104.6 110.3 114.3 114.8 115.3 118.8 128.3 130.7 136 140.8 149 158.1 170.6 177.3 182.7 190.3 193.4 194.6 196 192.5 193.3 198.8 199.9 205.4 211.5 216.7 222.5 229 237.4 246 240.2 237.1 243.3 248 253.1 259.1 265.3 272.9 281.4 286.8 284.2 280.3 278.8 277.6 276.3 273.2 268.5 264.8 261.5 253.4 238.8 228.2 221.6 223.9 228.6 233.1 240.2 246 252 257.7 263.1 264.3 269.5 271.6 275.2 277.8 279 283.1 287.5 292.2 289.1 287.2 283.6 279.5 276.1 276.4 276.9 272.2 266.4 259 253.2 245.5 235.5 228.2 223.7 218.3 208.6 211.5 208.3 202.8 202.6 207 217.6 223.5 226.9 229.6 233.7 236 238.2 239.7 244.6 255.7 261.5 261.4 255.6 243.3 226.2 215.7 198.5 179 160.8 161.2 172.3 185.3 196.2 202.1 203.2 198.2 193.2 191.8 187.8 176.8 190.3 202.8 216.3 227.8 230.9 237.2 241.6 250.9 261.5 269.4 276.4 284.8 289.7 283 291.3 301.6 304.1 304 303.4 302 301.9 302.3 302.9 301.2 295.4 288.8 281.1 274.1 265.1 253.4 234.7 202.9 173.3 147 134.4 141.1 153.3 177.2 200.3 221.4 244.1 266.2 283.7 290.1 294.1 299.2 297.1 294.9 297.2 294.8 294 291.4 287.9 277.8 273.9 270.9 269 264.8 260.9 260.7 261.3 261.8 262.2 262.2 262 262.4
46.5 48.9 52.5 56.4 63.1 69.8 73 78.2 80.6 81 86 93.6 101.4 106 110.6 112.5 113.5 110.5 112.1 117.4 122.9 132 140.4 149 158.7 163.7 169.7 175.5 181 184.4 186.1 188.4 195.9 203.3 203.4 205.8 212.2 217.3 223.6 230.7 237.6 246.4 240.9 238.5 244.4 248.8 253.1 258.1 265 271.9 281.2 285 281.7 280.1 280.1 280.3 280.2 277.7 272.1 267 263 255.5 240.6 229.6 222.2 224.2 227.6 234.8 245.9 254.3 258.4 263.5 268.6 270.3 269.1 272.6 276.9 279.3 280.5 284.4 288.1 293.1 293.2 292.7 287 282.9 280.4 279.7 276.5 271.4 265.9 258.7 252.5 245.9 231.5 223.3 218.1 210.8 211.3 219.3 218.4 208 205.6 207.6 214.3 221.8 227.7 233.7 238 241.6 245.4 248.7 260.6 264.7 265.1 264.8 259.5 243.8 230 216.3 201.8 186.6 170.7 167.5 179.2 196 207.2 218 221 216.1 209.5 205.5 201.6 195.7 189 200.8 210 218.3 226.2 233.3 241 250.9 259.2 266.7 275.7 282.7 287 288 297.5 306.3 309.4 309.2 309.5 309.7 307.9 306.1 304.6 301.2 293.7 286.7 279 272.5 264.2 254.8 238.1 213.1 180.1 156.7 135.7 141.4 151.2 168.4 187.4 206 229.1 250.3 277.4 291.7 295.3 297.8 299.1 297.3 298.9 299.2 296.9 295.6 290.9 285.1 280.1 280.4 278.6 272.9 270.1 275 276.7 279.4 280 278.8 281.6 279.7
45 49.3 53.6 59.2 69.3 78.1 74.1 72.9 73.9 73.9 80.4 87.5 93.2 96.8 100.7 100.1 98.6 101.2 103.5 118.9 123.4 129.7 138.8 145.5 151.4 159 164.8 169.9 173.1 176.1 184.4 191.1 199.2 208.2 211.3 207.8 208.5 220.2 226.8 232.2 237.9 244.5 242.2 237.4 244.5 248.4 252.3 257.4 263.5 271.2 278.3 280.3 278.4 278.7 279.4 281.4 283 281 276.5 270.8 264.2 256.3 242.9 235.6 227.9 223.2 226.6 234.5 251 258.5 263.1 267.9 272.8 276.8 277.1 276.6 280.5 282.3 281.2 285.3 289.1 293.2 296.9 293.6 289.3 285.7 283.3 280.5 275.9 270.4 264.4 257.3 250.5 241.3 229.3 215.4 213.3 217.7 222.9 227.1 223.9 213.5 208.5 214.1 221.9 223.9 230.1 236.3 242.6 248.6 252.5 260 267.5 267 266 263.4 258.8 250.2 235.3 222.3 210.8 192.7 177.2 172.4 186.6 206 220.8 238.5 246.4 237.8 228 217.9 212.7 208.6 201.9 198.5 209.7 218.1 226.2 234.4 242.2 250.7 258.6 266.2 275.8 283.4 288.8 293.2 299.8 306 309.9 312.6 312.3 312.1 311.1 308.8 304.8 297.3 289.9 282.5 276.1 269.8 262.3 255.1 244.7 220.5 190.2 163.3 141.4 142.6 150 162.4 178.3 195.1 214.9 235.8 264.1 288.4 294.7 295.6 296.5 298.1 300.3 298.9 297.8 295.2 291.3 285.4 283.8 281.6 279.7 277.1 277.7 283 285.1 290.1 294 290.9 294 295.5
46.1 49.4 53.2 58.8 68.4 80.3 75.6 72.1 71.6 73.2 75.4 79.2 82.1 81.3 84.5 92.8 105.8 110.3 111.8 107.7 116.1 125.9 135.8 143.4 148.5 155.1 159.8 167.2 173.2 181.8 187.2 194.6 202.8 210.2 215.9 219.9 214.6 223.7 228.9 233.7 239 246.7 246.8 235.3 242.5 247.6 251.4 256.6 263.7 269.9 274.9 275.6 275.3 276.1 277.9 280.7 283.7 284.9 280.5 274.7 266.1 257 247.6 241 233.3 228.5 227.4 239.6 252.4 260.3 266.8 270.8 275.8 282.6 282.8 281.5 284.5 283.5 282.5 286.5 291 295.5 295.1 292 288.9 285.5 281.9 279 274.8 269.1 261.9 253.2 245.8 234.7 218.5 216.6 220.3 226.5 231 232.6 226.6 214.8 217.3 226.9 235.3 239 243.2 247.1 251 254.9 262.3 267.9 269.4 267.2 264.9 261.4 257.2 250.6 241.7 222.4 210.8 191.9 177.9 177.8 193.7 213.7 230.8 248.8 254.3 247 238.9 228.4 222.8 219.9 219.6 211.7 216.6 222.9 228.9 235.3 242.6 251.9 261 268.1 274.4 281.5 288.8 296.2 300 308.1 313.1 315.8 315.5 314 311.1 306.5 300.7 294.4 287.6 281.1 275.2 268.7 262.2 256.2 247.8 232.6 196.5 169.9 145.5 143.1 149.5 156.8 169.9 184.6 202.1 222.2 246.2 271.7 277.4 284.1 289.4 293.2 293.4 295.1 295.6 293.6 290 286.9 285.9 284 281.9 280.8 281.7 284.3 287.1 294.7 299.8 298.4 301.5 304.4
45.3 47.1 51.1 57.7 64.4 70 67.4 65 69.4 70.7 71.1 72.2 75.1 77.3 86.9 98.7 105.6 111.3 113.2 121 131 140 140.3 141.7 146 151.4 158.1 168 176 183.4 191 198.5 205 212.8 219.8 227.1 227.1 224.9 231.5 236.6 241.6 247.7 250.3 242.7 240.2 245.4 250.2 256.7 262.4 267 270.4 271.5 271.6 273 275.3 278.4 283.5 286.1 283.5 277.2 267.6 259.1 250.5 243.7 238.2 236.8 227.5 240.4 251.5 261 269.4 273.5 278.7 285.6 286.5 285 285.7 286.6 287.2 286.1 290.3 293.1 292.8 290.7 288.4 285.4 281.8 278.4 273.7 268.4 260.2 249.9 234.8 223.7 219.9 225.6 229.6 233.4 237.2 233.8 228 221.5 232.1 246.8 255.4 257.3 259.1 262.2 262.9 265.8 267.9 270.5 270.8 268.3 262.6 256.3 250.8 242 230.1 217.9 205.7 194.4 181.6 184.4 196.7 215.1 233.2 250.8 255.6 255.5 251.3 244.9 239 232.4 221.8 226.2 231.2 237.2 242.6 247.5 252.3 256.4 261.9 270 276.8 283.8 290.4 296.5 300 307.3 313.4 315.8 314.4 312.9 309.4 305.2 298.8 292.5 285.6 279.3 272.4 265.9 259.3 253.7 246.5 232.6 201.9 169.7 149.7 144.3 152.2 164.8 179.4 189.1 195.6 208.4 228.9 241.8 252.8 266.4 275.2 285.8 289.6 292.2 295.4 295.7 294.1 290.6 287.7 288.2 293.8 293.7 290.8 292.6 292.6 295 300 303.3 309.3 307.7
45 46.9 49.1 60.8 65.3 61.9 61.1 59.2 61.5 64.5 73.8 79 83.7 89.8 91.3 99.3 103.6 107.6 112.1 120.5 133.7 143.2 147.9 153 155 159.2 165 171.2 174.9 182.9 191.7 199.8 206.5 214.3 223.6 232.2 228.6 223.6 234.1 237.7 243 249.3 253.3 247.9 240.8 241.9 246.3 255.4 260.7 263.9 266.4 266.9 267.7 269.5 272 276.8 282.1 285.8 284.7 279.1 270.4 261.9 252.4 246.6 245.3 240.9 232.5 236.4 250.6 263.5 271.1 276.2 281.5 288.4 290.8 289.7 290.9 290.7 287.3 285.1 288.1 290.1 290.4 290.4 288.9 286.2 283.1 280 276 269.9 261.1 245.8 230.6 222.2 231.7 236.6 235.8 238.9 238.1 233.9 228.1 230.4 245.9 253.1 261.5 268.5 273.1 275.7 276.1 275.6 273.4 272.7 271.5 267 259.8 252.9 244.8 234.5 225.5 217.1 207.2 196.6 187.8 191.6 199.5 214.1 232.7 248.9 255.3 257 254.5 251.9 249 241.8 228.7 230.8 240.7 243.2 253.7 258.3 261.8 265 270.2 274.3 279.6 285.9 291.8 297.4 302.7 307.2 309.8 311.4 311.7 310 305.8 301.3 296.2 291.5 284.6 276.7 269.2 261.1 252.9 245.8 236.5 222.9 198.3 172.9 152.7 145.3 154.7 167.2 186.9 201.3 206 210.1 214.1 225.7 234.7 249.4 262.8 275.1 286.7 290.2 294.6 294.2 292.4 290.9 292.3 295.9 299.3 299.8 303.3 301.4 304.9 306.3 308 308.4 309.2 305.5
47.2 47.6 47.4 54.6 56.5 57.2 56.9 56.4 64 72.7 79 83.7 86.8 92.2 95.2 100 108.1 109.4 112.8 120.1 132.4 144.4 151.3 154.4 158.5 165 171.6 175.6 179.9 187.7 194 203.4 211 218.1 225.5 234.3 229.6 229.6 235.3 239.8 245.3 251.4 255.7 251.6 244.5 244.8 248.3 252.8 258.3 261.1 262.1 263.5 265.3 267 269.8 275.3 280.8 284.7 284.5 278.8 269.9 263.3 256.2 255.5 254.5 251.9 240.8 235.6 252.8 263.3 274.9 281.2 287 293.6 295 295.4 295.1 291.7 286.3 285.3 287.5 289.5 290.9 290.5 289.4 286.9 283.4 279.7 276.3 269.5 258.8 241.1 227.2 230.6 242.1 241.6 239.3 240.3 237.1 234 233.9 240.1 251.7 259.9 266.5 273.7 278.6 280.8 280.4 278.2 275.7 274.4 270.5 266 258.2 251.4 242.3 229.9 221.8 216.6 209.1 202.8 198.4 194.8 200.2 209.8 230.5 247 256.7 259.5 257.7 256.4 252.9 244.6 236.2 232.4 246.3 252.2 260.1 267.5 269.8 274.7 280.2 283.8 286.2 287.9 293.7 300.3 305.1 307.9 309.9 310.6 310.3 309.4 306.1 303.8 300.2 293.9 286.3 277.6 268.9 261.4 253.8 245.2 235.4 217.1 196.8 175.1 154.2 147.5 156.2 168.6 191.8 208.7 212.3 216.5 223.2 229.1 235.7 256.4 271 280.7 286.1 290 296.2 297.3 298.4 301.4 299.8 306.5 304.4 309.3 312.1 313.6 315.9 318.5 318.4 314.4 311.1 306.3
44.9 45.1 43 47.1 53.7 51.9 51.8 55.5 69 75.7 83.6 89.8 92.2 95.4 98.7 99.1 104.8 108.4 115 124.5 132.4 142.5 150.5 158 164.7 169.6 174.8 179.8 186.5 191.6 198.8 205.8 214.3 221.1 229.8 235.8 231.5 231.4 237 242 246.5 251.7 257.1 254.9 246.6 241.2 246.1 253.5 257.5 260.1 259.1 260.9 263.6 266.3 269.1 273.5 279.1 282.9 283 277.6 270.6 264.5 260.3 261.1 259.2 255.2 250 237.9 254.1 268.5 281.7 287.9 293 298 298.4 299.1 296.5 292.2 286.8 286.5 287.9 290.1 291.3 291.1 289.3 286.3 282.8 279.4 274.5 266.4 254.1 240.7 227.9 236.3 244.3 245.5 241.4 238.9 237.4 236 240 249.2 257.7 263.4 271.2 278.5 281.7 282.4 281.5 279.2 276.8 273.7 269.6 264.8 259 251.7 240.9 227.3 220 216.3 212.1 213.2 210.7 206.8 199.7 211.2 228.9 247 256.1 259.8 259.1 257.4 253.7 246.7 240.2 236.8 244.2 256.2 265.4 274.2 280.6 286.1 291.2 293.6 293.9 293.8 298.9 304.3 309.2 311.6 311.2 312 310.8 309.1 304.1 299.1 293.2 288.7 280.6 272.3 265.2 258.6 250.3 242.9 235.2 218.4 202.5 179.9 160.3 151.2 157.8 173.3 195.6 218.8 220.3 221.4 227.7 235.8 242.9 259.7 275.9 282.1 285.9 290.3 302.7 304.8 309.4 313.4 310.9 311.7 314.8 321.1 324.1 326.9 327.5 325.5 324.2 320 314.2 308.2
36.3 37 35.4 39.5 42.4 45.7 53.7 58.9 67.9 76.6 89.9 92.4 93.9 97 100.5 103.6 107.6 113.5 118.5 127.6 135.3 141 148.8 160.5 170.9 176.4 180.7 186.7 193.6 199 206.2 212.3 216.8 223.6 231.7 236.7 232 234.3 238.3 242.4 246.8 251.2 257.9 258.1 248.6 243.3 245.1 254.9 255.7 256.2 255.1 260.1 263.4 266.5 269 273.1 277.7 280.8 281.3 274.6 269.8 264 261.1 262.1 260.6 256 248.2 241.5 259.2 273.3 289.5 294.4 298.7 301.2 301.1 300.1 296.5 292.1 289.1 287.5 289.8 290.7 290.7 290.6 288.1 284.5 280 275.1 268.7 260.4 250.2 239 237.3 241.5 247.2 250.8 248.6 243.4 243.8 242.2 245.6 253.6 261 266.3 273.6 280.3 283 282.8 281.7 279.8 277.1 273.5 267.7 262.6 258.3 250.4 236.6 226 220.9 222.2 222.9 224.4 219.4 213.6 206.9 213.7 228.4 241.3 251.7 258.3 259 256 253.5 248.4 244.6 240.6 244 252.6 269.3 280.2 291.2 296.2 301.2 300.8 301.7 302.5 304.1 307.4 310.9 315 314 311.8 309.1 305.3 300.3 294.3 288.3 282.5 275.4 269.7 262.1 258.2 252.7 245.7 237 226.6 207.2 184.8 160.1 151.5 159.6 175.7 197.6 224 242.7 237.2 236.4 248.1 259.8 269.7 282.9 291.3 293 293.4 303.5 314.1 318.2 320 321.3 325.6 326.4 333.7 335.4 336.3 336.9 337.4 335.2 328.4 321.2 315.8
32.1 37.1 43.9 48.3 52.5 56.2 56.4 59.2 66.8 76.8 88.4 91 92.6 97.4 102.3 108 114.8 120.3 124 128.8 135.5 142.3 149.6 162.9 172.4 178.6 185.5 190.5 197.3 205.1 212.7 218.8 218.6 225.7 233.3 236.6 233.8 236.3 238.4 241.9 247.8 252.9 258.7 258.9 249.9 246.5 244 248.2 248.2 250.2 253.4 260.7 263.1 267.3 269.2 272.1 276.4 278.8 278 274.2 269.9 266.6 261.4 260.9 261.6 257.1 247.3 248.1 263.2 282 296.1 298.5 303.5 303.1 302.5 299.3 296 292.3 289.2 290.5 292.5 290.7 290.1 287.7 284.5 281.1 277.1 271.7 263.9 254.3 244.5 245.6 245.5 247.4 253.6 257 254.5 252.6 251.7 249.8 250.2 257 263.9 270.2 277.8 283 284.3 284.6 284.2 281.7 277.6 274.3 268.8 263.7 257.1 248.8 236.5 229.2 225 234.9 238.7 238.1 227.8 220.2 211 219.7 231.6 241.1 251.9 258.8 259.7 258.1 257.9 256.9 252.1 247.5 247.1 255.2 272 282.6 295.7 304.1 308.9 310.7 309.3 308.6 309.1 309.8 310.8 312.1 311.1 309.2 305.5 301.4 295.6 289.5 283.4 278.7 273.3 268.3 264.9 261.7 257.8 251.8 243.9 229.1 207.7 180.2 164 155 161 176.1 198.8 227.4 251 254.7 256.4 261.3 271.2 281.3 287.6 293.3 299.3 303.9 310 318.3 325.4 327.9 329.2 330 329.8 335.8 340.6 344.3 344.4 342.9 340.7 333.5 327.9 322.8
34.5 41.4 47.7 54.9 59.8 59.2 54.9 58.6 67 76.4 83.7 86.9 92.9 97.7 104 110.4 118.9 123.6 126.7 131.4 139.6 146.9 153.6 164.1 173.3 180.3 187 193.9 201 207.9 218.9 226.1 225 229.1 234.9 236.9 235 237.6 239.6 241.9 248.4 252.8 258.3 258.3 251.3 252.4 254.8 250.8 250.8 251.8 252.6 254.7 262.2 267.4 269.4 271.6 274.8 276.6 275.8 273.4 271 267.8 263.2 260.3 261.3 258.5 244.9 250.7 268 290.7 301.5 304.3 305.5 304.3 302.7 298.7 295.8 292.3 292 293.7 293.8 289.7 287.6 284.5 281.1 277.8 273.5 268.4 261.8 252.5 243.3 251.4 254.6 255 259.6 261.1 259.3 259.3 258.9 257.8 254.3 260 268.6 275 281.5 286.2 289.9 290.2 288.2 284.7 281.5 276.2 271.3 265.1 261.7 254.6 249.8 241.4 227.5 234.5 242.2 243.5 233.8 220.8 214.6 223.1 235.2 243.7 255.5 260 262.6 263.4 267.2 263.4 260.2 256.4 252.8 259.6 276.3 288.3 296.7 307 317.2 318.7 318 315.7 313.5 312.6 311.1 309.8 308.7 305.6 300.8 296.8 291.4 285.8 280.2 275.6 271.2 266.5 263.5 261.6 257.7 251.1 237.6 219.4 196.1 184.5 175.2 157.7 162.5 177 200.2 229.8 249.8 259.3 267.4 271.3 276.8 287.4 293.7 299.1 304.8 310.3 317.3 323.1 330.5 334.6 338.3 341.1 342.7 350 356.4 356.1 356.4 354.2 350 342.9 334 326.9
35.4 43.8 50.5 57.8 63 59 53 58.5 67.2 75.1 79.1 88.2 96.7 102.2 106.3 112.1 118.2 123.4 127.9 134.3 142 150.9 158 167.1 175 183.4 192.6 200.3 208.7 215.7 225.8 230 230.2 234.1 237 238 236.7 239.2 241 242.7 247.6 251.8 256.7 259.8 256.4 258.5 262.3 263.4 258.5 257.3 256.5 260.8 260.1 266.9 269.9 271 272.1 273 273.2 271.8 270.9 268 262.5 258.7 259.2 257.4 244.5 250.2 273.8 301.1 307.3 308.3 307.5 305.5 303.1 299.6 295.7 293.6 293.8 295.4 293.9 288.5 285.5 281.7 278.2 274.3 268.3 263.7 257.2 249.9 248.8 255.9 256.9 258 261.3 262.9 263.2 265.6 264.6 263.2 259.5 264 271.4 277.8 287.9 292.5 292.4 289.9 286.7 283.2 279.8 275.6 270.6 265.6 261.5 255 250.1 242 235.1 233.9 237.1 239.4 229.9 222.3 218.6 227.5 238.7 248.3 256.7 264.7 267.9 268.2 270.9 270.6 265.6 261.9 259.1 265.1 281.2 292.6 301.8 308.2 316.5 322.1 323.9 322.3 317.9 312.3 309.6 306.5 304.6 301.4 296.4 292.2 287.5 282 276.4 272.7 268.4 264.2 259.5 253.8 248.6 237.1 217 207.8 209.3 205.6 181.5 161.5 164.3 178 203 231.2 249.9 263.6 275.1 280.7 285.2 291.3 295.3 301 310.2 318.2 326.7 334.8 338.4 344.7 349.9 354 360.3 364.7 368.5 367.6 365 363.5 358.7 353.2 342.5 335.5
35.5 44.3 50.7 58 63.1 56.9 50.6 56 63 68.1 74.5 86.9 97.1 106.9 112.1 114.7 118.4 124.5 128.5 135.1 141.3 150.8 165.1 171.4 177.9 185.2 194.4 205.9 213.4 220.6 232.3 231.9 233.7 237.3 238.2 238.1 239.5 243 241.7 243 247 251.4 255.7 261.1 263.8 266.6 268.6 270.1 269.1 264.2 262.4 265 264.3 263.4 268.9 270.6 272.1 272.7 272.7 271.6 271.1 268.2 262 258.5 255.6 254.4 244.6 252.2 279.7 305.5 313.2 310.9 307.9 305.9 303 300 295.8 293.4 292.6 291.6 289.9 286.7 282.7 278.6 274.3 268 263.8 259.9 254.2 247.9 249.4 254.5 254.7 256.8 259.3 261.2 264.5 267.7 267 264.8 264.1 266.3 273.1 278.4 293.1 294.4 292.3 288.8 286.1 283.1 279.7 275.3 271.6 267.9 263.7 256.8 251.4 246.4 241.8 241 234.5 233 230.7 227.4 224.5 238.1 247.4 254.7 263.4 270.4 275.3 273.7 273.1 271.6 269.4 267.2 263 267.7 281.7 294.9 302.4 309.7 316.7 321.1 321.9 320.5 316.9 311.7 308.7 304.8 302.8 299 293.1 288 281.4 276.4 271.5 266.6 262 257.4 251 242.6 229.6 215.2 222.1 224.3 228.1 221.2 188.7 166.4 167.3 180.4 202.9 231.7 254 269.1 284 289.4 293.2 297.6 302.6 310.1 318.1 324.5 332 342.3 350.5 353.4 361.2 365.7 367.8 369.8 373.3 374.2 375.2 375.2 369.6 362.7 350.7 347
33.1 41 50.9 56.6 60 54.2 48 52.4 55.5 62.3 71.8 84 98.3 108 113.1 114.6 118.4 123.9 127.3 133.4 139.6 148.5 160.2 171.3 179.2 188 198.8 206.1 214.9 225 232 231.7 235.1 238.5 239.4 238.8 240 242.8 241.6 243.5 248.5 253 257.2 262.1 268.1 273.1 274.2 275.2 274.1 272.2 270.3 271.3 269.9 267.8 266.9 270.3 272.5 272.8 272.6 272.6 270.8 268.3 263.5 257 251.9 248.7 245.7 253.2 283.6 308.8 315.1 313.4 307.7 305.5 302.7 300.4 296.1 293.1 292.7 290.8 287.7 284.1 279.3 274.1 268.1 261.9 258.7 254.9 251.1 247.8 248 249.4 251.6 254.1 256.6 259 263.3 266.4 267.3 266.1 264.9 268.1 273.6 280.7 287.9 289.8 289.7 289 287.1 286.5 283.4 279.2 273.3 268.7 265.2 260.6 256.3 253.2 248.4 242.7 234.6 231.1 234 227.5 228.1 241.8 256.9 266.5 270 275.5 275.6 276.6 279.1 280.1 278.8 275.6 271.4 272.6 287.4 294.7 300.5 309.9 316.2 321.5 321.9 320.8 316.8 313.2 307.9 303.2 298.5 292.8 285.9 281.6 275.4 269.9 263.9 255.1 249.4 242 234.2 224.6 229.6 233.7 236.8 235.6 235.8 224.7 194.6 168.8 169.7 181.4 201.8 228.6 254.5 268.5 285.1 296.7 300 302.5 304.7 315.6 319.1 326.7 336.7 349.1 352.6 362.6 367.5 372.7 374.8 377.8 382.9 382.8 380 376.2 372.4 368.2 357.2 352.8
32.1 40.3 46.9 53.7 55.1 49.4 41.9 42.9 46.5 55.5 70.5 81.9 91.3 102.1 107.8 112.9 117 118.7 123.8 130.6 137.8 146.6 158.4 168.5 176.5 186.7 192.9 203 213.7 221.8 228.5 232.4 236.4 239.4 240.3 239.7 241 240.2 239.7 244.6 249.3 253.5 259.2 263.8 269.7 275.6 280.1 281.9 283 281.9 280.6 279.6 276.3 273.3 269.1 270.2 273 272.4 273.2 272.6 270.9 268.1 262.6 257.4 255.4 253.2 246.3 253.4 282.8 305.2 311.6 310.1 307.6 306.1 303.7 300.6 297.5 293.9 291.8 289.4 286 282.5 276.4 270 261.5 259 256 254 251.6 251.6 248.8 249.8 250.7 252 254.4 257.7 261.6 265.4 267.7 265.6 264.7 267.5 271.7 280.1 287.5 289.1 291.8 295.6 294.8 291.8 286.7 281.9 278 272.5 268.7 268.4 266.3 261.1 254.5 248.2 240.7 232.5 230.4 225.4 230 241.6 261.7 272.6 279.3 285.2 284.5 285.2 285.2 285.2 285.1 283.6 277.6 277.4 287.4 296.5 303.6 310.6 314.5 318.4 318.3 317 312.5 310.7 306.7 301.1 296.2 289.7 282.5 277.4 272.6 267.7 262.1 257.8 248.7 238.8 237.7 238.9 242.8 247.3 248.1 245.5 239.4 226.1 197.7 172.7 172.7 182.2 195.6 214.8 236.5 259.4 279.7 295.5 304.1 308.9 310.6 317.3 324.7 330.9 340.1 352.8 363 374 374.8 376.8 384.1 387.5 390.3 389.9 387.9 384.6 375.9 367.6 360 354
32.1 38.7 43.8 50.5 50.1 44.4 36.7 36.2 39.5 52.3 68.8 79.1 82.5 93.2 99.4 103.5 106.9 111.1 120.8 128.7 136.3 144 156.4 165.6 172.5 182.2 192.9 203.9 210.1 215.9 223.4 231.5 237.1 239.9 239.1 238.4 238.8 236.9 240.6 245.8 249.7 253.9 258.8 264.6 271.1 277.8 284.2 289.1 290.9 288.7 287.4 284.7 284 279.8 272.3 270.7 271.6 273.3 274.5 275.1 273.9 270.3 265.9 263.5 259.5 254.3 248.2 251.7 281.5 296.9 306.7 308.1 308.7 309 306.2 300.9 297 293.9 290.6 288.1 285.1 282.6 276.2 272.5 271.7 266.7 258.5 255.7 258.8 261.4 255.4 251.4 251.2 252.2 254 256.5 259.3 262.5 263.8 265.7 267.5 271.2 278 282.1 289.7 297.8 298.2 299.1 298.9 294.2 288.5 283.8 280.7 278.1 275.7 274.5 274.4 271.5 264.9 259.9 251.6 239.4 228.3 232.8 231.3 242.2 261.9 273.4 285.2 294.3 294.7 296.1 294.2 293.8 291.2 290.7 286.4 282.8 292.8 298.5 304.5 309.1 312.8 314.3 314 313.3 309.5 307.7 304.2 300 295.7 289.5 283.2 277.2 270.7 259.6 252.5 244.5 245.2 248.3 251.1 251.9 254.1 254.8 254.6 249.4 242.3 224.9 201.2 177.7 178.4 183.1 193.2 205.7 223.8 246 267.3 287.3 306.3 312.3 316.2 322.5 330 338 345.1 352.3 358.2 364.1 367.7 372.7 381.4 385 387.3 387.1 391.5 392.8 389.9 379.8 366.5 356.8
29.1 35.5 40.3 46.5 44 39.2 32.4 31.6 35.1 47.4 62.5 69.9 75.9 80.5 88.9 93 99.4 111.1 118.9 126.3 133.4 144.1 155.6 164.7 172 181.3 192.2 199.8 207.8 216 224.3 232.7 238.8 238.6 237 234.7 232.9 235.2 240.1 247 250.3 254.4 260.9 267.7 275.5 282.5 287.5 297.2 297.4 295.4 293.4 291.1 289.3 284.1 277 274.4 274 275.3 276.8 277.2 274.9 270.7 267.6 266 263.5 259.1 249.6 250.7 274 289.5 301.1 308.3 311.1 309.6 306.6 300.4 297.6 294.6 292 289.3 286 283.6 282.2 280 278 271.3 263.7 264.2 268.9 267.9 262.9 254.6 252.9 254.6 256.3 256.5 259.8 265.7 268.2 270.8 276.3 282.2 289 291.8 301.2 307.5 308.8 306 301.2 296.6 291.3 285.2 281.3 279 279.3 279 278.6 276.5 272.1 268.2 261.3 246.3 232 232 233.6 244.9 259.5 272.1 285.8 296.2 300.4 303.6 304.7 304.1 300.7 301.5 296 289.8 296.1 301.5 301.4 305.8 310.5 312.6 313.1 311 307.7 306.2 304.9 301.4 297 289.8 284.1 276.3 265.6 254.9 252.7 257.8 256 255.4 258 259.9 259.5 258.5 257.9 254.1 245.6 228.4 202.7 182.1 181.1 194.3 205.4 211.2 219.8 236.7 258.5 278 300.2 312.3 319.5 326.9 334.9 342.4 346.8 348 349.1 350.3 353.5 357.6 363.2 363.6 366.4 370.2 380.6 388.8 391.5 384.6 372.8 368
24.5 30.4 34 37.8 38.2 34.4 28.7 29.7 33.5 42.6 54.6 62.6 67.7 72.2 82.1 90.2 101.1 107 113.2 122.2 132.3 141.1 152.4 160.3 168.8 177.7 186.9 198.4 209.2 219.3 225.9 234.3 240.6 238 235.4 233 232.1 233.8 242.5 248.4 251.7 255.3 261.8 268.9 275.2 282.7 289.3 298.5 302.3 300.6 298.3 295.3 292 287.4 280.7 277.4 276.7 277.8 278 276.5 275 271.8 269.4 267 265.5 261.2 253.5 251.5 264.1 280.4 299.2 306.7 308.1 307 305.1 301.4 299.9 297.8 296 293.4 289.5 288.2 286.5 284.9 282.1 275.7 267 270.8 274.7 271.8 266.5 257.3 255.9 261.4 263.3 264.8 269.3 275.2 279.6 279.9 284.9 289.9 295.3 298.2 300.6 306.4 307.5 304.6 300.6 296.4 291.8 287 282.8 281.6 281.8 282.4 281.4 278 274 267.7 260.7 249.4 232.9 230 235 245.3 256.2 270 282.9 292.1 296.5 300.5 302.6 309.4 311.9 310 308.4 296.7 295.6 300 301.6 303.9 306.3 307.4 308.1 306.8 306.7 306.7 306.1 301.2 295.5 288.9 281.1 270.7 258.1 259.3 260.4 263.7 264.1 262.5 263.9 264.8 262.7 261.6 260.2 256.8 248.9 228.6 201.1 187.4 184.7 199 218.4 225.8 226.8 236.8 251.4 269.4 288.1 304.2 316.8 326.1 334.5 341.9 344.4 342.3 339.6 337.1 338.9 342.3 344.8 345.6 348.2 356.2 366.4 376.7 379.2 376.6 370.7 363.5
20.7 25.5 29.1 32.1 32.1 28.7 27 30.1 33.8 38.3 43.8 51.5 57.4 68.6 75.5 85.9 90.3 97.4 108.1 118.5 128.8 139.6 151.6 161.6 172.2 180.7 190.6 201.5 217 226.7 229.1 234.5 238.4 236.2 234.9 233 231.6 234.5 242.8 248.5 252.3 255.7 261.8 270 276.9 284 290.9 297.1 305.8 303.8 300.8 298.1 294.6 290.4 284.8 280.7 277.2 281.4 280.9 278.1 274.3 273.7 272.8 269.7 267.5 265.1 258.1 253.4 262.4 276.2 294.1 302 303.9 304.5 303.7 302.9 302.1 301.2 299.1 295.9 294 292.7 291.2 289.6 284.8 277.8 271.9 275.2 277.2 272.8 267.6 257.6 260.5 267 271.1 276.9 282.2 284.3 285.8 286.5 293.4 299 301.8 304.4 304.3 308.9 307.1 304.4 301.2 297.6 293.1 289.3 286.2 285.4 286.4 287.3 285.2 281.6 275.7 267.6 259.7 247.4 234.6 231.6 234 247.9 257 265 277 285.8 290.7 294.2 297.7 301.8 302.9 302 300.2 298.2 293.1 298.1 299.8 299.8 302 303.7 304.3 305.4 306.2 306.9 305.6 301.9 298.5 290.9 280.8 269.7 270.6 272.4 271.8 272.3 272.2 269.9 269.4 269.8 266.8 264.1 260.9 256.9 246.5 227.6 203.6 197.5 188.9 209.7 228.5 240 241.5 245.6 254.4 262.6 281.7 297.4 309.7 316.1 323.5 329 330.9 330.9 327.5 322.6 324.5 327.6 327.8 328.7 328.9 340.6 353.9 362.5 365.4 363.1 358.7 352.9
19.2 21.4 23.9 24.7 24.8 25.1 27.7 30.6 33.9 37.7 41.3 46.3 54.5 61.2 71.8 77.9 85.7 100.2 110.2 118.3 126.9 139.9 150.7 160.2 168.8 178.4 191.1 210.7 223.4 231.4 232.4 234.6 235 235 235.6 233.6 231.5 233.5 241.2 248 253.3 256.7 262.1 270.6 277.9 284.3 293.3 300 308.3 305.6 302.6 300 296.9 292.4 288.9 284.7 279.1 282.3 283.5 280.6 278.1 277 275.5 274 272.8 270.1 263.7 254.3 266.2 277.5 289.6 297.3 300 304 304.8 304 302.2 301.4 300.6 298.9 297.3 295.9 294.1 290 285.7 278.9 273.8 277 275.6 272.3 267.6 257.1 264.4 272.7 277.3 282.5 287.1 290.7 291.8 292.7 299.3 302.8 306.5 307.7 306 309.5 307.7 305 302.1 298.7 294.4 292.4 290.2 290.3 291.2 290.7 288.7 286.5 280.9 268.8 259.9 250.4 235.1 230.7 232.8 242.7 255.7 261.4 270 277.6 281.7 286.1 289.2 292.7 295.9 297.5 296.3 294.9 290.7 296.1 298.1 299.9 303.7 305.8 306.7 306.9 308.2 308.3 306.4 302.6 297.4 288.1 277.6 279.3 277 279.5 281.8 283 281.7 275.9 274.7 274.1 269.5 267.3 263.6 259.5 248.6 226.9 211.4 207.1 196.2 219.3 239.1 250.3 254.5 258.8 265.9 265.3 279.6 288.7 298.8 308.2 313.2 316.2 317.9 317.7 313.7 307.8 307.8 309.1 308.8 307 310.9 325.8 341.3 352.2 355.2 354.2 350.3 343.6
19.6 19.5 20.3 22.1 23.3 25.3 27.5 29.6 33.3 36.4 39.4 45.4 57.6 67.6 74.3 82.6 90.1 101 109.2 116.5 128.3 143 152.6 162.1 171.5 181.2 201.4 217.8 229.2 233.6 234.1 233.6 231.7 232.8 238.2 234.1 230.8 233.9 240.2 249.1 253.5 257.6 262.3 270.5 279.6 291.3 298.5 304 309.8 307.8 305.1 302.8 299.4 295.4 291.7 285.6 281.7 284.1 285 282.3 282.3 281.1 279.3 277.2 275.7 272.7 267.5 255.2 266.7 277.7 285.1 293.1 296.5 299.8 302.2 302.5 301.2 300.8 300.2 299.7 297.9 296.9 294.5 290 284.8 280.4 275.2 275.9 273.1 269.6 264.4 260.1 269.4 276.1 282.4 288.6 293.5 298.5 299.4 300.5 304.8 310.3 310.8 310.2 307.1 307.4 307.1 304.7 302.2 299.1 295.6 293.8 292.1 293.5 293.3 292.3 289.4 286.5 280.5 271.3 261 248.6 236.3 231.6 231.8 239.1 246.2 257.7 265.4 270.1 275.6 284.1 287.6 289.6 293.6 295.2 294.6 292.6 290.2 297 297.3 297.7 301.8 304.7 307.8 308.2 309.5 308.9 307.3 303.6 298.9 292.8 285.4 282.5 284.2 284 284.8 285.2 284.3 280.5 278.4 274.7 270.3 265.5 263.1 257.7 244.9 221.6 225.1 213.1 206.3 226.2 249.5 262.4 269 272.7 275.4 273.7 279.2 287.8 295.7 301 304.7 306.2 307 304.4 299.2 293.6 291.4 290.5 291.2 288.3 295.4 310 326.1 337 342.9 343 338.7 331.5
19.6 19.5 20 20.7 22.5 24.5 26.6 28.6 31.9 34.7 37.6 44.9 53.3 67.2 74.9 83.2 92.6 101.5 110.1 122.3 135.2 145.2 156.3 165.3 176.5 190.5 211.1 223 232.2 235.6 234 230.4 227.8 231.1 238.3 234.5 231.3 235.1 241 246.6 253.2 256 262.8 273.6 286.8 300.1 306.9 310.7 313.1 311.6 308.3 306.3 302.6 298.1 293.4 290 286.3 289.2 287.8 287.2 287.3 284.8 283 281 278.3 274.8 270.9 258.9 258.6 273.6 283.5 290.1 294.1 297.2 298.9 299.4 299.4 299.4 299.5 296.9 295.5 294.3 294.3 289.3 284 280 274.1 272.2 269.6 269.7 267 263.1 272.7 280.4 287.6 294.1 299.9 302.7 303.4 305.9 307.6 309.7 312.3 311.6 307.9 306.9 305.9 304 302.6 300.1 295.4 293.6 293.3 292.7 292.5 290 286.4 285.1 274.5 266 260.9 252 242 232.6 231.5 235.4 241.3 255.2 266.1 272.5 275 281.4 282.6 282.9 285.6 288.4 290.1 290.7 290 294.4 295.5 299 302 305.1 308.6 308.7 309.3 308.9 307.8 303.6 301.1 297.2 292.7 288.5 289.7 289.8 289.5 288.2 285.5 282.1 280.1 275.4 269.9 265.5 257.5 251.3 234.7 233.8 232.6 219.9 217.1 237.6 260.4 270.2 276.1 282.3 285.6 285.6 282 289.6 293.6 299.7 300 301.3 299.4 296.1 291.2 284.9 279.2 279.6 278.3 278.4 286.7 303.5 316.4 321.5 325.5 325.5 321.7 316.2
19.9 20 20.2 20.9 21.8 23.3 25.5 27.6 30.4 34.1 38.7 46.8 57.6 65.8 78.7 88.5 98.8 107.4 117.5 130.3 141.9 151.1 159.2 169.2 183.1 200.5 215.6 225.7 234.3 235.4 233.8 227.1 224.1 227.9 237.2 233.7 230.5 236.5 241.9 247.4 252.3 257.2 268.6 280.6 296.2 312 318.4 319.1 319.1 318.2 314.5 311.8 305.7 300 298.8 293.4 290.2 292.3 290.8 291.1 291 287.8 285.4 282.8 280.8 277.3 274.4 267.3 260.1 260.8 276.5 287.2 292 294.8 296.8 298 297.7 296.9 296.4 294.7 292.5 290.8 291.5 288.7 284.5 278.1 279.1 277.3 276.2 275.9 272.9 266.6 276.6 283.5 293.6 300.3 304.6 306.7 309 312.6 313.5 313.9 315.1 314.5 310.6 307.9 305.2 303.1 302.9 302.1 299.6 295.7 292.9 293.1 292.7 290.5 288.1 289.3 277.3 270.9 269.4 258.5 251.3 238.9 231.6 234.5 241.1 252.6 262.2 267.9 274.9 278 276.8 278 281.4 283.5 285.5 290.1 291.2 291 296 302 304.6 307.4 309.4 308.9 310.4 309.3 309.2 306.8 304.8 300.4 296.3 291.9 293.6 292.7 293.3 291.2 285.7 281.6 278 274.3 264.7 259.6 249.1 242 242.6 244.1 240.1 228.6 224 246.1 261.6 273.7 281.4 288.5 291.2 291.3 285.4 290.2 292.9 296.3 295.7 296.1 293.9 288.1 283 277.8 272.5 270.9 270.1 271.6 279.4 293.6 307 314.1 315.4 315.4 312.9 308
20.5 21 21.1 21.1 21.5 21.9 24.2 26.4 29 35 43.3 51.3 63 74.4 85.4 93 101.8 113.5 125.3 135.7 149 157 164.3 177 192.3 207.6 219.3 227.5 230.7 230.4 229.2 222.6 220.8 225.3 234.3 231.2 232.4 238.9 245.6 251.1 257.2 264.5 275 290.6 309.2 323.7 328.8 326.9 324.9 323.3 320.6 316.6 308.2 303.2 303 297.7 293.9 295.5 294.5 295.1 293.7 291.6 286.5 283.8 281.8 279.1 273.8 264.2 269.8 269.2 263.2 279.8 287.5 290 293.7 296.8 295.3 293.9 293.5 295.3 293.1 288.6 289 287.3 284.1 279.5 280.3 281.1 280.7 279.7 278.6 270.2 282.4 288.6 297.3 305.5 309.5 311.7 314.8 318.6 319.8 319.2 319.9 318.7 313.7 310 305.7 303.1 303 301.3 297.6 293.3 293.2 297.9 298.3 292.9 289.9 291.4 285.9 276.2 270.7 262.6 254.7 243.3 233.9 233.9 241.2 249.5 257.7 264.1 269.4 272.3 272.7 275.8 279.7 283.5 287.8 291.3 292.3 291.8 296.9 306.6 303.7 310.4 310 308.5 309.6 310.6 309.5 304.7 304.5 301.6 298.2 293.8 296.7 295.8 294.3 291.6 285.1 280.8 274.9 269.2 262.8 255.6 253.2 253.7 255.5 255.2 248.7 236.6 233.9 253.2 269 278 284.8 287.5 291.7 292.2 289.4 284.5 288 290.6 287.6 286.7 287.3 283.7 279.1 274 267 263.9 264.6 266 272.7 287.7 295.9 301.5 303.9 302.5 301.4 298.4
21.1 21.5 21.5 21.5 21.8 22 23.4 25.6 29.9 40.1 46.9 54.9 66.6 80.9 90.4 95.4 101.9 117.2 130.3 139.3 153.2 160.1 172.4 182.9 196.4 208.4 216.9 222.4 225.3 224.9 224.3 216.7 216.3 220.6 228.1 225.7 233.4 241.1 248.7 255.2 264.4 270.5 284.8 301.4 322.6 332.5 335.7 331.4 326.1 325.4 324 317.6 308.4 304.1 303.6 299.8 298 298.2 295.8 293.3 293.4 293.7 288.4 284.2 280.7 274.7 267.3 269.2 275.5 279.2 275.4 267.7 278.2 284.2 290.2 293.6 293.7 292.4 291.8 296.3 295.4 288.8 287.1 285.7 283.8 282.3 284 285.2 284.6 282 279.5 275.9 281.4 289.9 298.8 306.1 310 315.7 319.4 321.4 323.7 324.2 324.3 322.6 317.9 312.5 308.1 304.7 304.3 302.1 296 293.8 296.4 300.2 299.4 297.6 294.9 292.1 289 284.2 274 263.8 253.4 242.9 235.7 233.7 238.3 245.1 254 256.6 266.1 271.3 275.2 278.4 281 284.7 289.6 293.1 293.5 293.4 295.4 304.2 304.4 306.2 308.5 309.2 310 312.4 310.3 306.5 304.9 304 300.5 294.4 297.7 296.7 295.9 291.8 288.3 282.4 280.1 277.2 270.6 266.7 269.1 271.2 269.1 261 256.3 245.4 238.7 259.2 275.1 281.9 285.9 289.1 290.3 289.9 289.7 285.6 281.3 283.7 281.5 280.1 279.7 277.1 274.7 267.1 262.4 259.1 261.3 263.3 267.6 279.4 288.4 293.3 294.1 292.7 289.7 287.2
21.4 21.5 21.8 21.8 22.1 22.3 23 25.1 30.7 38.8 47.1 55.5 71.5 86.7 94.2 96.8 106.7 119.8 130.4 142.9 151.7 162.6 177 188.1 197.4 207.3 213.7 218.5 221 218.3 217.6 210.5 210.3 215.9 216.9 227.1 234.8 242.5 251.6 258.9 270.9 276.1 294.4 311.6 331.6 336.5 339 332.5 326.2 323.6 320.7 314.6 307.5 305.1 304.3 301.6 301.3 299.3 295.3 293.8 293.2 292.1 286.6 281.3 273.9 274.9 280.7 277.4 277.2 281.4 282.9 275.7 272 277 283.3 288.7 291.8 292.8 291.7 296.5 296.2 289.6 286 285.2 284.9 285.3 285.2 288.6 288.9 285.9 283.3 278.6 278.3 289.2 296.4 304.8 309.9 316.5 321.9 323.1 325.6 327.5 328.4 327.1 323.4 315.8 308.7 305.8 305.7 299 295.2 294.8 299.4 300.6 298.7 298.2 294.6 290.5 288.5 286.1 279.6 269 259.1 246.8 239.3 233.4 236.2 239.1 245.3 253 262.2 267.9 277.1 279.8 283.7 288.1 292 295.8 298.4 299 296.2 300.5 305.8 308.5 308.9 311 311.8 312 309 307 306 304.8 302.7 297.3 299.8 299.7 299.7 295.3 292.5 289.2 284.5 281.5 275.7 271.9 275.3 276.7 275.8 269.8 262.9 255 243.3 257.9 272.6 278.8 284.8 290.8 292.8 291.2 290.2 288.4 279 278 278.7 276.4 274.4 271.5 265.9 261.2 257.5 255 260.4 262.5 260.7 271.4 281.9 285.1 285.2 283.6 280.4 278.6
25.9 21.8 21.8 22.2 22.4 22.7 23.3 25.1 31.1 38.8 45.7 56.2 76.9 91.6 97.4 101.3 112.2 122.9 132.6 143.8 152.5 165.2 177.5 189.6 197.7 205.1 209.6 214 216.3 212.5 209 204.2 202.3 206.6 215.7 227.6 235.4 242.8 253 263.2 275.5 281.7 303.8 320.7 332.3 336.6 336.8 331.1 325.4 321.8 318.3 311.8 308.3 305.4 306.1 304.7 303.1 299.7 295.2 294.9 291.8 288.3 284.6 282 272.3 281.2 284.7 280.7 280.1 281 282.9 278.1 279.8 274.9 277 281.7 284.3 287.5 287.8 292 297.8 291.9 287.8 289.9 288 287.5 286.6 292.3 293.3 291.5 287 282 278 285.6 294.3 305.1 310.3 318.4 323.8 327.5 330.3 331.9 332.6 331.4 327.2 320 308.1 304.2 303.4 301.7 297.3 294.9 301.5 303.4 296.4 295.3 295.4 292.9 288.9 289.2 279.9 273.4 262.7 249.9 240.3 235 236.2 240.9 247 254.5 264 269.6 275.4 279 284.5 289.8 297 304.2 307 304 299.3 302.6 308.5 310.8 311.4 309.9 311.3 312 308.1 307.4 308.2 306.1 304.9 300.9 300.6 301.3 300.5 296.3 295.9 294 291.3 287 281 275.9 281.9 283 280.7 276 269 261.7 251.7 257.7 271 277 286.3 292.8 292.7 289.6 289.7 285.9 280.4 274.3 273.8 271.7 270 267.8 263.6 259.7 256.3 254.3 256.7 258.1 255.5 264.3 273.5 280.3 280.4 280.2 278 274.3
