ncols 200
nrows 82
xllcorner 290000
yllcorner 323400
cellsize 50
375.9 370.6 363.6 359.6 338.9 348.3 354.7 362.4 370.7 379.8 386.3 390.4 391.3 388.4 382.1 376.6 368.6 371.2 379 384 387.6 391.8 395.9 400.7 406.1 409.6 412.6 414.3 414.4 416.5 415.2 413.1 415.1 421.4 425.8 428 428.1 424.6 434.4 445.9 454.1 463.2 469.1 477.1 488.1 500.9 512.9 524.9 534.9 542.1 547.4 551.9 556.1 560.4 561 560.2 556.4 558.5 564.1 567.7 571.3 575.7 580.9 585 589.7 595.2 598.1 598.2 599 602 605.1 611.7 619.5 621.6 617.9 608.4 598.6 586.3 575.2 564.8 553.8 543.7 532.9 524.2 516.1 508.4 501.7 496.1 491.4 486 479 491.7 504.2 514.5 526 537.8 551 564.9 577.2 585.1 589.9 593.3 593 588.7 579 567.6 551.1 538.2 543.6 547.2 551.9 561.1 569.5 575.4 581.1 581.6 576.8 572 564.7 558.8 553.3 551.2 548.2 545 544.3 552.2 558.8 563.3 575.3 588.2 600 607.2 611.6 611.2 608.4 602.1 593.7 581.4 572.1 565.1 563.6 563.7 563.9 564 567 568.6 572.2 587.1 595.7 598.8 600.2 594.4 589.2 584.4 573 566.7 563 557.7 551.4 555.5 559.4 563.2 567.6 566.6 572.5 579.6 585.7 590 597 605.3 611.4 618 619.8 620.3 622.3 627.6 627.8 626.6 624.7 623.3 623 614.9 609.2 602.4 591.6 584.3 578.1 567.6 556.2 550.8 543.2 532.8 521.6 515 515.1 513.6 511.2 504.9 508.2 500.7
382.1 376 371.4 367.8 362.5 342.1 347.4 353 359.7 365.4 371 375.1 376.3 375.6 369.9 364 371.8 376.6 380.8 384.6 390 395.2 399.7 406.4 410.7 413.9 417.1 419.8 421.3 422.6 422.6 418.2 419.9 427.5 434.7 437.7 439.3 430.8 433.4 445.5 454.3 463.9 473.3 483 496.2 507.7 519.7 531.8 541.4 547.7 553.3 557.7 561.5 564.8 566 566.5 566.7 566 569.4 572.2 576.7 581.8 587.2 592.1 596.7 598.8 600.4 599.9 599.5 601.6 602.8 605.7 612.3 610.6 606.3 596.3 587 575.3 563.3 552.2 541.7 533.6 525.1 517.9 510 503.1 498.1 494 490.2 485.8 485.7 493.4 503.1 516.1 528.6 541.1 555.3 568.1 577.8 585.7 591.1 594.2 593.3 586.8 574.8 563 547.2 533.8 538.4 541.3 546.8 555.6 562.2 569.2 575.9 574.9 570.2 564.9 558.1 553 548.7 548.2 545.5 541.7 544 552.3 558.5 566.1 578.7 588.1 599.6 604.9 607.8 606.8 601.3 594.8 586.4 574.5 564 558.5 558.3 558.8 559.4 560.8 563.3 565.1 568.3 582.2 591.8 596.7 596.5 592.5 588.8 587.6 575.8 565 556 551.7 549.2 553.3 556.5 560.3 562.1 563.5 569.6 576.7 582.8 589.1 597.4 605.2 611.2 615.5 616.8 616.1 618.7 622.4 622.5 621.5 622 621.2 617.7 613.6 608.9 603.7 595.2 587.4 585.3 578.1 564.7 554.4 546.2 536.8 529 520.4 520.7 518.4 516.6 512.7 520.2 514.7
386.8 379.7 379.9 375.5 370.8 363.7 356.5 348.8 347.2 352.5 355.8 360.3 360.8 359.7 363 367.7 374.6 378.6 382.3 386.6 393 397.9 403.3 409.7 414.7 418.9 421.7 425.7 430.6 429.4 428.7 424.4 432 436.7 444 450.6 449.3 443.3 434.9 445.6 458.4 470.8 481.3 492 502.7 515.4 527.8 538.5 547.3 553.9 558.8 563.2 566.3 569.9 571.4 571.6 571.3 572.2 571.9 574.7 579.4 583.9 590.7 595.9 600.7 602.4 601.1 600.1 599.4 599.2 597.4 598.1 599.9 598.1 590.7 581.1 572.7 562.4 551.4 541 529.8 523.9 516.6 511.4 504.4 499.3 495.1 491.8 489 487.4 489.9 495.4 504 517 530.3 543.6 556.6 567.5 577.1 583.4 590.8 595.4 593.9 583.5 570.7 557.1 541 528.9 533.1 535.6 542 548.6 554.9 563.7 568.4 565.9 562.2 556.9 551.2 547.1 545.4 545 542.7 535.3 543.3 550.7 558.7 567.4 578.5 587.2 594.4 601.5 602.7 599.9 594.3 587.6 577.9 566.3 556.4 551.9 553.5 555.5 556.4 557.7 560.1 563.8 566.5 574.1 584.4 591 590.9 588.7 586 582.6 573.6 566.4 560 548.8 548.4 551.1 553.7 556.1 558 564 569.3 574.5 580.7 588.5 596 604.8 609.4 611.9 612 610.4 611 614.4 619.4 622.9 623.3 621.2 617.4 614 610.1 607.3 602.4 591 589.6 585.2 574.8 567 551.1 545.4 543.9 538.8 526.4 525 515.4 514.2 525.2 524
390.9 386.2 385.5 381.3 377.1 370.3 368.6 362 360.8 361.3 363.1 366.5 366.8 364.9 371.7 372.3 374.7 378.6 384.3 389.2 395 401.3 408.3 413.7 419.7 424.9 428.7 432.6 438 437.5 436.6 434.5 443.5 449.6 454.4 458.6 459.1 454.7 449 450.2 461.7 474.8 488.3 500.7 511.1 521.7 533.7 544.1 553 559.5 563.6 567.3 569.6 571.7 572.2 572.3 572.9 572.2 573.3 575.3 580.6 585 589.6 596.3 600.4 602 600.6 597.5 596.2 593.7 590.8 590.3 588.7 583.5 576.5 568.4 560.9 550.2 539.7 529.5 520.2 515.3 509.9 504.7 499 495.9 492.4 489.5 488.4 488.4 491.3 497.1 503.4 516.4 530.9 545.6 557.7 567 575 581 590.3 594.6 592.3 582.4 568.9 552.3 536.1 525.6 527.2 528.4 533.8 540.3 546.9 554.5 556.5 556 553.3 548.9 545.1 542.6 541.8 541.5 540.9 533.8 540.6 548.9 557.9 566.3 574.5 583.6 588.9 595.4 596.7 593 587.5 580.5 568.9 558.8 550.4 546.5 550.3 552 553.8 555 558 562.2 568.6 579.6 585.6 588.2 587.1 585.4 582.1 578.9 570.7 566.2 558.6 549.4 545.5 547.8 550.4 552.9 557.3 562.6 568.2 574.3 581.2 587.4 595 601.1 605.3 607.5 605.6 603.6 603.1 608.4 614.6 620.8 624 622.6 621.7 617.9 613.8 608.4 604.1 596 594.1 589.9 578.1 572.2 559.5 553 548.1 540.7 529.9 526 519.2 517 523.9 527.4
394.6 392.4 391.7 387.9 380.4 379.5 376.1 370.5 370.7 370.5 369 372.5 373.6 372.5 373.2 375.3 377.4 380.6 386 391.8 398 405 413.4 421.2 426.8 432.6 437.6 442.4 445.6 447.8 448.5 442.4 452.3 458.8 463.9 467.8 468.2 465 461.3 451.6 462.3 477.1 491.2 505.5 518.6 528.1 538.3 547.5 555.6 562.1 566.8 569.6 569.6 571.2 571.6 572.4 572.4 571 572.2 573.9 577.5 581.7 587.2 592.5 596.4 598.1 595.5 591.9 590.8 587 583.3 580.6 577.6 572 564.4 558.3 549.3 538 526.7 519.3 511.8 506.1 503.7 498.3 494.3 492 490 488.3 487.3 487.9 491.7 495.8 504.2 517.1 530 545.4 557.9 567.3 573.3 581.4 588.9 592.6 590.4 580 567 552.4 537.1 525.2 521.4 523.8 527.6 532.9 538.7 543.4 546.9 546.4 543.8 541.2 540.3 538.7 538.5 538.1 537.6 532.9 539.3 547 554.8 562.4 570.9 577 583.8 590.1 590.2 586.2 580.2 574 563.1 552.8 544.3 543.3 545.5 548.8 550.4 552.6 556.3 560.8 567.3 577.9 587.4 591.3 590.9 588.3 583.7 577.3 573 567 554.8 547.7 541.5 546.5 550.3 552.7 556.8 562 568.3 574.2 582.7 588.9 593.5 595.5 596.2 597.2 597.4 595.9 597 601.8 609.6 616.9 622.2 623.2 622.1 620.5 616.8 610.9 605.5 599.1 596.4 590.8 583.9 573.1 564.3 563 548.7 541.5 534.4 528.8 525.2 522.1 525.4 527.8
396.1 395.1 394.3 391 388.1 386.8 384.4 381.1 381 379.4 377.1 379.9 380.8 381.4 380.1 380.6 382.8 384.4 389.5 394.9 401 408.5 418.5 427.9 434.2 439.1 445 451.2 455 457.3 457.4 453.1 461.5 467.6 473.1 475.3 474.9 475.4 469.9 473.9 462.8 477.8 493.1 510.9 523.8 533.8 543.6 552.4 559.3 564.2 568.1 569.9 569.6 569.6 570.2 570 569 568.6 569 570.4 573.6 578.1 582.7 587.1 591.3 593.1 589.6 586 583.8 579.9 578 574.7 570.6 562 555.9 548.3 538.6 526.1 518.1 510.8 504.2 499.6 495.7 493.7 490.8 488.5 487.3 485.7 485.2 486.9 491.2 495.5 505.2 518.6 533 545.7 556.9 565.2 571.4 580.8 588.1 592 587.6 576.6 565.4 552.8 541 527.8 516.2 518.7 521.9 528.6 534.3 539.8 540.9 539.7 537.3 536.7 536.1 535.2 535 534.9 525.8 534.1 539.9 547.9 554.8 559.2 566.9 572.1 580.6 584.7 583.3 579.4 573.8 569.3 557.9 545.8 539.5 538.5 542.4 544.9 547.9 550.6 554.3 558.6 564.1 574.5 586.9 592.9 593.5 590.4 585.7 580.8 574.5 561.1 552.4 544 539.3 545 548.7 550.9 555.4 560.8 568.5 576.5 584.3 589.6 592.9 589.3 588 587.3 588.5 590.4 594.1 598.3 604.9 612.8 619.1 620.2 621.8 621.2 619.3 613.7 607.1 600.7 598.1 590.1 585.4 578.3 567.5 563.4 549.6 547 534 532.8 529.5 526.4 528.4 529.2
397.2 398.5 399.4 397.8 395.6 393.7 393.8 392.2 389.8 388.3 387.5 389.4 388.7 387 386.2 385.8 388.3 390.3 393.1 399 406.5 413.3 423.1 432.4 439.7 447.8 453.1 460.7 465 467.7 468.4 468.3 470.2 476.8 482.9 484.7 484.3 484.6 477.6 481.2 474.2 475.2 491.4 512.2 528.5 540.4 550 557.1 563 567.2 570.2 571.3 570.6 567.4 567.8 567.7 565.8 564.3 564.5 564.9 567.9 571.5 576.1 580.8 583.5 585.4 582.2 579.8 577.2 575 573 571.9 568.3 561.2 546.8 536.6 527.1 516.3 510.2 504.2 498.7 496.1 492.3 488.9 486.9 486.2 485.1 483.6 482.5 484.2 489.1 494.2 504.6 518.4 532.2 545.5 555.6 563.8 572 581.4 589.5 591.1 585.3 575.8 564.6 554.3 542.8 530 516 511.6 514.9 520.8 528.6 536.1 539.8 539.2 537.7 534.6 533.1 531.8 531.5 530.5 519.7 534.2 539.2 546.9 553.6 558.1 562.5 568.4 576.8 578.2 575.9 572.3 570 564.3 551.2 541.4 536 532.8 538.4 542.7 545.2 548.7 552.8 557.3 563.1 574.5 588 593 594.8 592.9 587.5 582.6 574.5 560.6 551 546.6 538.6 540.7 545.3 547.4 550.9 556.7 566.3 576 580.1 582.5 584.9 582.4 582.8 582.1 583.2 585.7 591 597.3 601.8 609.3 615.7 619.3 620.7 620.8 618.6 614.3 606.9 602.7 599.6 591.7 587.9 582.4 572.5 566.7 554.9 549 542.3 537.3 534.1 534.1 535.8 533.4
394.4 399.2 403.3 404.4 402.5 400.9 402.5 401.7 401.4 399.9 398.4 399.3 397.1 393.9 391.8 393.4 395.8 400 401.8 406.2 412.6 420.7 428.9 437.8 448.4 457.9 464.2 470.3 475.1 477.8 478.7 481.5 480.3 486.4 491.9 492.6 492.9 493.3 488.9 490.7 490.7 476.4 489.9 508.7 527.3 542.1 554 562.6 565.6 567.2 569.1 569.7 568.9 566.1 565.1 564.7 562 560.6 559 558.3 561.2 564.5 567.8 571.6 574.3 577 574.1 573 571.3 570.3 568.9 568.3 566.5 559.1 550 538.9 524.1 514.2 507.8 505.1 502.6 499.2 493.8 490.2 488.4 487.1 485.8 485.3 481.1 479.8 485.6 491.3 504.4 519.8 533.1 546.5 555.8 564 572.5 581.1 587.5 587.9 581.6 573 563.4 555.1 544.4 531.9 518.3 505.8 508.9 513 519 528.1 536.2 539.1 536.5 533.9 530 528 527.2 516.8 529 533.2 539.6 546.8 552.9 557.8 562.4 566.8 574 575.2 574.4 567.8 561.8 553.8 543 534.9 530.1 529.9 536.7 540.1 543.1 547.4 552 556.8 563.3 573.9 586.2 592.5 594.7 595.2 589.4 584.8 573.9 558.2 553.2 546.1 536.9 539.3 541.9 543.3 546.2 553.2 562.2 570.7 573.9 574.3 574.5 573.9 575.3 575.3 577.8 580.9 585.4 591.9 596.6 603.4 612 617.2 619 619.8 619.7 615.3 609.8 606.2 603.3 598.5 590.2 582.7 576.1 569.4 562 556.4 553.3 550.5 542.7 544.5 544.6 544.8
389.3 395.7 402.3 406.9 408 409.3 411.1 411.9 411.4 410.3 410 408.6 405.6 402.2 400.3 402 407.2 411 415.2 418 423.4 429.9 438 447.6 459.4 467.8 474.1 480.5 485.2 488 488.8 491.1 493.8 495.9 499.4 500.3 500.4 500.6 499.3 500.8 503 493.4 491.4 507 522.6 535.5 551.2 564 565.7 565.9 567.1 567.4 566.2 563.6 562.5 560.3 558.6 556.6 554.9 552.8 554.7 558 561 563.7 565.5 567.8 567.3 565.7 565.1 566.1 566.6 567.1 565.1 557.8 549.5 537.2 522.8 515.8 510.9 508.4 504.5 500.2 494.5 492.2 491.8 490.8 490.3 490.7 487.3 482.5 479.5 488.6 504.2 518.5 532 544.2 554 565.6 574.1 580.2 584.2 583.8 579.8 570.6 562.7 555.9 545.4 533.9 521.9 508.5 502.9 505.6 510.7 522 532.5 533.6 532.6 529.9 526.1 515.5 519.4 520.7 527 531.7 539.4 549.3 554.9 559.9 564.8 567.4 572.9 573.6 570.5 564.2 554.7 544 531.6 526.9 522.2 528.6 533.5 537.7 542.2 547.3 552.6 560.3 568.6 577.6 586.1 593.2 595.1 595.7 591.2 586.8 576.1 558.9 549.2 542.1 534.9 537.1 537.9 539.3 542 548 555.1 563 568.8 568.6 566.4 565.9 566.9 567.8 569.1 572.4 577.4 583.3 589.1 595.6 603.3 609.2 614 615.7 618.1 616.8 612.2 607.6 604.5 599.8 591.8 585.4 578 572.6 568.4 564 559.9 556.8 550.6 551.6 551.3 550.9
381.6 392 400.2 406.3 410.4 414 418.4 419 419.8 419.3 418.3 416.3 413.8 410.1 410.8 411.8 416.3 421.4 426 433.3 436.5 442.8 451.1 459.8 469 478.1 483.8 489.2 494.2 497 498.4 500.3 501.2 503.2 504.4 505.1 504.9 506.5 508.2 510.5 513.8 513.5 514 514.1 521.4 535.8 545 553.5 559.1 563.3 564.8 564.6 562.7 561.3 559 556 554.8 552.8 550.9 549 546.6 549.3 553.1 555.2 557.6 559.4 557.9 558.2 554.6 562.1 566.1 566.1 561 553.6 544.8 534.2 523.5 516 512.7 509.7 506.1 502.2 497.5 495.6 495.7 494.2 493.7 493.5 491 485.8 473.4 484.9 501.4 516.3 529.2 539.6 550.7 561.7 570.4 576.7 580.2 580 576.9 569.4 563 554.2 545.7 536.3 523.6 510.8 501.2 501.7 504.2 514.5 526.2 526.8 525.9 523.4 518.4 501.9 505.2 518.6 525 533.4 544.2 551 555.5 560.6 565.5 569.1 572.7 571.9 566.4 558.2 549.4 536.6 528.1 521.7 517.8 527.2 531.5 536 540.4 546.8 557.1 565.5 573.4 584.2 592.7 595.6 596.6 595.4 593.4 587.9 577.1 565.1 552.7 542.3 536.8 531.9 533.5 535.3 537.3 541.5 548.3 555 560.6 562.2 559.8 559.9 561 560.7 562.3 566.5 571.7 578.5 585 588.9 595 601.2 607.6 610.7 611.5 614.7 611.8 607.4 602.3 597.1 591.1 586.5 579.8 575.3 570.9 567.8 563.9 560.8 557.9 557.3 556.3 555.1
366.3 383.4 392.7 402 409.8 415.2 421.4 426 426.6 425.9 425.3 424.5 422 419 418.3 418.7 423.2 428.9 438.5 444.5 451.5 458.5 465.8 474.2 481.1 487.4 494.5 498.8 501.6 503.3 503.8 504.4 506 507.1 508.1 509.2 509.8 511.9 514.6 520.4 523.4 527 531 535.2 540.5 549.4 557.5 562.5 563.9 561.6 563.5 561.4 559.4 558.8 556.7 553.1 552 549.9 547.8 545.8 542 540.9 544.2 546.5 548.9 549.3 548.9 545.5 546.8 557.5 564.4 561.3 554.8 547.2 537.7 529.7 521.7 518.4 515.3 512.3 508.2 503.9 502.8 503 505.3 501.9 498 496.7 493.9 487.2 478.8 479.6 495.1 510.6 523.9 533.7 545.4 554 564.2 569.3 572.4 571.8 570.4 567.2 562.1 552.6 543.8 534.8 523.7 512.5 501.5 497.3 497.8 501.2 511 512.8 514.4 514.1 492.9 509.7 515.3 519.3 525.8 537.3 547.3 553.6 558.5 564.5 568.3 570 571 567.4 560.7 551.7 540.9 528.5 524.3 512 520.8 525 528.2 531.7 537 545.8 557.7 570.9 578.2 588.2 599.2 601.9 600.2 598.1 596 587.8 578.3 570.2 558.4 546.9 536.9 532.2 530.9 531.5 532.6 535 541.5 548.6 552.9 555 554.4 555.1 555.5 553.7 555.7 560.6 566.5 573 577.5 583.2 589.4 595 601.8 603 605.5 609.2 607.8 604.9 601.5 599 595.8 587.9 582.9 574.7 571.4 568.7 566.3 563.3 560.9 560.5 559.8 557.5
355.1 366.9 382.9 393.4 404 414.4 424.2 430.1 432.3 432 431.2 433.1 431.2 427.8 426.7 428.7 431.8 438.6 449 457.8 464.2 471.7 479.7 487.3 494.6 499.8 506.1 506.4 507.3 506.7 506.8 506.2 508.2 510.1 510.8 512.5 514.2 516.3 521.8 527.6 532.6 538.9 545.8 551.4 556.6 561.6 565.3 568.1 568.8 564 561 558.6 556.2 557.1 554 552.3 549.3 547.1 545 541.9 538.7 534.3 535 537.1 539.5 541.4 541.1 538.4 543.8 552.7 559.2 555.5 546.9 539.4 533.1 525.5 521.2 518.6 515.5 512.9 509.9 508.2 510 511.7 513.7 512.1 507.8 503.4 497.8 488.3 481.9 470.5 486.2 501.5 513.6 525.4 534.8 546.5 556 561.5 567.2 568.2 566.9 563.9 559.4 550.5 541 530.6 521.7 511.8 503.5 501.2 497.4 481 492.2 498.2 504.1 505.4 495.7 508.3 513.7 520.1 527.4 540.5 549.7 557 564.8 568.8 571.6 572.4 568.5 561.8 552.8 543.2 531.2 523.9 520.9 510.6 518.5 522.6 525.4 528.3 533.7 542.5 554.5 566.2 576.5 587.2 600 606.5 604.1 602.6 601.4 593.5 587.6 578.8 569.2 554.1 538 535.1 528.5 527.4 528.3 530 533.8 541.5 546.1 547.3 547.6 548.3 548.7 548.1 550.7 554.8 559.7 567 570.7 575.6 581.5 586.8 591.6 594.3 597.5 600.5 603.7 606 606.5 604.6 600.9 594.9 588.3 577.5 571.3 569 566.5 564.4 560.8 558.9 557 554.3
338.5 350.1 363.9 381.8 399.2 410.5 424.3 431.6 436 436.5 437.8 439.3 436.4 434.4 433.5 436.8 440.5 447.6 458.6 467.1 473 482.2 490.5 498.9 505.5 509.3 512 511.3 510.1 510.1 508.3 508.1 508.6 509.6 511.1 513.5 515.1 519.8 528.5 534.1 541.7 550 557.5 563.6 568.2 570.8 571.9 570.9 569.3 565.8 560.9 555.6 553 551.6 549.9 548.1 545.3 543.4 540.2 537.2 534.2 530.4 524.4 529.2 532.3 532.6 533.9 532 536.7 544.5 545.2 541.1 537.6 532.6 526.3 520.4 518.8 517.4 514.5 512.9 512.7 513.8 516.1 518.5 521.3 521 517.4 512.4 502 492.5 484 470.6 474.3 489.5 502.8 515.8 526.5 538.8 547.6 554.1 560.6 563.5 562.9 560.9 553.3 544.5 534.8 526.2 519.2 511.4 504.9 499.9 495.8 483.2 475.4 487.4 493.3 489.2 489.4 506.5 511.9 522.6 533.9 546.7 555.6 561.8 566.9 570.4 573.3 571.7 566.5 559.1 548.9 537 524.6 519.8 514.4 509.3 515.7 519 522 525.2 534 544.9 555.2 561.6 572 588.6 600.1 607.7 605.1 604.1 602.3 597.7 592.5 585.4 577.5 564.9 547.2 533.4 532 528.1 523.3 524.5 526.5 531.9 539 538.8 540.1 544.5 544.2 544.1 547.8 549 552 557.7 562.7 567.4 571.3 577.9 581.9 586.5 591.7 597.2 600 603.8 604.1 604.5 601.3 598.9 593.8 585.3 578.5 571.4 565.5 562.6 557.4 553.7 551.6 546.9
317.2 333.4 347.3 364 384.8 402.6 421.1 429 437.5 442 444.3 442.8 440.5 439.6 439.6 442.6 446.8 454.3 462.8 471.4 480 489.1 498.5 506.3 509 511.2 511.8 511.2 508.9 506.7 505.5 504.9 505.8 507.8 509.3 512.7 517 523.6 532.3 539.7 549.4 559.9 567.1 573.8 578.8 578.2 575.5 573.9 571.8 567.9 562.6 554.2 549.4 545.5 542.8 541.2 538.4 536.1 535.1 533.6 530.6 527.5 523.9 517.8 524.8 524.6 525.7 525 532.3 536.8 535.6 530.8 528 524.9 520.8 516.3 515.5 514.5 513.7 513.4 513 516.8 520.3 523.4 525.7 526.7 524 519.2 507.6 496.4 486.4 474.4 467.1 479.6 495.1 510.1 521.7 532.5 539.6 547.9 555 559.1 557.7 553.8 546.6 539.1 532 525.2 518.5 511.5 504.5 497.5 490.1 481.2 464.2 473.4 472.7 483.8 493.5 502.7 514.9 525.7 539.6 552.1 558.8 564.6 569.6 571.8 572.4 567.9 562 553.8 542.1 529.4 520.8 514.6 506 506.4 512.4 515.3 518.6 522.2 529.3 540.3 548.6 556.4 571.8 583.8 593.4 602.8 603.3 603.3 602.8 602 595.4 589.9 581.8 570.2 556.8 537.5 527 525.9 525.4 521.1 519.6 523.9 528.4 530.7 533.5 537.9 541 539.5 542.2 543.9 546.8 549.6 553.4 558.5 564.5 570.9 574.8 580.7 586.8 593.6 596.1 599.3 603.3 603.3 600.8 597.6 593.7 587.7 580.2 573.6 566.3 561.9 555 548.3 543.3 537.6
298.8 313.1 329.1 346.5 370 393 414.2 425.5 436.8 443.4 447.3 443.5 442.1 442.7 443.7 448.3 451.2 457.8 465.9 473.6 483.7 492.8 501 505.2 508 509.9 507.5 504.7 502.8 501.1 500.9 500.7 501.4 502.8 506.7 510.9 517.9 526.5 536.2 544.4 555.3 565.4 574.1 583 585.7 585.4 580.9 578.2 575.7 571.2 565.8 558.2 550.1 545.9 541.3 537 533.5 532.6 531.2 529.9 526.8 524.6 520.9 518 511 514 518.8 519.3 522.3 527.2 527.7 522.4 519.8 515.8 513.7 511.7 511.2 511.5 511 510.8 513.6 518.6 523.1 526.6 528.9 529.8 528.2 523.4 513.4 498.6 487.9 475.6 465 470.6 489.9 505.8 518.1 528.2 534.8 543.3 550.5 556.4 554.8 547.1 539.8 535.1 531.8 525.3 518.1 510.4 503.3 491.4 481.2 470.7 453.4 464.4 476.4 488 498.3 509.3 521 530.9 542.9 553.9 562 566.5 569.6 571.2 569.2 562.7 554.6 544 531.3 519.4 514.5 507.3 496.9 506 509.1 512.1 515.7 519.2 524.4 531.7 539.6 555.4 569.4 578.1 588.7 596.2 600.6 606.1 608.7 602.8 596.5 590.7 583.5 573.7 561.1 545.7 530.1 526.4 527.3 524.7 515.1 517.6 520.7 523 526.9 530.6 533.4 533.6 535.4 539.1 542.3 545.3 549.7 554.9 559.6 564.4 569.5 574.4 581.5 589.6 592 596.5 603.6 605.9 606 602.1 594.9 586.8 581.1 573.6 564.8 554.8 545.5 542.4 539.2 534.2
284.7 295.3 307.5 325.1 350.1 378.4 401.7 418.3 432.9 441.8 444.2 442 441.9 442 444.5 448.7 452.8 458.7 465.4 475.4 484.1 493.3 500.3 500.7 498.6 496.6 493.4 491.2 489.1 490.8 489.7 491.7 492.1 494.5 500 508.6 518.2 529.3 537.9 547.8 559.1 568.9 577.1 584.4 589.9 590.6 589.5 583.9 579.8 576.1 570.8 565.2 557.7 551.9 547.1 545 541.7 537.6 533.9 535.1 531.3 519.1 520.3 516.1 515.5 498.4 500.9 504.7 512.3 515.4 517.5 513.4 512.2 510.4 508.4 506.9 506.9 507.7 506.9 509.2 514.3 519.2 524.5 527.5 529.4 530.2 527.6 523.2 516.4 502.5 486.3 475.4 465 465.6 481.6 499.1 512.9 521.7 529.9 538.3 547.2 552.4 547.6 541.2 535.2 532.6 530.7 524.8 517.7 508.2 497.1 483.4 469.5 455.9 459.3 475.4 488 495.9 507.8 516.8 528.1 539.8 547.8 556.1 562.3 565.8 567.3 567 563.2 556.2 545.5 533.6 520.4 505.5 498 492.2 483.7 501.9 505.5 509.7 513 516.6 518.4 525 537.7 553.8 566 574.3 583.2 590 598.5 608.2 611.8 607.2 601.3 591.9 583.7 574.5 564.6 553.2 538.2 529.8 528.2 524.4 518 511.2 513.8 517.5 520.7 524.5 528.2 526.7 529.2 533.3 536.8 540.3 546 551.5 557.7 561.7 566.2 570.7 578.1 583.6 588.3 593.2 601.4 605.7 607.8 605.4 600.2 592.1 577.5 567.8 555.1 544 540.5 537.4 533.3 525.1
274.7 283.8 293.9 307.9 326.9 353.1 382.2 407.1 425 435.5 437.7 438.3 439.9 441.1 444.2 445.3 450.6 456.9 462.9 471 478.3 484.5 487.1 486.5 482.8 479.7 476.7 475.7 475.8 475.8 475.4 477 477.8 478.9 492.8 506.6 520.2 529.3 539.9 550.2 560.9 570.3 578.5 585.8 589.7 591.4 592.3 588.3 582.5 579 572.2 567.5 563.1 558.7 555.5 552.6 551.7 548.6 544.4 541.9 536.7 529.8 529.9 528.2 525.5 516.2 505.6 492.5 496.1 504.6 506.8 505.7 505.1 504.9 502.9 501.9 501.2 502 503 506.3 513.3 518.5 523.1 525.8 528.2 528.2 524.7 520.3 515.3 502.6 486.8 474.5 464.6 462 474.6 493.2 505.8 515.2 524.4 534 542.6 543.7 538.3 535 533.7 531.6 529.6 520.8 513.1 501.3 487.1 471.6 455.7 451.3 471.1 488.4 500.3 510.5 516.2 524.9 534.7 545.8 553.2 560.4 563.8 565.8 566.5 562.3 554.3 543.5 530.4 514.1 499.5 481.4 468.4 466.2 494.9 500.1 499.7 505.8 510.5 514.4 516.9 520.7 532.1 546.6 559.2 568.7 580.1 589.2 602.2 611.8 611.5 608.3 603 594.6 584.9 573.6 563.5 553.7 540.6 534.5 532.2 527.4 517.9 511.5 507.5 512.5 514.8 516.8 520.4 520.9 523.2 527.1 531.1 535 538.9 543.4 550.1 556.4 561.8 566.4 571.5 577.4 581.5 586 594.5 602.7 608.1 608.5 602.2 594.9 579.4 567.4 552.8 542.3 531.9 531 523 515.9
270.6 276.9 283.6 294.3 310 330.3 354.6 385.7 410.9 424.6 425.8 428.8 431.7 436 440.3 441.4 447.2 451.1 456.2 462.9 465.7 469.1 468.2 466.5 464.2 462.7 462.7 458.1 455.8 452.2 451.4 452.1 455.1 464 484.8 503.4 517.6 529.7 541.6 550.9 561.1 570.3 578.5 586.7 590.8 591.5 592 590.2 584.1 580.9 576.1 571.1 566.2 562.6 562 560 556.8 554.2 551.4 547 541.5 539.4 536.7 533 527.3 521.4 516.2 510.4 495.5 485.2 492 494.4 496.9 497.5 497 496 496.7 495.5 497.1 502.4 509.3 515.1 518.3 523.2 525.3 523.4 519.3 516.4 511.7 500.9 487.2 472.6 464.6 460.1 468.7 488.3 499 511.1 521.5 530.6 534.9 532.7 532.2 532.6 532.8 531.8 526.5 514.3 506.5 491.1 473.9 458.4 442.1 460.3 482.4 496.8 508.9 518.6 525.8 534.5 540.9 551.3 559.2 564.3 565.8 565.8 562 555.3 544.3 530.7 514 495 480.6 459.2 455.8 476.4 494.7 499.9 505.2 508.9 512.4 515.8 519.4 521.4 529.5 544 555.1 570.2 584.6 591.8 602.4 611.1 612.6 610 603 597 587.7 573.6 558.6 551.3 543.5 536.4 532.9 528.5 519.9 511.3 505.6 505.4 508 512.7 517.1 515.9 517.8 521.4 525.4 530.6 534.3 539 545.9 552.3 559.2 563.7 569.1 574.9 580.7 584.6 590.6 599.7 605.2 606.9 602.3 594.1 580.8 565.9 549.4 542.6 536 527.4 519.3 510.8
275 272.9 279 285.7 295.5 313 335 362.2 389.2 404.5 411.2 414.9 421.8 425.9 432.4 435.6 439 442.5 446 448.5 449.8 448 446.3 444.4 443.5 442.1 439.8 435.8 432.1 429.5 428.4 429.5 434.7 453.6 474.9 497.2 515.3 528.9 541 549.5 559.9 569.1 577.6 585.5 588 588.5 588.1 586.8 581.7 579 576.3 574.4 570.4 567.2 564.6 560.7 559 556.8 554.9 551.6 548 544.8 541.1 537.1 530.8 526 522 516.7 506.1 496.4 488 481.7 477.9 483 485.2 487.7 491 487.4 492.4 495.9 502.4 508.2 512.3 516 518.9 516.4 514.7 513.2 508 496.4 483.4 472.6 465.7 460.2 464.7 481.9 495.5 507.7 518.1 524.9 526 527.9 528.9 529 528.9 524.8 517 505.8 492.3 477 459.9 445.1 448.5 472.4 492 504.4 515.4 525.5 533.4 540.1 547.6 555.9 563.3 566.2 566.5 563.7 553.4 547 534.5 517.2 498.5 482.7 467 443.6 465.2 485.6 497.3 503 506.8 510.3 513.8 517.1 521 526.7 535 545.6 555.7 570.2 581.2 591.4 601.4 609.7 611.6 609.1 603 595.5 585.5 573.7 562.3 554.9 544.8 535.7 531.5 528.7 520.8 513.6 509.1 501.9 502.2 504.8 511.2 510.5 511.7 516 520.4 525.4 530.4 535.9 542 548.8 555.7 563.1 568.3 574 580.9 586.7 592.6 596.7 599.4 601.9 597.9 590.7 579.2 562.5 553.4 545.4 536.6 528.2 522.9 514.8
289.8 276 275.9 282.5 288.4 302.7 321.9 341.3 366.7 381.1 393.3 400.9 408 411.9 418.6 421.3 422.9 424.9 426.9 427.7 425.7 424.1 423.6 421.4 418.8 416.7 416.5 414.8 408.1 408.9 411.8 419 428.9 448.5 467.6 486.7 508.7 525.6 537.5 546.9 557.1 565.7 575.4 581.5 582.4 582.6 581.6 581.4 578.1 576.2 574.4 571.9 568.3 566.9 563.4 559.8 558.9 558.7 556.6 553.3 549.7 546 542.4 537.5 532.7 529.2 525.9 520.7 508.1 507 499.3 493.1 483.8 474.7 474.1 481 483.3 480.3 484.9 489.4 495.9 498.8 503.1 510.8 508.4 508.3 508.9 507.7 501 489.9 479.8 474.7 467.9 458.4 459.6 474.3 491.6 505.4 516.2 519.1 522 524.6 525.5 523.4 521.9 515.2 506.2 492.5 477.3 461.6 443.3 437.4 460.5 483.1 499.7 510.9 521.6 531 538.5 546 552.8 563.2 567.2 567.8 564.9 559.2 550.2 540.1 525.5 506 487.8 473.5 448.6 449.1 476 498.4 505 509.9 512.2 513.4 517 521.6 528.1 538.8 547.8 551.1 558.8 567.9 579.3 591.8 600.4 604.7 604.4 603 600.8 593 585 573.9 563.2 553.6 543.8 532.6 531.7 526.9 521.4 514.5 508.7 504.2 498.4 500 502.3 502.4 505 509.4 515.1 520.2 526.8 531.7 542.4 549.5 555.7 561.2 565.9 572.6 580.3 586.7 592.9 596.2 596 596.6 592.3 587.4 582.4 571.1 559.3 546.1 539.2 534.8 528.9 525.1
301.7 289.5 276.7 277.2 282.2 296.9 309 324.3 344.5 360.5 371.9 383.7 391.9 397.5 400.1 402.5 403.5 402.8 401.6 401.7 402.1 402.1 401.5 400.2 400.5 398.5 398.3 400.7 409.1 417.8 426.7 438.7 436 448 468.4 485 499.6 515.8 529.9 542.6 552.7 560.7 568.1 571.6 573.5 574.9 574.8 575.5 575.3 573.5 570.6 567.8 565.6 565 562.9 558.7 556.8 557.5 555 550.9 547.5 544.1 541.1 537.1 533.9 530.7 527.8 524.4 518.9 516.1 511.1 503.4 493.9 482.9 475.3 469 473.3 474.7 476.6 481.4 486.6 489.2 497 500.5 499.6 502 502.5 500.8 493.9 483.2 477.1 474.1 466.1 456.2 461 469.6 487.1 500.1 509.8 514.3 519.9 521.9 521.9 514.7 510.4 503.4 491.3 475.6 460.2 445.5 429.1 452.3 474.7 493.9 505.6 515.5 525.2 534.5 543.2 550.2 559.4 566.6 568.6 567.9 564.8 556.1 543.3 531.9 514.9 497.5 479.2 456.8 436.6 461.2 486.8 505.7 512.3 514.7 516.1 517.5 522.3 531.1 539.4 547.2 556.1 561 565 572.4 581.7 594.6 603.2 606.2 604.6 599.8 596.8 592.3 583.5 571.2 559 549.8 539.9 530.7 527.4 524.8 520.1 514.8 507.4 503.5 498.2 495.5 494.5 493.5 499.1 503.8 509.5 516.4 523.9 529.2 537.3 546.1 552.2 559.1 562.9 569 576.7 583.1 588 590.1 592 594.4 592.2 586 576.6 570 562.3 554.8 547.7 542.5 538.7 537.3
317.7 303.9 288.1 285 283.5 289 301 314.8 327.7 342.2 354.2 364.3 372.7 379.9 381.9 383 382.4 383 382.4 384.2 382.7 383.4 383.7 385.1 389.9 397.2 400.9 408.2 420 431.8 446.8 461.1 467.1 465.5 474 488.4 506.3 509.5 521.3 540.3 548.4 553.8 562.2 566.3 566.7 566.8 566.6 569.3 568.4 565.6 564.6 562.8 560.4 560.3 560.1 558.8 555.9 551.7 550.6 546.7 544.2 542.6 539.8 537.3 534.8 532.2 529.1 526.4 524.1 521 518 513.2 505.8 496.7 489.1 478.9 470.6 465.7 468.3 472.6 474.9 481.2 487.2 490.1 492.8 494.2 495 493.2 486.6 476.3 471.3 466.6 460.9 452 455.6 465.2 481.1 495.5 504.4 512 517.5 517.8 515.4 504.6 496.3 488.9 473.9 457 438.9 428.2 438.1 465.9 489.2 502.8 511.3 520.4 529.3 537.6 546.1 555.2 563.5 569 570 567.8 562.7 553.3 536.9 522.6 504 488.2 465.2 435.4 442.8 471.3 496.2 510.2 516.1 519.7 521.2 522.4 527.6 538.7 546.7 552.6 561.1 566.7 576.2 582.4 588.2 594.7 601.3 601.4 600.4 600.8 596.2 587.2 576.8 565.7 555.3 546.8 537.7 534.6 529.9 526.9 520.1 514.6 507.7 503.9 501.4 499.3 496.3 491.2 494.9 500.2 505.3 512.1 520 528.6 535.6 543.1 549.7 556.9 560.9 565.8 570.4 576.1 580.3 582.3 585.3 587.6 586.4 582.5 576.8 571.7 563.6 557.8 553.8 546.2 543.1 539.7
331.9 319.3 306.6 306.8 306.4 300.7 295.9 307 318 329.7 340.9 349.9 359.8 367.2 370.3 370.6 368.2 361.5 366.5 373 376.9 381.8 388.2 394 397 404.1 413.1 422.5 436.3 451.3 466.3 481.7 493.9 497.1 498.8 508 523.5 534.3 540.9 545.9 548.2 552.3 557.7 560.2 561.7 562.6 562.4 561.9 561.5 561.2 560.2 556.7 554.1 555.2 555.9 554.8 554.6 550.4 545 543.2 540.4 540.1 537.2 534.5 532 529.7 530.1 528.4 528.5 527.1 523.9 518.9 513.4 506.2 502.3 487.8 480.5 471.5 463.6 461.7 466.5 471.5 474.1 479.6 484.3 486.7 486.8 482.7 475.6 466.9 460.6 455.9 453 446.1 450.6 461.3 476.9 490.2 500.1 508.7 512.2 511.9 508.4 497.4 473 464.4 451.9 432 415.5 432.4 457.4 480.5 499.6 508.5 517.7 525.4 533.7 542 551.1 559.1 566.1 570 569.7 565.9 558.7 546.7 533.6 517.5 493.2 472.1 451.1 424.9 450 480.1 502.8 513.8 518 521.5 525 528.3 533.6 542.8 550 554.7 564.2 570.8 580.9 588.6 596.3 597.2 596.7 596.5 597.3 598.5 592.9 580.6 570.8 563.7 557.5 553.3 548.6 544.1 537.4 532.4 522.5 515.4 509.2 504.8 501.3 498.2 494 490.1 491.3 497.1 502.1 509 515.5 524.2 532.7 541 547.8 553.9 559.3 563.7 568.3 571.4 572.6 574 575.2 574.2 575.7 575.9 574.7 571.4 566 561.5 555.4 549 546 542.8
345.4 330.9 327.3 324.3 316 307.1 301.3 298.2 308.7 319.8 331.2 340.5 350.4 353.2 353.3 352.9 360.9 374.1 380.4 385.1 388 390.7 394.9 401 406.9 417.7 428.9 441.2 455.7 470.5 485.5 502 513.6 519.6 524 527.5 539 545.7 551.7 553.9 556.5 557.7 558 558.9 559.4 558.6 558.8 558.4 555.8 555.1 550.8 546.8 546.3 548.5 548.9 548.7 547.6 546.4 541 538.4 536.9 536.9 534.7 531.7 529.1 529.9 530.3 530 531.1 532.7 529.6 524.5 518.6 514.2 506.3 498.7 486.5 481.9 476.6 467.7 458.4 461.2 464.5 466.7 470.6 475.1 473.2 468.2 461.8 456.5 451.2 446.3 442.1 434.7 444 455.1 469.2 487.1 498 504.2 505.7 503.5 497.6 488.6 466.6 438.3 426.7 410.7 428.1 451.5 471.8 492.4 505.6 513 521.3 529.9 538.1 545.7 554.2 563.4 568.2 569.9 569 563.7 555.6 540.9 528.4 505.3 485 464.1 433.7 427.5 455.1 486.7 506.5 515.9 519.7 523.7 526.5 530.2 537 546.3 552.7 557.7 566 571.3 578.6 584 590.7 592.4 596.8 595.6 596.6 594.2 586 576.1 568.9 564.8 562.6 559.2 555.3 550.3 544.3 537.5 528.4 524.5 516.2 509.2 503.1 498.4 491.9 487.8 488.9 495 499.4 503.3 508.8 517 526.5 534.3 542.2 547.5 553.4 559.9 562.6 567.5 567.5 569.5 572.1 567 564.9 568.1 570 567.5 565.3 560.2 556.2 552.1 546.4 542.7
358.4 343.2 337.5 332.4 327.4 316.2 305.5 300.4 303.1 310.7 319.6 326.6 333.9 340.4 352.2 365.7 372.8 380.5 387.7 392.3 396.3 400.8 408 413.6 421.9 434.2 447.1 459.8 473.2 489.5 505.7 521.7 531.8 537.7 541.9 543 547.3 553.6 557.7 560 561.8 562.2 562.6 558.3 554.4 551.3 550.2 551.2 546.4 541.6 538.6 537.3 537.2 539.5 540.4 542 540.6 537 534.7 533.6 533.3 533.3 531.8 528.9 528.8 529 529.3 530.2 533 534.4 531.4 526.7 521.6 516.2 510.9 506.1 499.9 492.4 485.2 471.9 467.8 455.2 454.9 453.3 456.5 460.6 458.8 455.4 450.2 446.5 441.6 437.5 434.9 424.1 437.8 448.7 464.1 479.7 490.8 495.7 499.6 496.6 490.8 473.3 450.7 425.2 405.5 419.4 439.1 463.4 482.8 499.5 506.6 514.3 523.1 532.6 542.3 548.7 556.9 563.3 566.7 568.4 567.3 561.8 551.5 535 520.6 494.6 475.3 452.8 423.7 430.9 459.7 490 507.6 515.7 519.7 524.4 527.2 530.9 537.9 544.7 552.9 558.6 564.9 570.5 574.6 581.7 585.3 586 589.1 589.5 594.1 592.3 583.4 575.6 571 567 565.6 560.6 556.9 548.4 539.9 545.8 543 537.3 528.4 516.5 508 499.2 490.8 486.7 486.3 489.5 494.5 498.8 503.1 510.6 517.9 526.8 534.4 540.1 546.3 552 555.4 560.5 561.7 563.1 562.7 559.9 558 562.1 564.8 564.4 563 559.9 555.9 552.9 548.8 544.5
366.8 355.8 348.3 341.9 335.8 328.8 313.7 302.9 301.1 303.4 310.6 319.3 334.8 346.5 357.3 367.3 376.1 385.3 393.6 401.3 408.6 414 421.4 430.2 440.1 450.9 463.6 476.8 489.5 506.9 523.9 536 542.8 550.7 555.6 555.2 555.8 558.7 561.9 563.5 565.4 565.2 564 557.5 549.2 543 541 541.8 539.9 534 531.2 528.2 528.3 530.6 532.9 533.1 532.8 529.8 528.5 529.4 529.7 529.8 527.8 526.4 526.5 527.4 527.7 528.8 532 533.9 531 526.8 522.2 517.7 514 510 505.4 500.6 493.1 483 475.1 468.2 458.2 456.6 453.1 445.1 445 445.4 440.5 436.1 432.8 428.3 426.6 416.4 425.1 436.8 451.5 469.1 478.8 484.6 486.6 485.6 478.7 460.9 435.6 408.6 408.7 425.7 446 468.8 486.9 500.4 505.3 513.6 521.8 531.6 541.5 550.2 557.2 561.1 564.7 566.5 563.6 556.4 544.2 528.4 510.1 486.1 465.1 441 414 433.5 463.4 491.2 507 514.2 518.7 522.9 525.9 530.1 536.6 542.7 547.7 552.1 563.1 568.3 570.2 575.1 578 583.7 590 589.7 593 587.5 581.3 575.5 570.7 568.5 566 561.7 559.9 557.8 556.9 552.1 546.4 538.9 528.5 516.8 508.7 500 489.7 484.7 480.6 483.1 486.6 492.2 496.9 504.4 512.2 521 527.8 532.8 540 543.3 547.4 550.8 553.6 554.1 555.5 552.7 551 553.3 558.3 559.6 561.3 558.4 555.9 553.9 551.5 549.6
383 370.7 359 349.9 342.8 335.9 323.8 311.6 302.8 301.1 307 315.2 329 342.3 355.3 367.1 378.5 389.9 400.8 410.3 419.2 428.1 436.4 444.1 455.8 466.7 478.5 491.6 506.4 522 536.4 547.5 555 560.5 562.8 562.4 561.3 560.8 565.7 567.2 568.4 567.3 563 554.1 548.2 539.6 533.7 532.1 531.3 526.8 524.2 522.3 522.6 523.4 524.6 525.2 524.7 523.1 524.3 525.2 525.6 525.7 524.7 523.7 523.3 524.3 525.2 526.7 530.3 531.4 529.7 526 521.9 519.6 517.2 514.2 510 505.5 498.6 489.5 478.5 468.2 465.9 471.1 463.9 456.9 451.6 444 435.4 424.1 418.4 414.4 415.4 408.1 410 422.1 435.6 449.7 458.3 465.4 470.8 471.2 462.9 447.6 424.6 398.1 411.2 428.6 447.6 467.8 484.5 493.2 497.9 507.7 518.3 529.1 538.6 548.5 555.6 559.6 562.9 563.4 558.5 549.2 536 522.6 497.5 477.4 453.6 428.6 411.2 437.1 465.2 490.8 504.5 513.6 517.8 521.8 524.3 528.8 535.3 540.6 547.5 550.9 555.7 559.2 562.6 565.7 573.1 579.3 580.4 585.6 586.4 584.9 579.5 577.1 571 568.7 567 566.2 565.5 564.7 560.6 555.9 548.2 542.9 532.3 522.2 508.1 500.1 490.6 485.5 483.2 480.6 481.9 487.7 490.4 495.8 508.1 515.3 521.2 526.8 533 535.9 538.1 540.2 542.8 545.6 544.5 543.7 545.1 548.3 550.4 553.4 554.2 557 557.5 556.8 553.5 549.7
401.1 385.9 370.2 358.8 349.7 342.6 333.7 321.9 310.7 303.1 303.5 309.9 320.9 335.4 353.2 367 378.7 393.7 406.2 418.7 428.6 439.1 447.6 455.2 468.1 478.2 490.9 504.8 519.8 533.2 546.1 557.6 563.1 568.8 571.4 568.5 568.1 565.9 568.1 570 567.8 565.1 559.8 551.5 541.8 535.5 531.9 527.1 522.4 520.4 519.1 517.9 517.7 518.1 517.4 517.1 516.7 517.7 519.4 520.9 521 521.5 520.5 519.9 519.5 520.4 521.8 523.5 526.4 527 526.6 524.4 522.4 521.1 519.5 516.6 512.7 508.2 501 490.9 479.1 474.6 478.3 480.3 475.6 469.7 463.6 455.4 450 443.2 429 420.2 410.2 402.5 398.5 405.5 415.6 426.2 437.5 444.4 449.8 453.8 448.5 434.9 416 392.6 411.2 428.1 444.5 462.1 475.7 484 489.8 501.3 512 523.9 533.2 544.4 552 556.7 557.7 557.3 550.3 542.3 531.4 509.9 486.1 466.5 442.1 418.2 413.8 442.8 470.1 495.6 505.3 515 518.3 521.1 522.6 525.8 529.4 535.1 542.6 549.9 553.2 554.7 554.1 555.4 561.3 563.6 571.7 581.1 581.8 580.2 577.9 577.3 577.7 572.1 571.3 569.7 568.1 566.6 562.8 556.4 548.9 543.3 537.5 528.3 513.3 505.2 494.4 485.6 482.2 481.7 477.5 482.8 487 493 501.5 507.5 514.9 522 528.6 531.8 533.1 535.9 538.7 538.4 538.5 538.5 538.9 538.6 539.9 546.6 551.7 557.1 556.7 555 552.9 550.8
413.9 398.6 382.4 369.4 357.9 350.3 342.7 331.4 315.9 304.9 302.1 304.4 310.2 324.9 343.1 362.7 377.4 396.5 410.2 424 443.4 451.4 460.5 468.2 477.1 487.3 500.8 516.6 528 541.7 554.6 564 569.8 575.9 576.4 575.4 576.2 575.1 573.8 572.9 570.4 569.2 562 553.1 541.8 538.6 533.2 528.7 525.5 519.2 518.3 515.8 514.1 513.8 513.7 513.6 512 511.7 514.1 515.7 517.2 517.6 517.1 516.3 515.7 517.2 519 520.7 522.1 522.6 522.8 521.3 521.2 521 519.7 518 514.6 510.1 503.5 493.1 487.2 491.2 492.4 490.7 485.2 479.7 472.4 464.5 457.3 446.2 433.1 424.5 419.4 412.5 403.9 391.9 397.9 403.2 412.3 418.9 424 427.9 427.4 419.7 408.5 390.6 399.9 417.7 428.9 439.7 456.4 465.3 474.4 487.3 502.1 516.7 530.2 538.7 545.8 552.7 553.4 550.6 544.9 537.8 526.1 500.6 475.4 450 426.6 398.8 420.4 450 478.3 501.2 507 515.1 518.3 520 520.3 522.9 524.9 530 537.8 542 543.2 548.5 549.7 549.7 555.4 566.2 567.8 572.2 575.2 576.5 578.9 582.6 582.4 577.7 574 572.2 570.3 566.1 562.3 557.3 549.4 542.7 535.9 528.4 517.7 510.2 502.4 492.3 481.2 475.6 469.6 474.9 482.2 489.1 495.9 504 512.1 520.2 526.6 530.6 531.2 531.2 534.8 533.8 533.7 532.7 530.4 529.5 534.9 543.6 552.6 557.7 558 556.9 555.4 553.7
425.6 414.7 395.9 381 368 358.4 348.9 336.9 321 307.4 302.9 303.2 304.5 316.6 333.7 352.3 373.4 397.6 413.1 432 456.5 462.8 471.1 477 485.4 495.6 509.3 523.8 534.3 548.3 561.5 570.8 576.8 581.8 580.9 582.9 584.1 582.9 581.3 578.6 572.4 570.4 564 554.2 551.7 544.1 538.9 536.7 532.4 521.3 518.2 517.1 515.6 512.7 510.6 509.4 508.9 506.9 509.4 512.2 512.8 513.7 513.5 513.2 513 514.6 516.3 518 519.6 520.4 519.7 519.4 519.3 519.2 519.2 517.7 515.4 512.3 507.1 502 500.8 501.8 503.5 502.1 497.4 489.2 478.1 471.9 462.5 450.2 439.4 431.6 425.4 416.7 407.5 400.1 383.3 385.7 390 393.8 399.1 402.6 404 402 398.1 388.8 380.9 398.3 407.3 420.2 434.3 439.2 451.6 472.7 490.7 503.2 518.9 531.2 540.9 546.8 548.7 545.2 539.5 532.9 519 490.7 464 435 406.2 394.2 427.3 456.9 486.2 502.4 511.3 516.6 518.1 518 519.1 521.5 522.9 525.2 532.3 535.5 537.7 536.9 534.6 540.6 549.1 556.7 559.9 566.6 574.5 579.9 586 586.6 585.4 580.8 579.2 576.5 574 569.3 564.7 560 550.5 542.6 532.6 522.6 519.9 510.6 504.5 496.8 491.2 480.4 473 466.8 474.9 481.5 489.4 500.2 508.1 517.3 525.5 529.1 529.1 528.5 527.2 523.4 518 520.9 519.6 521.4 531.5 540.3 549.4 558.4 562.5 559.7 556.8 552.9
438.6 427.1 409.4 394.2 381.1 365.2 352 339.5 324.8 310 303.9 303.3 304.4 305.2 324.9 342.2 365.1 391.5 416.1 440.3 463.7 472.9 475 482 490.4 501.5 514.5 527.8 537.6 553 568.3 579.5 584.3 586.1 586.7 589.9 590.5 589.5 585.6 582.4 578.7 573.9 570.7 559.4 550.8 545.3 542.2 544.1 538.3 532 521.3 519.7 519.5 517 513.7 512 513.2 511.3 503.7 507.1 508.6 509.5 509.6 509.3 508.7 510.5 512.5 514.6 517.2 518 517.2 518.1 517.6 517.6 518 516.7 515.7 513.4 511.1 510.1 510.2 512.8 513.9 510.9 507.9 499.6 491.2 482.1 472.7 466.3 459.7 446.5 432.9 426.3 415.7 407.1 395.9 382.8 376.4 374.7 376.2 377.5 378.2 378.5 378.3 378.7 368.3 376.9 388.1 397.6 407.9 413.1 426 443.8 462.8 483.9 501.9 515.3 528 538.4 540.9 537 529.3 524.6 506.2 481 453.7 425.1 393.7 393.8 429 461.1 489.9 504.1 514.4 517.4 517.7 515.2 515 515.9 516.5 519.2 524.5 525.6 529.3 527.2 532.6 540.2 551.2 560 557.8 563.1 575.3 586.3 588.7 587.8 587.6 583.3 578.8 577.6 573.2 567.9 561.9 556.4 550.9 544.3 534.5 525.2 518.8 509 504.2 499.4 493.1 485.6 478.4 468.2 468.6 474.8 480.9 492.8 504.6 514.9 522.7 527.1 527.3 525.4 523.2 521.4 516.7 513.7 513 515.7 525.2 534 543.9 552.5 556 555.2 552 549.7
445.7 434.6 419.6 406.5 391.8 373.1 355.9 341.4 327.3 315.5 307.9 304.3 304.7 304.1 316.4 334.9 357.1 381.3 412.4 444.3 464.3 473.5 478.7 484.7 492.3 504 516.5 529.5 540.3 555.6 572.7 585 589.8 591.1 592.7 594.9 594.8 594.6 589.3 586.8 584.1 581 578.8 567.9 557.5 551.1 548.4 547.5 545.8 542.2 534.6 523.7 524.4 520.5 515.9 514.4 513.1 509.4 506.6 500.4 503.3 505.3 505.7 505.1 505 506.6 509.3 512 514.4 515.4 514.7 516.5 515.9 516.4 515.6 515 513.9 513.7 514.7 515.7 517.6 520 518.5 514.5 509.5 502.8 495 489.2 483.7 477.5 471.8 459.4 453 445.1 433 420.2 408.5 398.5 389.2 384.4 379.5 370.4 364.5 360.6 360.7 363 365.1 358.8 369.2 379.2 385.4 390.8 402.8 420.2 438 457.1 472.8 488.6 503.9 516 522.4 522.1 513.7 510.6 490.4 467.6 444.8 417.8 388 390.4 425.2 460.5 492.6 503.7 513.7 517.5 517.6 513.8 507.4 503 508.8 507.1 505.6 515.6 516.3 523.8 527.3 537.2 549.4 558.3 561 569.4 580.2 587.6 590.8 588.4 586 583.9 579.1 577.2 571.1 566.8 560.7 556.8 554.1 544.8 534.6 526.4 517.2 508.7 503 498.5 493.7 486 480.6 470.1 461.7 469.2 473.8 486 501.2 511.9 519.1 525.4 526.1 524.3 520.8 516.7 512.8 510.8 510.8 514.4 523.1 530.6 535.7 541.9 543.8 543.5 543.1 542.3
450.1 439.5 427.9 418 401.5 379.9 360.1 342.9 330.1 318.8 311.6 306.4 306.2 305.5 306.4 325.9 346.9 373.2 402.1 440.1 462.3 472 474.7 483 490.2 502.4 515.6 526.5 540.5 558.4 576.3 589.5 594.9 596.7 597.2 599.4 600.3 596.8 592.1 590.9 588.6 587.3 583.6 576.8 570.3 562 553.6 550.9 549.8 547.5 542.7 532.6 528.1 521.8 518.4 517.8 513.1 508.8 505 503.6 498.2 499.6 501.5 502 502.1 503.2 505.3 507.5 509.3 510.6 512.5 514.1 514.1 514.1 513.3 512.7 512.5 513.9 515.2 518.2 520.7 521.6 519.3 514.8 509.2 502.9 497.5 496.3 491.3 486.3 481 477.4 469.6 461.5 448.3 431.5 422.6 412.9 405.4 396.7 389.4 386.3 381.3 379.3 374.7 368.1 357.7 352.7 356.6 360.3 366.7 373 382.7 400.4 416.4 429.5 440.7 456.9 471.4 482.9 488.8 491.8 491.4 483.5 472.3 454.1 434.8 406 375.8 390.5 428.4 463.8 492.1 500.4 509.8 515.1 515.9 510.9 501.2 499.4 496.1 493.8 496.6 505.8 514.5 520.9 524.8 533.3 547.7 557.3 561.3 572.2 585.5 592.1 596.7 595.3 586.6 583.2 579.9 575.3 570.5 566.5 560.6 555 554.1 544.8 535.3 524.4 518.3 513.4 504.5 499.6 496 485.9 484.1 473.5 466.2 465.3 467.8 479 495 508.7 514.6 520 521.9 519.4 515.2 512.9 509.5 507.2 509.4 514.3 520.9 527.8 534 538.7 540.7 539.8 538.5 536.7
453.3 444.4 434.4 426 409.6 387.6 365.5 347.1 333.9 322.8 315.3 310.6 308.3 306.7 305.4 315.5 337.2 363.8 392 423.2 453.4 459.2 462.2 471.7 482.4 493.4 507.1 521.9 539.6 558.2 577.4 591.3 596.9 599.6 600.2 601.4 600.5 597.5 594.1 593.7 592.3 591.9 588.5 584.1 574.2 563.5 557.9 556.7 554.8 552.5 547.2 534.5 531.7 524.9 524.4 521.9 515.8 511.2 506.6 505.3 502.2 498.5 493.8 497.3 498.4 499.1 501.4 504.5 507 507.3 509.1 510.5 511.2 511.8 511 509.8 508.9 510.8 514.4 517.7 521.1 521.1 517.3 512.9 509.6 505.3 503.6 504.4 500.6 496.1 494.2 490.9 484 473.4 462.8 450.2 440 431.7 420.2 410 404.6 399.9 395.3 386.6 380.9 377.2 368.6 350 349.8 349.8 352.1 358.6 365.7 379.6 392.1 403.1 413.8 423.6 435 446.5 453.4 455 453.4 450 445.2 434.7 419.2 392.1 364.6 394.4 430.5 464.5 484.8 494.3 501.2 507.9 510.6 505.7 497.3 478.4 475.9 479.1 496 509.8 516.2 522.7 528.5 533.1 542.9 553 562.3 576.7 587 594.7 597.3 591.3 586.3 581.2 578.4 572.8 568.8 561.6 556.5 552.8 549.3 540.4 535.7 526.8 521.6 511.7 505.8 496.7 491.5 488.1 490.4 482.2 470.1 459.4 462.9 472 485.7 499.3 506.8 510.4 512.3 512.8 510.9 508.7 505.9 502.4 507.5 512.7 517.9 527 532.3 535.5 535.8 535.3 534.8 532.1
453.5 447.2 440.5 431.5 416 395.6 373.5 353.4 339 326.1 317.6 312 309.5 307.5 306.4 312 330.2 353.9 379.5 410.2 430.7 440.1 447 455.2 466.8 480.3 495.8 514.9 535.5 556 575.4 590.5 597.2 600.9 601.3 603 603.9 601.9 597.8 598 597.7 595.1 589.6 585.6 579 574.5 569.5 563 558.7 556.2 549.2 537.9 534.8 531.7 531.1 525.3 520.9 516.9 510.3 509.8 505.5 502.2 498.9 490.3 491.8 494.1 496.7 499.6 501.6 502.8 505.3 506.5 507.5 508.2 507.9 506.5 505.5 508.3 512.4 516.5 518.6 518.3 515.2 512.1 510.4 509.2 510.5 511.6 509.1 505.4 502.7 501.3 498.3 490.8 483.5 472.4 460.6 449.2 437.5 432.1 427.1 420.3 408.2 397.7 386.8 378.6 371.3 363.1 351.9 348.1 344.7 340.9 352.2 360.9 370.1 378.3 387.9 397.3 407.4 417 423.4 425.1 422.6 419.2 416.3 409.6 398 373.7 363.3 398.8 426.5 450.4 467.5 484.7 491.4 500.1 505.7 497.9 479.1 459.6 464.8 483.5 501.6 513 520.7 527 533.6 541.4 549 553.9 567.2 577.8 586.6 596.2 594.5 585.8 580.3 571.8 568.7 570.2 564.9 557.8 553.8 550 546.4 541.8 534.3 528.9 521.7 512.8 501.6 499.5 496.4 493 492.7 486.1 474.5 454.9 460.5 465.4 477.5 492.9 503.3 506.2 506.2 507 505.7 502.2 499.7 498.7 503.9 508.5 513.6 522.5 527.7 531.2 531.8 531.3 530.3 527.7
452.2 447 440.5 431.2 417.5 399.8 381 360.1 342.4 322.8 317.1 312.9 309.5 307.8 306.8 309.5 324 344.2 366.2 389.8 410.1 420.8 429.5 437.6 449 464.3 484.7 507.8 530 552.2 572.9 587 596 600.4 601.2 602.2 603 603.9 601.2 602.1 598.8 597.6 592.8 588.5 581.5 578.4 575.5 568.9 562.6 555.9 548.2 540.5 537 536.3 536.1 527.5 523.1 519.8 515.5 511.7 507.6 504.7 500.8 497.4 490.5 489.9 493.1 494.1 495.6 497.3 499.9 501.2 501.1 501.8 501.8 502.2 501.8 505.2 507.9 511.1 513 512.7 512.1 512.7 512.4 513.8 516.1 516.2 513.6 512 510.8 510.7 508 504.3 501.4 493.1 481.3 467.8 457.5 451.8 445.8 438.6 426.9 411.4 397.3 384.6 377.7 371.9 366.9 360.3 354.2 347 339.7 346.1 352.1 356.5 362.9 371.5 380.4 389 395.7 400.7 396.9 392.8 390 388.7 386.5 359.6 365.1 394.5 412.1 431.7 447.1 464 478.9 486.9 492.8 482.5 465.2 452.9 468.2 484.7 502.9 518.3 527.1 534.7 538.6 543.3 552.7 558.9 567.9 579.5 584.7 596 590.1 581.1 575.4 564.4 561.8 563 559.4 552.8 552.7 546.8 542.6 536.4 531.7 528.8 522 516.6 509 506.3 502.7 494.4 497.3 489.8 480.7 466.4 451.5 457.2 469.9 482.6 495.3 498.6 498.5 500 497.9 496.6 495.1 494.9 499.6 504.4 509.1 516.7 522.6 526.4 526.6 526.1 525.3 523.3
450.2 443.4 435.9 427.5 415.5 402 381.7 362.1 349.8 334.5 324.5 315.8 308.3 307.6 308 311.6 321.5 338.6 354.8 375.4 389.2 397.6 406.4 421.8 436.2 451 474 500.3 526.2 549.4 569.7 585.3 593.9 600.2 601.5 601.2 600.5 601.4 600.1 599.3 599.3 599.1 591.1 584.4 579.8 578.1 573.6 566.3 560.9 555.4 544.4 541.1 540 539.1 534.1 526.3 520.3 519.9 518.9 515.4 508.6 506.1 504.1 500.8 498.2 485.2 487.9 488.7 489.8 490.8 494.2 494.8 494.4 494.9 494.7 495.2 496.4 499.4 501.8 503.4 504.8 507.3 510 512 513.5 516.7 518.4 518.8 517 516.4 517.4 519 514.8 514.3 512.1 506.8 499.4 489.3 480.3 473.2 466.8 460.2 444.5 426.1 413.9 405 395.6 393.5 389.4 382.8 372.3 360 348.4 339.3 335.3 338.1 343.4 350 357.6 366.4 373.5 378.5 377 372.4 370 370.6 368.9 348.9 359 377.8 393.2 407.3 426.6 439.1 453.2 467.2 474.2 465.2 441.6 455 472.8 492.3 507.3 525 535.3 539.8 541.6 543.6 551 559.3 564.4 576.2 579.8 590.9 579.6 572.8 568.4 558.6 553.2 556 552.6 547.1 543.1 539.8 536.9 530.6 526.2 522 518 513.5 509.4 506 499.3 496.6 495.4 490.9 485.3 472.7 457.5 447.7 460.5 473.6 483.1 487.2 492 493.8 490.7 490.1 489.2 490.9 495.1 499.9 504.8 511.4 516.4 519.2 519.5 519.2 519.3 517.9
446.1 438.5 430.3 422 405.2 396.5 386.6 372.6 358.4 341.3 328.6 320.6 311.5 308 308.1 312.4 318 327.2 347.8 368.8 388.8 403 416.7 428.7 442.4 458.5 477.4 495.9 524.2 545.1 564.6 580.8 591.3 597.9 601.2 599 599.2 599.4 602.1 599.9 598.8 595.6 590.9 581.1 577.5 574 567.2 561.4 558.4 547.3 540.8 540.7 540.3 538.3 530.4 522.7 517 517.9 518.1 516 512.1 509.7 507.2 504 500.3 487.5 481 481.7 482.7 483.8 486.1 488.2 487.9 487 486.2 487.1 490.1 492.7 495.6 497.2 499.1 504.2 507.5 509.6 514 517.3 519.3 520.8 519.9 519.4 520.5 521.6 520.1 520.4 519.6 515.9 512.4 510.4 502 493.9 485.8 474.8 461.5 446.2 438.7 427.5 417.6 410.8 403 396.1 386.7 373.9 362.5 355.9 344.3 332.3 328.6 333.5 335.6 345.8 353.4 357.3 359.5 357.5 356.1 356.5 354.2 337 348.5 361.1 375.6 387.9 402.1 414.5 427.6 443 454.1 446.5 434 455.8 476.3 494.5 510.4 524.6 533.2 540.8 540 542.3 549.6 556.7 563.6 571 575.7 580.9 569.1 565.2 559.2 552.3 546.9 546.3 542.3 539.9 536.7 536.7 534.3 528.3 523.9 518.3 515.3 512.5 510.4 503.2 501.2 493.5 493.1 491.1 484.4 474.6 462 452.9 446.2 459.5 469.4 478 480.2 481.8 482.3 483.8 483.9 486 490.1 494.7 499.7 505.3 509 514.5 514.6 513.7 512.2 510.4
442.2 432.8 426.1 424.9 417.2 406.2 394.6 381.3 365.7 346.8 332.3 322 314.9 308.8 307.2 309 316.3 328.5 347 368.9 387.3 402.7 417.9 432.6 449.8 470.4 492.7 511.8 529.5 546.4 562.8 578.6 588.2 593.9 597.2 596.8 596.7 597.9 601.1 598.9 593.6 589.6 588.3 579.5 571.7 569.7 562.2 557.8 551.1 540.9 538.9 539.5 539.1 535.3 527.2 519.4 514.4 513.5 513.8 514.2 512.6 510.5 508.8 505.9 502.3 498.5 495.3 479.8 476.8 476 475.5 478.4 479.3 477.8 477.1 479.6 483.4 485.2 489 491.4 493.4 498.3 503.2 507.5 512 515.2 518.5 520.7 519.9 520.3 521.8 523.2 523.5 524.2 523.8 520.9 518.2 517.7 514 508.7 501.2 494.7 484.5 471.3 463.2 450.6 442.1 430.9 419.7 410.9 399.9 385.9 378.9 371 363.9 346.3 333.9 325.7 324.3 325.9 332.8 336.9 341.6 342.9 341.7 342.3 339.4 328.3 338 344.2 350.5 353.2 360.1 374.5 395.9 417.8 428.6 421.2 438.4 459 477.9 495.3 510.7 521.3 529.8 533.6 536.1 539.4 545.5 552.5 561.7 571.9 576 574.4 562.9 556.2 550.1 546.1 545.1 536 536.7 543.1 541.1 530.5 531.1 526.9 524.2 519.2 515.4 510.5 503.3 499.4 495.3 491 490.3 490.1 481.5 475.1 466 457.2 450 447.2 458.6 464.5 469.2 470.6 475.2 476.5 478.1 478.7 484.1 488.3 494.5 499.6 503.7 507.5 509.5 508.9 507.2 505.5
442.8 438.8 435 427.4 420.7 412.9 402.5 388.9 372.6 352.8 336.2 322.6 315.6 310.3 308.6 309.4 312.5 326.3 343.9 365.6 385.2 402.8 419.7 440.6 463.3 485.8 504.6 519.2 533.6 547.8 561.9 575.3 585.5 590.6 592.6 593.9 592 593.8 594.9 592.6 587.2 583.8 580.8 576.7 563 559.6 557.5 552.7 546 536.8 537.6 538 537.7 528.1 520.4 515.6 512.5 510.6 510.9 511 510.9 510.3 509.3 506 503.4 499.8 496.2 493.2 490.5 483.1 480.6 469.4 471.7 469.5 468.6 472.5 475.1 479.6 482.6 485.1 487.5 491.5 496.9 504 507.4 511.1 514.1 515.9 517.4 518.1 520.9 523.8 525 525.2 523.8 522.1 523.2 522.3 519.2 515.9 511.8 505.2 498.3 491.5 483.2 474.3 458.8 449.9 440.6 431.3 419.7 408.8 401.4 392 376.8 360.4 347.9 338.9 333.4 327.4 323.4 319 320.4 322.4 325.3 328.2 329.2 320.5 325.1 341.8 354.5 370.8 381.2 389.2 380.5 398.7 405 411.3 422.9 451.7 471.5 492.3 509.8 521.6 526 528.4 531 536.3 540.8 545.9 555.9 565.1 565 564.6 556.6 551.1 545.3 542.5 543.1 543 535.1 533.6 532 526.9 520.7 522.3 520.3 514.8 508.4 503.8 500.4 497.7 493 487.5 484.2 481.5 477.6 472.3 466.3 459.2 453.4 444.1 449.5 453.9 460.2 462.2 465.7 469.6 469.3 474.1 478.4 482.6 487.6 494 499.5 501.9 502.3 502.6 503 502.1
447.3 443.5 436.7 430 426.8 420 409.7 398.6 380.4 358.3 339.8 324.6 317.2 311.8 309.3 309.6 311.3 322.1 339.5 360.9 381.5 404 425 450.5 474.8 495.9 511.4 522.7 535 546.7 561.4 573.2 583.3 587.3 587.9 590 589 588.1 585.8 583.6 580.6 573.9 571.6 567 558.1 553.9 552.1 546.6 540.1 535.2 535 535.6 531.9 521.4 515 512.8 509.1 508 507.7 507.9 507.9 507.5 507 505.2 503.3 498.9 495.1 490.5 488 486.2 481.4 464.7 464.5 462.7 462.2 463.6 465.9 473.4 476.4 478.9 481.5 483.8 490.3 495.9 501 506.3 508.9 510.7 512.9 515 518.3 520.9 521.3 522 522 521.4 522.6 522.9 522.1 519.7 516.3 511.1 504.3 498.7 493.1 487.3 477.7 469 462.1 452.5 443.1 431.5 421.2 411 401 386.5 373.4 363.3 356.8 347.4 341.5 331.3 324.4 316.1 311.8 316.8 318.8 314.6 333 348.4 364 382.4 398.4 410.5 411.2 408 417.4 433.7 444.8 450 447.5 488.5 506.5 519.7 523.5 523.8 528.2 533.1 536.5 543.4 550.7 553.3 553.1 556.1 553.3 547.6 542.8 542 541.6 538.2 532.1 529.4 525.6 519.7 516.7 515 511.6 510.5 506.1 503.7 496.5 491.2 480 472.2 468.6 466.2 466.5 465.4 462.8 459 455.4 453.3 443.4 443.8 451 453 457.1 461 460.9 469.6 474.2 479.8 485.6 490.8 494.9 498 500.3 500.8 500.7 497.4
453.1 450.6 444.5 440.1 436.7 427.8 416.6 404.7 386.3 362 341.3 328.4 319 313 310.2 309.7 311 317.6 336.4 356.8 380.5 405.1 431.1 463.6 486.2 502.6 514.8 524.3 535.5 546.6 560.1 570.9 580.5 582.6 585.2 585 582.3 582.2 581.2 579.7 577.9 564.9 566.4 562.6 552.7 549.4 542.5 538.5 536.3 532.5 529.2 528 523.5 514.4 507.7 506.4 506.4 505.1 503.2 503.7 504.6 504.8 504 502.8 499.9 496.7 493.2 488.3 483.9 482.7 480 477 469.6 459.1 457.8 457.3 460.2 462.8 466.9 467.1 470.1 477.1 483.7 488.3 494.3 498.8 502 503.3 506.3 508.9 512.9 514.5 514.8 517.5 519 519.7 521.2 521.8 521.4 521 519.5 515.9 510.3 504.6 500.7 496.4 489 481.7 474.9 468.2 461.7 451.4 441.5 427.6 422.4 408.6 399.4 388.2 379.8 372.9 365.1 353.4 344 330.6 323.2 309.3 311.9 313.5 332.7 351.1 370.7 392.7 412.8 431.5 439 443.8 446.8 454.9 465.8 475.5 480.9 479.2 493.8 501.4 510.1 515.6 523.9 528.7 533.1 539 545 548.3 552.4 553.5 550.4 547.5 545.6 543.5 547.1 542.6 538.2 530.6 524.5 518.8 516 514.6 513.1 512.1 508.6 505.2 497.1 492.3 488.4 484.7 480.4 471.9 463.2 459.3 455.3 451.9 453 453.1 452.3 443.7 438.1 442.4 446.9 453.1 456.2 463.2 469.5 478.9 486.2 491.1 493.6 495.9 496.2 496.6 495 491.4
462.2 459.5 452.8 448.2 442.2 435.5 421.9 409 390.3 366 343.3 328.5 319.2 313.2 311.2 310.6 310.8 314.1 331.3 352.6 380 407.1 438 474.1 491.5 504.9 514.6 523.5 533.8 545.4 556.1 567.2 574.8 577.6 582 578.9 575.9 573.4 574 570.3 569 559 556.5 551.4 547.6 546.5 539.5 534.8 533.1 529.5 523.2 521 513.7 507.2 503.8 503.7 503.9 501.5 498.6 499.2 500.5 500.2 500.3 499 496.4 491.7 489.2 486.2 482.7 480.4 478.8 477.1 473.5 467.9 459.4 456 457.1 456.4 456.4 459.3 463.5 470 475.5 481.2 487.1 489.9 490.9 492.9 496.7 501.8 504.9 505.4 506.9 508.6 512.5 514.5 517.8 520.2 521.3 520.8 520.8 518.2 515 511.7 508.7 505.3 498 490.4 483.4 478.3 472.9 465.8 458.8 448.1 434.8 422 413.5 404 398.1 389.4 379.6 367.1 357.3 343.4 329 311.9 306.6 314.8 333.5 353.1 376.6 400.9 427.6 445.9 458.3 465.4 470.6 479.2 484.7 490.5 497.7 499.2 494.9 495.2 505.7 509.7 517.1 525.4 529.5 531.5 536.5 542.6 548.4 551.4 552.4 551.9 549 545.5 549.9 549.3 542.7 537.9 534.2 530.6 523 516.9 510.1 507.6 505.3 505.2 501.2 499.6 495.7 491.9 489.9 484.7 477.5 471 464.3 457.7 451 445.8 440.3 450.7 437.8 434.3 437.9 440.8 449 457.1 463.1 474.4 484.5 490.3 492.5 493.3 492.4 490.9 488.4 486
471 467 459.6 452.5 444.4 437 424.9 411.1 393.8 371.6 347.5 331 321.5 314.8 312.2 311.6 311.3 311.4 326.8 351.3 379.1 408.1 445.1 478.9 492.9 504.4 511.5 520.5 528.8 540.8 551.4 560.8 570.5 572.9 574.8 571.1 568 566.8 566.8 562.1 559.8 550.4 550.3 544.8 543.4 542 535.8 531.5 527.2 522.3 517.4 511.5 504.5 502.6 501.8 500.2 497.5 495.8 494.2 495 495.5 494.9 494.7 493.3 489.2 486.9 484.7 482.5 480.5 478.5 477.2 475 472.4 471.4 465.6 457.8 453.1 454.1 453.2 454.5 457.4 461.1 465.5 472.4 478.4 480 480.4 481.4 485.7 490.9 495.8 494.6 495 498.4 503.6 507.3 512.5 514.9 517.7 521.8 522.6 521 519.1 517.1 514.5 508.8 503 497.2 492.2 488 482.8 476.6 470.7 462.6 451.4 440 426 415.6 406.8 396.2 379.9 365.9 355.9 338.5 322.1 311.9 304.2 313 336.5 356.5 381.3 407.4 432.6 458.1 471.6 478.5 487.6 495.8 502.2 505 502.5 505.8 508.5 508.3 503.7 505.1 510.4 519.7 525.2 527.3 531 537.2 543.4 547.2 550.9 552.5 552.2 550.2 549.2 548.9 545.7 541 538.9 534.1 528.6 522.3 520.2 511.8 505.6 503.4 503.1 499.1 494.9 494.7 493.4 489.4 483.6 479.4 471.4 470 460.9 455.4 451.9 442.8 434.9 432.8 433.4 435.7 446.4 451.2 457.3 468.1 478.3 483.9 487.2 489.1 488.8 487.1 484.6 482.2
478.4 471.9 463.8 455.2 445.2 436 424.2 411.1 399 376 352.8 333.8 323 316.2 314.2 314 312.4 311.7 320.6 347.6 376.4 406.7 443.6 478.3 491.7 500.8 508.9 515.8 523.9 535.9 547.8 555.8 564.6 568.9 567.2 567.5 561.9 562.5 562.1 555.6 551.2 545.5 546.7 540.3 537.4 535.3 530.9 525.3 521.4 515.1 511.4 507.8 501.6 498.5 497.5 494.3 495.3 485.8 489 489.5 489.8 490 489.5 486.5 483.6 481.4 479.8 478 475.6 474.2 472.5 470.7 469.4 468.6 467.5 463.3 453.4 450.8 450.3 450.7 452 452.6 455.2 458.1 463.5 468.3 468.4 469.8 475.6 481 482.7 482.6 483.7 487.5 492 497.5 502.9 507.5 511.8 519.8 522.7 521.7 521.8 520.8 518.4 512.2 506.6 502.4 499.4 495.8 491.8 487.1 481.6 475.4 465.8 457.5 444.2 428 412.4 401.6 381.1 360.6 345.1 330.5 319 307.7 300.7 311.3 337.7 356 383.6 407.4 438.2 465.8 480 488.4 494.8 499.1 506.7 510.4 507.4 507.8 508.5 508.4 509.5 508.9 513.6 518.5 520.2 524.2 529.4 536.6 542.1 545.3 549.2 551.7 553.8 552.4 552.3 551 548.6 542.6 542.4 536.7 529.7 527.1 523.3 519.7 514.8 506.8 502.3 498.7 496.4 495.8 495.2 492.3 485.7 479.5 477.8 474.4 469.4 463.1 458.1 451.8 440.6 435.9 432.7 429.3 439.8 444.2 450.7 461.6 469.9 475.5 480.7 484.5 484.7 483.1 480.6 480
481.5 474.2 464.3 454 443.8 434.7 424 410 397.9 378.2 358.8 338.4 325.1 316.8 315.7 315 313.1 312.2 314.6 341.5 369.9 401.1 437.3 475.2 486 494.2 501.1 507.4 518.3 530.2 543.8 552.9 559.9 563.2 563.9 564.8 556.9 557.9 554.8 547.6 540.9 540.4 538.5 535.3 530.8 527.9 524.3 519.4 512.6 507.5 505.5 501 498.6 495.6 495.6 497.7 496.2 492.2 484.7 483.8 484.1 485.1 483.6 481.8 477.5 474.8 471 466 464.5 463.6 460.9 460.2 460.7 459.2 461.8 459.8 451.6 449.5 449.1 449.7 448.7 445.4 445.6 448.3 450.7 455.1 456.9 460.2 466.5 471.2 471.2 471.8 472.7 475.7 479.7 486.1 494.3 501.5 507.4 513.6 516.7 519 520.9 520 518.2 515.5 510.9 507 503.6 501.1 498.4 495 489.6 484.2 476.5 469.5 457.8 440.8 420 406.3 373.7 351.1 338.5 328.4 318.1 304.7 295.8 309.8 335.6 355.6 381.2 406.8 440 466.9 484.1 491.6 492.5 497.7 501.9 502 502.9 501.6 503.8 505.9 509.5 509.9 514.3 520.2 524.5 532.3 533.4 537.8 544.1 547.2 551.2 553.2 554.7 555.3 554.6 553.5 554.5 549.5 540.8 539.4 534.4 527.5 524.3 523.8 520.2 514.4 507.9 502.4 497.5 497.1 496.4 491 485.9 484.9 481.8 477.4 474.2 470.3 465.4 457.2 447 439.7 435 431.8 425.5 434.5 439.8 451.3 461.6 472.3 476.9 478.7 478.1 477.7 476.2 478.6
481.1 472.5 461.9 451 441.3 431.3 421.2 408.6 395.3 379.9 361.1 341.8 326.6 319.1 317.4 316.1 313.7 312.8 312.8 332.2 361.2 396.6 436.1 466.3 475.2 482.9 488 495.7 507.9 525.3 540.1 550.1 557.6 562.5 562.7 562.9 553.9 550 547 542.3 537.7 534.2 531.1 528.4 525 520.2 517.7 512.9 506.4 502.8 500.5 498.3 496.4 499.5 499.6 498.1 495.3 494.1 492.6 489.5 485.4 479.2 477.9 472.9 469.6 468.5 472.4 471.3 467.9 466.5 466.9 465.2 462.4 459.1 456.2 454.7 453.2 453.7 453.4 452.2 449.9 449.3 446.7 445.1 443.1 444.9 448.1 450.8 456.5 459.2 460.7 461.1 462 464.2 467.4 474.6 482.2 491.1 499.4 506.5 510.6 516.9 518.4 518.2 517.5 515.3 513.4 510.3 507.2 503.9 502.4 499.5 495.6 491.2 483.7 475.8 464.3 448.3 426.3 409.9 372.4 342.8 334.6 326.2 315.7 301 296.9 308.7 332.2 352.8 377 406.1 439.9 467.9 482.3 485.2 487.2 492.9 496.3 495.9 496.7 498 498.8 501.3 502.2 505.1 513.1 519.8 524.8 533.3 536.2 538 541.4 546.7 554 558.7 559 559.9 558.3 556.4 558 556.3 550.1 541.7 537 529.4 524.6 525 522 519 513.1 505.6 504.7 501.5 496 493.9 493 490.3 485.6 482.2 478.5 475.6 470.9 464.6 452.2 446.7 442 441.5 430.7 421.5 427.3 440.3 454.8 466.7 471.2 470.6 469.8 469.9 471.6 474.6
476.5 465.9 455.7 446 437.3 427.7 418.3 405.3 393.3 379.1 363.2 345.5 327.2 318.7 316.8 315.5 314.5 313.6 313.5 324.7 353.8 386.7 424.6 449.7 459.2 464.2 471.4 476.4 492.9 522.9 542 551.2 557.7 560.6 561.4 561.3 548.9 545.1 543 540.9 534.7 530.4 525.7 521.9 517.6 514.2 510.6 506.2 502.5 499.8 497.4 497.7 500.6 501.3 500.3 499.6 498.7 497.4 496 494.3 492 486.6 482.8 482.3 476.2 480.5 479.1 475.1 472.6 472.7 471.9 471.4 469.5 466 461.2 459.3 458.9 462 458.3 454.2 453.4 451.5 450 447.9 446.7 444.9 441.8 441.2 442.6 447.4 449.6 450.5 452.2 453.6 455.7 462.9 469 478.1 486.6 495.1 504.5 512.2 515.6 515 513.4 511.7 511.4 511.1 508.3 505.9 504.3 501.3 497.7 494.3 487.6 480.2 468.1 451.2 426.2 400 362.6 343.4 334 321.8 309.5 298.4 295.2 307.1 329 347.9 372.3 407.9 440.8 465 472.9 477.1 482 486.6 489.5 489.8 492.4 496 496.2 496.6 496.8 505.6 514.5 519.9 526.5 533.5 537.1 539.3 542.2 548.7 556.9 565.2 568.1 571.4 570.5 568.4 565.3 561.5 557.2 550.3 543.6 537.3 529.9 526.1 524.9 523.6 516.7 511 506.8 503.8 503.1 502.4 498.5 495.5 491.5 487.9 484 480.5 476.3 468.2 459.4 455.7 454.4 446.6 440.4 430 419.4 428.8 440.5 454.1 457.4 452.6 457.6 461.5 467.2 472.3
468.2 459.4 450 440.6 431.9 423.1 413.5 404.2 393.5 380.1 368.2 347.7 328.4 320.2 317.8 315.8 315.1 313.9 314.9 319.8 343.9 370.9 412 432.3 440 439.8 447.8 477.6 504 530.2 546.5 555.1 558.8 559.2 560.3 554.2 547.1 543.2 539.4 535.9 529.1 525.8 523 518.7 510.9 508.5 506.2 502.8 500.5 498.8 501.5 503.1 503.2 502.8 501.9 501.9 501.2 500.1 498.7 497.5 495.5 491.6 490 486.9 482.4 483.4 482.3 478.3 478.6 478.1 475.8 476.2 474.7 473.5 470.6 466.4 470.3 470.3 466 461.9 456.7 455.3 452.9 453 452 451.6 446.5 443 441.8 439.3 437.2 440 445.8 446.2 447.2 451.6 454.2 462.1 473.6 485.1 494.8 503.8 508.1 508.3 508.5 507.6 508.4 508.5 508.1 506.1 504.9 503 500.1 496.4 492.4 485.1 470.7 448.4 421.1 392.3 365 350.3 334.3 315.5 305.7 295.2 291.2 304.8 325 341.6 368.6 405.4 440.4 460.3 466.9 471.6 475.5 479.2 479.9 482.9 485.2 488.5 491.3 492.1 493.9 504.2 514.7 520.4 524.8 530.4 536.2 543.1 545.3 551.8 563.7 570.1 572.3 574.2 575.6 577.8 576.7 571.5 564.7 557.6 551.5 544.6 540.6 535.4 530.9 526.7 522.5 517.9 516.1 512.7 509.5 508.6 505.6 503.2 498.1 494.6 490.9 486.5 481.2 477 471.2 462.1 458.2 451.9 444.3 438.9 417.2 418.8 426.8 437.6 440.9 443.8 452 459 466.1 472.7
460.1 452.6 443.4 434.8 427.2 418.8 410.5 401.6 390.8 376.5 368 345.4 329.4 321 318.4 316.1 315 314.5 316.7 320 333.7 352.7 385.3 409.2 418.8 443.4 466.4 490.8 516 538.9 554.6 560.7 559.3 559.5 560.3 549.9 546.6 541.7 537.4 529.4 525.3 523.6 521.1 515.1 508.5 505.2 501.9 500.9 499.6 503.1 504.4 504.2 504.1 504.1 503.5 504.1 503.6 502.7 501.6 500.4 498.3 494.8 494.5 490 486.4 488 486.1 483.2 485.7 485.9 484.3 482.7 482.6 484.4 481.4 475.7 479.2 478.2 471.9 464.9 461.9 460.8 463.3 465.4 463.7 459.9 451.8 446.7 444 441.9 439.2 435.6 435.8 436.2 438.6 439.1 439.9 442.7 457.5 470.8 483.4 495.2 498.8 500.3 500.5 502.9 504.1 504.4 504.9 505.8 505.6 503.7 501.9 499.2 495.4 490.8 481.9 463.6 444 408.6 376.8 360.7 338.3 316.8 305.2 292.3 286.8 301.2 318.6 334 361.4 398.1 434.8 455.5 461.6 464.2 466.4 469.4 469 470 475.1 482 486.7 490.7 495.2 503.9 513.6 518.8 523.2 529 535.1 545.1 548.7 555.5 566.5 574.2 576.6 577.2 579.7 580.5 579.8 575.1 568.3 563.1 557.8 547.5 545.8 538.2 535.9 532.9 528.4 522 524.7 522 519 515.3 512.2 509.8 506.1 501.2 497.1 492.9 487.7 481.6 476.3 465.2 458 453.8 448 442.3 422.7 414.5 418 423.2 433.8 443.6 453.7 462.8 471.2 476.9
451.7 445.6 437 430.6 424.1 416 407.1 397.4 385.9 380.2 368.2 354.3 339.6 328.8 321.6 318.2 315.6 315.4 316.1 320.9 327.5 341.5 372.2 402.3 424 449.2 475.7 501.2 526.3 546.2 559.5 560.8 558.7 558.6 555.1 551.6 549.2 541.3 535.3 527.1 522.4 519.7 516.7 510 506.7 503.9 501.5 500.9 502.3 505.2 505.9 506.2 506 505.8 506.2 506.3 507.9 509.4 506.1 503.4 501 500.2 497.9 494.9 492.4 491.8 489.4 489.6 491.5 490.9 492.1 490.4 492.6 495.4 493.4 486.1 485.9 477.9 477 473.3 470.9 471.9 473.7 473.2 470.4 466.7 458.6 452.1 446.6 443.9 440.4 438 438.2 438.8 432.3 428.2 428.3 427.8 437.8 452.8 465.9 481.3 488.3 489.3 492.3 492.9 495.2 501 502.8 503.9 504.9 503.8 502.7 500.8 498.1 494.3 486.9 471.9 448.3 408.5 380.7 358.9 341.1 321.4 304 290.8 283.1 297 308 324.5 351.6 387.9 417.4 450.2 455 455.1 454.6 446.9 457.9 473.5 482.1 488.1 491.1 493.3 497.4 507 514.6 520.9 528 532.2 538.6 547.1 552.1 561 569.2 573.1 578 581.4 581.7 581 580.2 574.9 569 563.5 552 550.8 549.4 541.6 538.1 531.9 528.5 526.6 526 524.3 522.5 520.3 517.4 513.5 509.5 506.1 501.4 497.3 491.2 485 479.7 465.4 458.6 455.4 450.2 438.8 419.7 414.2 411.2 423.3 436.2 449 456.3 463.6 472.1 481.6
442.6 437.4 432.4 426.4 419.3 412.3 413.5 405.5 393.8 389.4 381.3 365.4 350.7 335.5 324.8 320 317.2 316 315.8 316.1 324.6 341.8 365.5 393.5 419.9 453.2 481.8 510.7 534.3 549.7 557.1 561.5 555.8 557.5 555.9 548 547.1 540.8 531.5 522.1 519.7 515.3 510.1 506.9 504.6 502.6 501.7 502.9 503.3 505.1 507.5 508.4 508.3 508.7 509.7 513.1 514.7 514 512.1 508.4 506 504.1 502.3 499.9 498.2 495.5 494.4 494.9 497.1 496 497.9 499.9 503 503.7 500.3 496.1 487.8 482.9 484.9 481.8 480.8 480.3 482.1 480.9 478.4 471.6 463 455.9 453.7 453.3 447 443.3 445.6 443.9 440.2 436.4 433.6 430.6 423.1 432.1 445.6 459.5 470 473 477.8 481.7 486 493.3 497.7 501.3 503.7 503.3 502.9 501.9 499.9 496.3 490.5 474.2 445.9 409.5 378.8 355.3 342.9 324.6 304.5 286.1 283.3 292 302.8 320.2 344.5 372.9 403.3 443.2 441.1 436.5 426.4 446.1 467.1 483.2 489.5 495 498.5 502.1 506.8 513 519.3 523 531.6 536.6 541.7 549.7 555.7 566.3 572 575.3 579.9 583.1 583 582.6 580.3 573.2 566.8 558.6 552 551.5 546.1 540.5 536.4 533.1 530.9 528.7 526.8 524.6 523.5 520.6 520.3 516.6 512.9 510.2 506 501.2 495 488.7 482.5 470 459.3 456.3 450.3 437.4 415.6 409.6 412.2 421.2 432.4 441.6 451.1 459.6 473.3 482.7
431.7 428.7 422.1 417 414 417.2 416.5 409.5 403.2 396.6 387.1 375.3 358.7 341.2 328 322.6 317.9 316.9 316.5 316.9 320.5 336.8 357.8 384.8 412.8 447.1 483.3 515.7 537.7 549.7 555.2 555.4 555.7 556.6 553.2 543.3 540.4 537.9 525.6 518.4 515.8 511.5 507.5 504.9 504.6 505.9 505.4 505.1 504.9 506 508.8 510.7 511.9 513.9 516.1 519 520.5 518.4 515 511.3 509.2 507.5 507.4 504.7 503.1 500.2 498.8 498.8 500.8 501.9 504.9 507.5 508.6 507.4 504.5 500.1 491.1 491.9 490 486.3 486.3 487.9 490.3 489.9 485.5 478.3 474.6 469.5 464.2 459.3 453.6 450.6 450.6 454.4 452.9 448 448.5 444.8 431.7 416.8 422.4 429.5 439.7 450.4 459.5 466 473 483 489 493.7 497.7 499 499.9 501.2 499.6 495.2 487.9 471.7 444.6 403.2 375.2 352.8 343.5 326.4 307.1 290.1 274.8 283.4 295.5 313 333.6 356.6 383.1 413.3 419.2 405.5 425.6 451 476.3 490.7 495.7 500.3 503.9 508.5 511 518.5 524.4 531.1 535.5 540.7 544 550.3 557.9 567.8 576.1 579.3 582.1 583.4 583.5 582.3 577.8 571.2 564.7 556.9 551.4 546.8 541.2 537.4 536 534.2 533.4 533.2 530.6 525.7 521.2 517.9 520.2 515.6 514.5 514.2 509.2 503.6 497.4 491.1 485 476.2 461.8 456.4 449.7 434.6 414.1 408.8 407.9 417.7 429.9 439.1 449.4 463 476.1 487.2
436.5 434.8 432.5 430.4 429.2 427 422.6 421 423.2 409.3 397.6 383.9 367.5 346.7 331.7 325.1 318.7 318.4 318.1 317.6 318.7 332 352.8 380.9 409.8 449.1 488.1 525.5 542.6 549.6 552.5 552.7 555.3 552.7 547.9 541.7 538.5 531.4 520.3 514.6 511.4 507 505.9 507.3 509 509.7 509.1 509.4 507.1 507.5 510.4 513.4 516.3 518.6 521.8 527 527.6 522.9 517.7 514.3 512.5 511 510 509.4 507.2 504.2 502.2 502.6 504.7 508.3 510.9 512.8 512 510.1 506.8 502.3 496.5 496.2 493.4 490.9 492 493.1 496.7 496.5 492.8 487.8 488.8 483 475.1 464.1 459.2 456.8 458.3 460.3 459 458.1 459.2 456.2 436.1 425.9 417.9 409.7 411.1 420.6 433.8 441.9 454.7 470.6 481 487.2 492.7 496.1 497.6 499.3 497.5 491.7 480.2 458.3 429.5 397.9 371.1 352.8 344.3 330.6 312.1 296.8 277.4 272.8 285.7 302.4 316.6 336.5 364.8 388.1 382.3 401.8 426.7 453.7 480.6 491.5 495.8 503.3 510.7 513.5 517.2 527.6 537.3 538.3 541 545.4 548.3 551.1 558 568.7 578.1 582.5 586.2 585.7 584 581.8 576.9 568.1 559.4 550.8 545 541.4 536.4 536.4 536.6 534 533.7 532.9 529.3 524.5 519.2 513.8 510.3 508.1 510 509.2 508 504.3 499.2 493 487 478.6 467 456.2 449.1 437.3 414 406.4 406.8 415.6 429.1 440.3 450.1 465.4 481.3 490.3
441.1 439.7 438.4 439.2 438 436.5 430.9 436.5 438.9 430.7 415.2 394.2 376.2 356.4 339.3 327.3 319.9 319.6 319 318.5 318.4 328.3 349.7 377.3 406.2 442.7 483.5 528.9 543.6 550.2 553.5 552.6 552.6 548.3 543.4 538.5 534.9 524.1 514.2 510.9 508.2 507.5 509.8 512 513.2 514.1 514.7 513.9 511.5 509.9 514.9 518.5 520.8 524.4 528.7 531.3 530.6 525.7 521 518.1 515.2 514 513.4 512.8 511.4 507.5 505.3 507.2 512.5 516.4 518 516.7 515.4 513.1 509.5 503.3 500 499.9 497.8 496.3 497.8 499 501 501.7 500.3 500.7 499.1 493 484.4 467.5 465.6 472.7 470.6 468.4 467.8 466.6 467.9 459.3 442.1 431.5 424.7 413.9 399.9 396.3 405.4 418 431.7 448.1 467.1 477.8 484 488.3 491.9 492.5 489.4 482.2 459.7 437.5 418 394.5 369.6 351.8 345.2 334 317.5 301.7 286.6 265.9 274.3 284.1 296.8 316 343 360.3 374.4 403.7 429.7 455.8 478.9 488.5 495.7 507.3 513 517.9 525 533.8 537.6 538.9 542.4 548.5 552.6 555.7 562.2 570.6 578.5 585.5 585 583.6 581.2 579.1 573.3 564.2 557.6 551.3 545.5 546.5 538.4 534 532.2 531 528.9 526 522.1 517.5 511.5 506.3 504.1 503 504.4 505.8 505.5 500.6 497.1 491.9 486.2 479.9 471.3 458.7 447.7 437.9 414.8 406.6 406.8 415.1 428.6 441.3 456.2 470.7 481.4 491.2
446.2 446.4 445.9 447 447 448.7 448.3 453.2 459.7 455.9 444.5 411 385.2 362.3 344.4 329.2 321 320.4 319.9 319.4 318.8 323.3 345.6 372.6 401.4 434.4 479.2 527 543.3 549.3 552.7 550.1 550 541.4 535.6 534.2 525.1 514.4 512 510.1 511.4 512.2 514.4 518.3 519.4 520.2 520.3 518.8 515.3 514.2 521.2 524.4 525.9 530.7 534 534.7 533.7 528.8 524.7 521 518.5 517.4 516.8 516.2 514.7 509.6 511.4 514.3 520.5 523.2 523.9 521.4 518.1 515.1 509.7 506.3 505.5 503.3 500.3 501.7 507.6 510.1 508.7 509.3 511.1 510.3 507 499.3 487.7 485.8 477.9 478.7 477.1 475.3 475 472.8 472.1 462.5 448.3 436.8 429.3 417.6 403.3 393.5 392.4 396.9 402.1 414.2 431.4 448.9 458.3 473.2 480.8 481.3 475.8 455.3 435.9 418.8 404.3 388.3 368.4 349.7 340.1 332.3 321.8 305.7 293.4 276.2 263.8 268.9 279 293.4 310.7 333.7 366.1 398.8 429.5 460.7 483.6 490.2 499.5 506.2 513.1 521.1 528.6 533.1 534.6 538.2 543.2 549.7 554.3 557.2 565.1 573.2 578.9 581.9 578.9 579.1 579.4 576.8 569.8 563.8 557.8 550.8 544.9 539.8 534 529.7 528.1 526.8 524 521.2 520.5 514.2 505.5 503.8 502.9 499.7 504.8 503.7 499.3 496.8 493 487.5 483.8 477.7 470.4 460.8 446.5 436.4 413.9 403.2 406.8 418.5 430.5 446.1 463.6 476.4 487.2 493.6
457.8 457.3 458.6 458.7 461.2 462.8 464.3 470.8 473.2 472.9 466.8 439.9 398.6 369.7 349.6 335.6 323.2 321.7 320.8 320.2 319.6 322.9 340.5 365.9 393.5 426.1 468.4 524.3 540 544.4 547.5 546.3 545.3 534.8 531.6 525.3 516 514.3 513.3 514.7 516.8 518.5 521.2 523 524.7 525.1 525.1 523.9 518.4 520.3 526.2 530.5 533.3 537.8 540.1 539.9 539.2 533.2 528.6 524.9 522.6 521.3 521.4 520 515.6 512.8 516.3 521.9 526.4 529 527.3 525.3 522.8 517 513.4 511.4 509.5 506.5 506.8 508.7 513.1 517.3 520 520.4 518.1 517.4 512.8 504.8 501.7 497.4 489.4 489.1 489.3 485.4 483.3 478.8 473.5 458.4 449.1 440 434.2 425.3 412.9 402.3 385.1 379.7 376.4 380.9 392.2 402.6 418.3 434.9 452.5 460.2 439.8 425.1 413.5 403.8 391.7 375.2 358.1 341 332.5 326.4 320.5 308.5 297.8 285.2 265.5 263.4 267.2 278.6 298.6 326.3 357.5 392.5 424.5 456.6 474.5 488.6 499.6 507 512.2 521.1 525.3 528.2 531.9 541.1 543.5 545.5 553.1 559.7 569.5 575.4 580.2 581.2 576.4 575 577.7 574.1 569.6 562.1 556.2 549.3 542.6 538.2 531.7 530.6 529.3 529.7 524.1 522.1 518.8 508.1 506.5 505.8 503.2 491.5 497.8 498.1 492 492 489.4 484.5 482 475.4 468 458.6 445.5 430.5 408.9 402 413.3 424.2 434.6 449.7 468.7 483.5 492.1 497.3
470.2 477.6 475.9 476.8 475.6 480 483.1 480.2 479.4 477.4 468.6 452.8 405.6 377.3 354.3 340.9 326.7 323.8 322.5 321.3 320.2 321.2 333.7 359.5 386.9 418 462.3 526.8 532.7 539.8 539.7 536.7 535.7 529.7 522.8 516.1 514.9 514.8 519.8 521.1 521 523.5 527.3 529.4 531 531 531.6 527 522 526.9 532.4 538 540.5 545.8 549.2 548.2 545.3 538.1 533.8 528.8 526.7 526.7 525.3 521.1 516.9 516.7 520.8 528.2 531.1 532.4 531.1 535 530.8 521.6 517.4 514.5 511.9 512.1 512.6 515.4 521.4 526.6 530 532.1 528.7 523.6 515.3 514.4 512.1 506.1 501.5 501.8 500.6 493.4 486.4 481.6 480.7 471.7 452.7 438.7 434.4 427 415.6 404.2 394.1 370 348 344.6 350.8 367.3 383.2 398.1 410 416.9 407.8 399.4 394.7 390.2 380.1 364.6 344.6 333.5 325.8 319.6 313.2 307.1 297.6 286.4 265 261.4 263.1 271.1 288.8 315.3 344.4 376.7 407.8 439 465.2 480.7 494.6 504.5 510.3 518.6 520.7 523.2 530.5 540.5 540 541.8 548 561 572.7 576.7 578.3 579.6 575.8 572 571.1 570.3 566.4 562.4 554.2 547.2 543.2 536.7 531.4 531.4 530.5 526.9 524.4 519.5 513.3 508.1 506.9 505.5 496.2 484.2 488.7 487.7 486.3 486.5 485.1 481.6 478.5 471.2 464.9 457.1 444 427.1 409.4 399.1 417.2 426.4 437.8 454.6 471.5 486.6 496 502.6
491.4 493.1 495.5 495.9 497.1 492.9 490.4 483.2 479.3 472.3 463.1 448.5 420.5 385.4 357.9 343.1 330.5 325.5 324.4 323.2 320.9 322.2 330.3 352.5 378.7 409.5 450.9 486.5 520.6 533.8 528.1 530.1 527 520.5 515.3 514.5 515.7 521.7 524.4 525 525.8 529.8 532.7 535 536.2 537.2 534.3 532.4 532.9 536.5 540.3 543.9 551.3 556.2 558.4 555.2 550.6 542.5 536.7 531.4 530.1 530.1 527.6 523.8 522.6 524.7 530.3 534.1 536.7 536.3 539.2 540.1 535.1 525.9 523.5 521.7 522.6 523 521.4 523.3 527.2 533.8 538.7 538.9 538.3 534.5 524.1 524.6 522.4 517.7 515.1 510.4 507.1 500 487.8 486.4 490.3 476.5 458.8 444.2 434.4 428.8 419.8 413 399.5 373.6 344.2 307.8 316.3 332.4 348.8 361.3 370.3 376.9 376.5 377.5 380.1 378.3 370.7 357.8 339.7 325.9 318.7 311.2 305.3 298.9 289.9 277.5 260.1 260.7 260 262.2 277.9 299.8 327.2 353.5 381.5 413.3 443.9 465.5 483.3 497.4 505.1 506.1 509.7 516.2 529.1 536.1 537.7 537.7 542.1 557.4 572.1 575.6 576.1 577.9 572.1 567.8 566.1 565 563 557.2 551.7 544.7 538.9 531.8 529.2 530.5 526.9 522.9 520.5 516 512.3 509.8 506.4 498.3 490.7 480.7 480.7 482.3 480.8 480.4 477.5 475.2 472.2 465.9 460.9 454.9 440.2 416.4 404.2 400.6 413.7 426.6 439.8 460.7 478.5 489.7 500.3 508.3
511.3 512.3 510.1 508.5 502.9 498.2 489.8 479 472.9 464.4 454.3 442.5 418.5 386.7 361.8 344.5 332.3 327.3 325.8 323.9 321.2 323.9 326.8 344.1 369.8 397.8 427.9 461.9 505.1 519.3 516.5 517.8 511.4 510.6 510.4 514.1 521.8 525.6 526.9 528.3 531 534.7 537.5 540.2 542.1 542.6 540.3 542.8 546 547.8 548.7 554.8 561.8 565 564.2 559.5 553.8 544.5 538.7 535.8 536.2 535.4 532.7 531.4 532.4 534.3 537.5 539.1 539.6 539.9 541.1 539.2 534 528.8 528.1 529.8 532.1 532.8 532.3 532.4 536.2 540.6 543.2 543.1 543.1 541.9 534.9 530 526.7 525.4 518.7 514.3 510 501.7 493.4 493.1 490.4 474.5 462.3 455.3 447.5 437.6 429.1 421.3 406.7 378.6 344.7 310.4 292.2 299.5 310.9 321.6 333.1 341.3 349.1 358.3 365.1 366.5 362.9 352.4 331.5 314.1 307.2 299.5 294.1 288.2 276.9 262.9 257.4 257.9 258.2 258.6 266.7 285 309.2 335.9 359.7 390.1 422 453.7 470.6 480.8 483.4 487.4 496.2 507.5 524.2 528.3 531.9 536.9 539.1 551 565.5 569.2 566.4 566.9 561.9 561.9 559.5 558.7 555.3 548.4 547.6 539 536.2 529.9 527.7 524.5 523.1 522.3 519.1 517.5 512.9 510 503 495.4 486.6 479.1 472.9 476 475.7 472.9 467.1 465.8 462.3 456.4 454.3 448.4 436.2 416.9 399.6 395.8 409.8 426.2 442.7 463.5 480.2 492.6 504.3 511.7
528.1 522.5 519.5 512.7 502.9 494 483.4 473.7 464.5 456.1 446.7 434 412.9 387.5 364.6 348.4 337.7 330.5 327.6 325.3 321.8 326.2 328.9 337.5 360.2 384.6 407.9 439.3 480.7 499.7 497.2 501.1 502.2 505.8 512 521.6 528.9 529.6 529.9 532 535.7 538.2 540.9 544.6 546.1 546.6 549.4 552 554.9 557.7 561.1 565.7 569.1 570.4 567.3 561.4 550.8 547.4 546 546.7 545.4 542.1 539.2 539.1 539.8 540.4 540.9 540.9 541 541.1 539.5 536.7 534.6 533.1 534.5 538 540.6 541 540.3 540.5 542.7 545.7 546.3 546.8 547.8 547 541.8 535 531.1 527.9 522 516.9 509 501 496.7 496.4 490 480 473.2 465.9 457.5 446.7 437.5 426.7 406.1 380.5 351.1 315.8 292.1 286.9 287.9 290.8 296.9 306.7 316 324.2 334 341.4 347.2 344.4 328.2 303 293.8 287 281.9 279.5 265.8 257.7 257.1 257.1 257.2 257.3 258.3 272.4 292.1 316.1 341.6 369.3 402.4 435.2 448.1 457.6 463.5 471.8 486.6 501.4 514.7 524.4 527.9 532.8 538.7 550.1 562.7 560.6 554.3 550.7 552.1 556.6 553.5 549.9 546.6 542.4 538.8 534.7 530.6 530.5 525.6 516.6 516.9 517.8 519 515.4 512.3 508.4 502.7 492.8 487.5 484 474.2 470.5 465.2 459.8 457.1 455.5 451.7 448.4 445.2 441.2 428.7 412.3 394 396 412.7 427.4 446.7 465.2 480.9 492.1 504.1 514.3
538.8 532.9 524.6 514.2 501.5 488.3 475.6 465.5 455.8 445.5 435.8 424.4 408 386.3 365.6 350 336.8 331.9 328.9 325.8 324.3 325.7 330.8 337.6 350 369.2 398.7 421.3 449.4 480.5 491.7 494.1 501.7 509 515.2 525.7 530 531.5 532.7 539 542.3 545.8 546.8 551.1 552.1 553.7 558.5 562.8 566.5 570.6 573.7 577.8 579.5 575.8 566.4 558.7 554.7 552.6 553.6 553.5 550.6 546.8 544.3 542.6 541.2 540.5 540.9 540.5 539.5 537.9 536.6 536.3 535.1 537.5 539.6 543.1 545.5 544.7 543.5 543.8 545.4 546.1 547.5 549.5 549.4 548.9 545.8 542.5 537.8 533.5 527.4 518.8 507.3 501.2 501.7 498 491.6 487.7 482.7 476.2 468.6 458.4 443 420.3 401.6 377.4 355.3 321.7 303.8 286.8 285.6 285 284.9 283.7 285.4 289.2 297.4 308.1 316.1 319.7 306.3 287.3 275.2 271.7 268.8 265.8 259.4 256.9 256.7 256.6 256.4 256.2 256.1 262.9 277.2 298.2 320.2 346.7 378 403.4 425.7 436.1 451.3 478.3 493.8 509.5 522.3 528.9 530 535.3 543.8 552.5 561.3 557.5 547.1 546.4 548.5 551.8 551.2 545.1 541.3 536.8 533.8 530.9 528.5 525.7 521.3 513.5 510.1 511.8 514.3 513.1 511.4 505.3 496.2 489.8 488.6 489.8 480.8 476.4 474.9 467.8 460.5 449.4 441.9 438.5 437.6 430.4 418 405.1 389.1 397.6 415.2 431.3 451 469.1 482.5 493 502 511.7
548.5 540.8 530.8 516.5 502.1 488.7 476.9 466 457 445.1 434.1 421.2 403.3 384.6 366.9 354.9 342.4 334.6 329.8 326.8 325.4 327 332.6 342.9 362.1 388.8 419.1 445.5 451.2 475.3 480.3 492.3 502.7 509.6 517.6 526.9 534.1 534.1 537.4 543.5 546.9 550.1 554 557.3 560.7 565.9 569.9 575.1 581.8 586.4 588.2 589.1 587.3 581.1 567.4 564.2 558.7 557.5 558.5 554.8 551.7 548.5 545.7 542.8 540.6 540 539.8 538.5 537 535.5 534.4 535.2 536.7 538.8 542 545.5 546.4 546 545.6 544.1 545.2 545.7 546.6 547.9 550.7 548.8 547.9 546.6 543.8 540.5 533.7 526.4 515.5 513.1 510.7 503.1 500 494.5 489.1 481.7 472.5 465.6 459.1 439 408.6 385.9 363 334.4 310.1 290.6 283.7 282.6 281.4 281.5 279.8 277.1 277.5 276 276.6 274.2 273.1 261.3 259.2 259.8 258.7 258.2 257 255.6 255.6 255.5 255.5 255.4 255.5 257.6 265.8 282.2 303.7 324.9 346.7 369.3 389.5 431 469.1 488.1 499 514.1 523.7 534.4 539.6 545.3 550.3 556.4 558.7 549.9 544.6 545 545.9 548.6 549.6 544.1 538.1 532 529.1 526.9 525.1 523.5 521.5 512.5 508.3 506.6 507 507.2 501.3 499.6 494.3 490.3 492.4 489 484.4 478.6 474.9 469.7 461.6 454.3 447.9 436.4 418.2 410.5 405.3 399.1 387.1 401.3 418.2 439.3 457.8 473.7 485.2 495.3 504 509.3
555.8 545.9 534.5 519.5 506 494.1 480.6 469.1 460.1 449.2 438.2 422.8 405.5 387.1 373 359.2 345.9 337.5 335.6 328.6 325.6 330.6 340 353.4 374.9 404.4 436.6 455.9 462.7 468.6 483.1 494 504.7 513 523.4 531.2 534.6 536.5 541.7 547.1 551.4 556.4 560 563.5 568.5 575.5 581.9 590.6 599.2 600.4 598.6 594.6 589.8 580.9 567.5 561.5 561.2 561.6 557.7 553.4 550.4 548.4 544.6 540.9 537.7 536.2 535.8 534.5 533.2 532.5 532 531.3 534.2 537.8 542.5 544.8 545 544.4 543.3 543.3 544.5 543.5 544.6 547.7 550.7 548.8 548.7 547.9 546.5 544.2 537.4 531.7 522.4 519.3 518 513.4 509.7 504.1 495.9 487.8 478.1 473.4 470.3 458.3 426.4 402.4 380.7 350.4 322.2 304.1 290.5 287.6 289.4 289.9 290.4 292.3 287 279.3 278.8 276.2 270.9 266.7 261.2 259.6 255.8 255.2 254.9 254.7 254.8 254.8 254.7 254.7 254.9 255.6 260 267.2 283.3 307.1 323.7 352.6 396 434.3 464.5 488.4 503.8 512.2 519.5 531.1 534.7 539.2 551.1 556.8 555.1 546.1 543.3 543.5 545.2 550.2 546.4 541.9 535.8 529.1 526.7 524.1 521.7 519.8 517.3 511.8 508.8 508.2 501.3 497.9 499.4 496.4 487.3 489.6 489.4 485.9 483.3 478 473.3 469.2 463.1 455.4 448.1 438.2 423 410.4 400.2 390.7 387.4 403.6 422.9 445.3 463.4 477 488.2 494.6 500.9 505.1
561.9 549.8 538.5 523.8 513.2 503.6 489.5 479.2 468.7 457.7 442.9 428 408.4 390.1 375.1 362.1 349.3 341.8 336.5 328.3 332.9 336.7 345.8 360.1 385.4 418.1 442.4 461.5 474.3 482.3 489.2 498.3 509.4 519.3 528.4 532.8 535 540.2 544.5 550.2 556.7 561.8 565.2 570.8 577.8 586.3 597.8 606.6 610.9 612.3 607.3 599.5 587.1 574.9 562.6 561.3 563.8 559.4 555.3 549.2 548.3 544.5 540 536.2 533 531.8 529.8 528 526.2 527.5 527.5 527.2 530.6 535.2 540 541.7 542.5 541.8 541.3 541 539.5 538.1 540.8 546.5 547.4 547.5 549.1 550.1 550 545.7 540.9 536.2 527.6 526.5 525.4 521.6 516.9 510.5 503.5 494.8 486.2 484.9 482.8 475.7 450.3 425.2 402.7 376.8 346 323.8 306.4 301.2 305.5 315.5 316.1 317.6 311.3 300.1 296.2 289.8 286.2 283.3 264 260.6 256.7 254.5 254 253.8 254 254.1 254 253.9 254.3 255.7 257.3 264.6 276.8 293.8 318.8 350 385.2 424 459.9 490.7 505.7 518.6 526.2 525.9 530.7 532.1 546.2 553.1 545 541.8 541.8 542.4 544.5 548 547.4 542.7 538.8 531.1 526.4 523.8 521.3 517.3 514.3 511.9 507.2 503.9 499.4 494.4 490.3 485.3 480.3 483.9 481.4 481.9 476.4 472.6 469.2 466 461.9 454.3 444.4 436.2 425.1 410.1 401.4 388.7 389.4 405.7 426.9 451.6 469.6 478.6 486.4 491.4 495.6 498.9
568 555.1 543.6 532.8 519.2 511.4 497.9 485.6 478.1 462.1 448.5 430.4 408.6 389.5 373.8 361.5 351.1 341.1 332 333.2 339.9 346.6 351.8 370.1 395.5 420.1 447.9 467.9 476.6 483.7 494.8 504.9 515 524.8 530.4 533.4 536.2 541.1 546.6 554.5 560.8 565.6 574.8 580.1 590 602.4 612.5 617.2 619.1 616.8 608.4 599.7 580 570.6 561.1 559.4 559.1 553.2 548.9 545.4 541.8 537.7 532.9 528.3 524.4 522.3 520.6 518.9 519.5 521.5 522.1 520.7 523.9 529.9 534.5 536.9 537.2 536.6 535.5 534.6 532.9 533 537.9 542.1 544.2 546.7 548.9 547.9 548.1 547.8 544.4 540.5 534.9 533.7 532.4 528.9 522.9 516.4 509.2 501.2 497.3 497.4 496.1 488.3 467.2 450.7 430.8 406.1 381.4 362.8 341.9 336 333.5 347.9 351 351.8 341 328.8 321 315.3 310.4 307.4 279.3 263 256.2 254.8 253.6 252.9 253.1 253.2 253.3 253.2 254.2 254.2 255 261 270.8 286.3 310.9 340.5 376.4 421.2 456 480 503.2 517.4 526.4 529.6 533.2 533.9 541.8 544.5 540.7 539.4 540.8 542.2 542.3 542.7 545.3 543.3 543.6 537.2 528.2 529.7 527.7 522.4 518.6 515.1 509.3 507.7 498.4 492.7 489.3 479.5 470.5 473.9 474.5 473.7 468.9 466.2 462 460 455.4 447.3 439.5 433.8 423.3 411.6 404.8 392.5 384.8 400.6 426 451.2 466.7 476.6 483.1 486.9 488 489.7
571.5 560 547 533.7 521.8 512.9 500.2 488.3 477.9 465.2 450.2 429 407.3 387.7 371.7 360.5 351.3 341.2 331.5 339.6 348.1 356.9 367.2 381.3 399.4 425.5 451 468.2 477 484.9 497.1 509.1 518.8 524 530.2 532.8 537.6 544.1 550.5 558.5 564 573.6 580.7 591.1 602.9 614.4 621.6 622.6 620.4 615.1 602.4 587.4 573.2 569.4 558.4 554.1 550.1 545.9 540.9 537.5 532.7 527.8 523.2 518.3 514 511.6 510.2 509.2 508.2 511.1 511.8 512.5 515 520.5 526.6 528.5 528.7 529.8 529.9 528.2 526.3 526.7 532.6 537.9 540.8 544.3 544.3 545.1 547.1 550.2 549.2 546.1 539 539.4 538 535.5 529.1 522.3 514.9 511.3 508.8 510.3 509 500.7 476.3 466.7 451.4 433.4 419.6 406.3 388.1 376.5 372.4 381.1 386.6 388.3 378 360.6 351.4 344.2 339 327.1 302.7 278.1 256.6 254.9 254.7 253.6 252.2 252.3 252.5 252.7 252.7 252.7 253.2 255.6 261 273.1 301.9 328.8 364.8 405.2 442.5 471 498.1 511 519.2 524.5 531.3 538.4 536.7 532.8 531.5 533.4 538.3 540.6 541 543 544.4 545.8 545.3 545.2 542.2 538.9 534.8 529.9 524.8 518.3 509.9 510.3 500.8 494.6 484.3 471.4 465.6 465.7 466.6 461.1 458.1 455.2 450.3 447.5 442 437.4 433 427.8 415.5 408.3 403.6 393.2 379.9 393.3 418.1 440.7 458.8 471.1 477.8 481.1 481.9 483
572.4 560.6 547.4 534.1 521.2 512.8 499.4 486.8 476 461.9 445.4 425.1 403.3 385.3 370.3 358.9 351.1 341 333.8 345.8 354.8 366.9 380.7 393.6 404 428.2 450.7 467.1 476.2 489.9 500.5 509.9 516.5 523.5 530.1 531.9 537 544.6 553 559.9 569.9 577.3 586.3 598.5 614.3 622.4 623.4 620.5 615.1 606.3 594.2 574.2 566.2 561.2 554.3 549.1 543.5 536.9 530.6 526 520.3 516.1 510.8 504.9 501.7 500.5 500.4 499.4 498.6 499.2 501 502.7 506.7 510.6 514.7 516.1 518.6 520.5 521.2 519.9 519.4 522.4 527.6 530.3 536.2 541.2 540.4 542.5 548.2 553.4 554.8 551.9 546.4 544 543 541.3 533 527.6 522.4 520.1 518.9 521 519.4 505.8 484.3 482.4 472 453.7 443.4 435 429.7 423.6 413.5 411.9 426.6 430.6 424.5 401.6 392.9 383.6 372.7 353.9 332 300.1 267.8 257.4 256.2 260.8 255.7 251.4 251.9 251.7 251.4 251.2 251.3 252.6 255.3 264.6 289.8 318.1 348.7 387 423.7 459 480.4 498.4 504.9 514.9 525.9 532.7 533.2 533.6 529.6 528 529.9 532.8 537.9 546.5 548.2 549.7 549.3 550.3 547.3 540.5 538.5 534 528 522.1 512.8 509.2 501.8 499.3 489.9 476.8 466.9 463.8 460.3 453 447.4 441 437.9 433.9 430.8 430 426.9 419.7 409.9 404.3 399.3 389.9 376.8 387.6 408.2 430.7 450.6 464.7 473 475.3 476.8 479.2
570.2 557.5 545.4 531.1 520.7 506.8 495 483.8 470.2 456.3 439.5 420.7 397.8 382.1 369 357.7 349.3 337.4 342.7 350.7 361.9 375.3 392.6 408.2 421.8 429.3 449.3 463.8 476.7 489.6 500.2 509 514.5 522.2 523.4 530.2 537.5 546.7 555.1 561.5 569.7 575.7 585.4 603.6 616 620.3 618.3 612.2 604.7 593.1 579.4 563.1 556.3 550.8 547.5 541.8 534.3 526.1 518.1 513.2 507.6 503.7 497.4 492.3 488.6 490.4 489.9 489.9 489.2 488.8 489 494.5 498 503.7 507.4 508.5 508.9 511.2 512.6 511.9 514.7 517.7 521.5 524.1 531.2 534 536 539.9 549.5 555.9 559.3 558.3 553 552 549.7 545.5 539.4 533.7 530.5 530.6 529.1 530.4 527 516 503.1 494.8 481.8 465.7 460.2 456 454.5 457.4 455.8 450 457.1 466.6 458.9 448 444.5 428.4 414 392 362.5 326 290.7 275.7 264.4 257.6 254.6 252 250.7 251 250.8 250.4 250.5 250.3 252.8 260.2 279.9 301.8 334.9 365.4 405.6 434.9 455.1 479.1 495.2 509.5 519 525.2 527.7 527.3 525.9 525.7 526 527.6 538.1 541.8 548.2 551.5 554 555 554.8 552.4 540 535.9 529.8 524.2 518.4 514.2 506.5 501.1 495.6 485.1 475.7 472.2 465.9 461.2 454.1 445.9 435.8 429.7 425.9 422.4 416.2 411.1 405.7 398.6 392.3 385.2 375.4 380.4 399.4 422 439.1 453.5 463 467.3 472.7 474.8
570.2 555.9 543 529.1 517.1 501.9 490.4 476.7 465.5 449.2 433.5 415.8 393 378.2 367.4 357.6 344.3 341.1 347.6 355.6 368.5 384.8 402.8 420.6 436.4 446.5 451.4 461.1 475 488 499.2 507.2 513.5 517.2 520.3 529 536.2 543.8 552.5 560.3 566.3 572.1 584.1 595.2 605.4 607.9 606.5 601.4 591.3 578.3 564.8 554.2 548 544.2 539.6 532.4 524.1 515.6 510.5 505.4 498.2 491.8 484.7 480.9 478.1 481.7 479.9 479.7 480.7 480.9 479.2 483.8 489.2 495.7 500.7 502.8 502.2 504.7 503.9 506.3 509.1 512.2 517 519.4 525.3 531 533.8 538.4 549.1 557.2 561.4 561.2 559.1 561.8 557.4 549.8 546.9 542.7 541.5 539.1 537.1 537.7 531.3 525.2 513.6 505.5 495.7 481 476 476.4 479.4 482.2 481.7 478.4 478.2 489.4 489 487.9 485 471.4 456.9 439.1 405.6 349.8 315 298.3 281.8 265.3 255.6 252.8 250.7 250.2 250.2 250.4 250.8 250.3 250.3 256.3 271.6 292.2 319.1 349.9 377.8 408.3 435.1 460.2 481.5 500.5 511.9 520.6 522.9 523.2 522.9 523.9 524.2 526.6 533 539 543.9 551.7 552.2 558.9 558.4 554.6 544 538.6 533.7 528.4 521.8 513.1 511.2 505.6 496.7 489 480.9 476.4 471.2 465.3 461.3 455.4 446.5 439.8 434 426.5 420.1 414.8 405.1 397.7 392 385.8 376 375.7 390.8 408.8 425.9 442.7 456.1 460 465 469.7
568.4 552.1 541.2 525.7 511.6 497.8 483.9 470.7 457.3 440.1 427.3 407.1 386.8 374.3 365.3 356.6 340.5 345.1 352.7 361.8 375.9 393 411.5 432.1 447.8 457.8 462.9 465.7 472.2 485.1 493.7 500.7 506.1 507.8 517.8 527.7 535 543.4 548.7 556.3 560.8 568.1 578 585.1 593.8 595.2 590.9 585.9 575.5 561.3 551 547.5 539.3 535.6 531.4 522.4 515.1 508.9 504.4 497.9 490.4 482.1 473.1 469.1 469.4 469.7 469.7 472.2 474.1 474.5 473.8 477.2 483.3 487.2 492.4 495.1 493.8 494.3 494.9 497.9 501.2 506 511.4 519.1 524.8 528.6 530.4 537.6 549.2 558.9 562.7 563.4 564.3 563.7 558.8 552.9 551.3 550.3 546.1 545.8 542.9 541.4 535.5 529.6 518.2 513.6 507.3 497.3 493.3 493.8 498.8 498.5 496.6 490.9 490.5 500.1 505.7 504.8 502 496.1 488 465.8 428.8 381.1 344.6 328.6 301.6 285.7 263.3 252.8 250.6 250.3 250.3 250.3 250.3 250.3 250.3 253.9 264.6 282.8 304.6 336.7 365.2 393.5 419.4 445.6 475.7 497.8 511.2 517.8 521.3 520.7 520.6 517.6 518.3 524.7 533.3 543 546.9 548.1 548.2 552 558.5 549.8 548.1 539.9 530.8 527.9 517.3 512.9 515.2 509.3 499.5 490.2 483.8 479.5 476.6 470.7 465.1 460.4 451.9 444.7 438.5 434.4 429.6 424.6 419.4 408.3 397.1 391.6 384 371.3 381.9 396.4 414.9 432.3 439.8 447.6 457.5 465.6
567.3 551.5 535.7 519.9 505.9 493.9 478.4 464.1 448.2 433.3 420.2 397.4 381.9 370.1 362.9 354.9 344.7 350.2 358.2 368.5 383.5 401.7 419.9 440.3 457.9 466.7 473.2 476.6 476 479.1 485.4 489.6 497.1 508.4 519.8 529.9 538 543.2 548.8 554.4 559.8 564.3 569.4 577.3 581.6 582.1 576.6 567.1 558.3 546.5 539.5 536.2 529.7 528.6 522.8 516.2 509.6 505.1 500.1 490.6 482.2 474 465.8 458.5 459.6 458.5 460 463 464.6 465.9 465.1 469.7 475.4 478.6 484.4 484.7 484.8 485.2 488.1 492.1 496 500 506.5 513.5 517.6 522.6 529.3 537.9 547.1 557.3 563.6 565.4 564 563.6 558.6 553.9 552.8 551.4 547.3 547.3 543.6 543 537.9 530.2 522.5 519.8 517.6 512.6 506.9 506.6 507.4 507.6 506 504.2 505.5 511.2 512.6 512.6 508.5 501.9 497.1 481.6 450.7 412.2 381.5 362.1 334.2 304.5 282.9 257.8 250.3 250.3 250.3 250.3 250.3 250.3 250.3 252.2 261.2 276.7 297.1 324 352.4 381.7 409.1 440.9 473.4 497.2 508.1 513.6 515.6 516.3 511.8 512.3 515.7 523 535.5 543.7 549.3 548 549.3 549.8 548.2 548.1 549.9 544.1 532.3 522.4 515.5 513.8 516 510.1 502.9 495 492.8 484.6 479.3 476.3 472.4 464.9 456.3 449.3 444.3 438.8 434 428.5 422 417.8 403.9 395.4 388.7 377.3 374.1 389.2 405.6 416.4 433 447.1 459.7 467.5
565.2 549.6 533.5 518.7 505.1 490.4 474.3 457.3 439.3 425 410.2 389.5 376.6 367.9 356.5 344.4 353.8 362.3 367.4 375.6 390.6 411.1 430.6 452.4 468.7 473.9 482.3 487.7 488.9 490.4 491.6 495.1 504.1 513 525.8 535.2 541.2 548.2 551.5 554 559.4 562.6 565.2 568.6 567.9 563.4 557.8 552.1 547.3 534.4 531.7 525.1 520.6 520.6 513.6 508.8 504.6 499.4 491.5 483.4 475.8 467 461.4 453.5 449.4 448.9 447.6 451.2 453.6 455.4 454.9 460.9 465 468.7 473.2 473.4 476.9 478.1 481.3 484.6 489.7 495.3 500.4 505.9 509.4 515.8 525.1 534.6 542 551.3 559.7 563.8 564.8 565.8 558 553.4 549.7 547.5 544.3 544.8 542.9 543.2 539.9 530.2 526 524.8 525.5 521.6 516.2 517.3 519.4 514.7 513 511.9 516.1 517.2 517.1 515.7 510.5 505 500.2 490.4 474.8 444.2 415 394.5 362.5 324.9 303 273.4 252.6 250.3 250.3 250.3 250.3 250.3 250.3 251.3 258.2 267.8 290.2 310.1 344.9 377.7 407.7 436.7 468.3 491.3 503 509 510.3 505.5 507.5 512.9 516.8 521.9 532.6 539.2 545.9 544.8 552 556.6 551 547 545.5 542.4 532.8 522.2 515.5 514.4 516.8 511.5 508.3 506 501.3 493.3 488.5 484.3 479.4 475 466.8 457.8 450.3 443.8 438.2 431.3 424.9 420.1 408.7 397.7 390.3 377.6 370.3 386 400.7 421.6 440.2 452.5 462.2 470.8
561.2 546.6 532.4 519.8 506.7 490.3 473 452.7 431.5 415.3 397.4 382.7 373.1 365.5 359.7 352.7 361.4 370 380.1 389.3 403.7 422.6 447.6 463.6 473.9 479.5 486.8 492.3 494.3 492.6 498.5 502.6 508.9 518.5 530.6 541.2 548.2 553.5 555 558.9 560.2 561.6 563.3 561.2 558.7 553.4 547.4 541.3 532.7 522.6 521.1 516.8 513.3 511.7 504.2 501.5 496.3 490.2 482.9 477.7 469.4 461.1 455.1 448 443.1 437.1 440.2 443.4 444.7 443.9 448.1 451 454.3 455.2 458.3 457.8 461.8 469.2 473.2 477.1 484.1 490.5 492.2 496.2 503.9 513.3 520.7 527.5 535.9 547.6 553 558.9 561.1 561.8 556.5 552.5 546.5 543.1 539.9 540.4 539.8 544.7 540.4 530.4 528.6 528.7 529.1 526.1 523.2 526 526.4 522.5 519.8 517.3 521.1 521.7 520.2 516.8 510.5 506.1 499.6 491.4 481.3 462.1 436.4 419 386.6 347.5 320.1 291.6 260.4 250.3 250.3 250.3 250.3 250.3 250.3 250.3 255.3 264 283.1 303.7 333.9 367.5 402.7 430.7 463 487.6 499.3 501.1 502 504 507.7 507.7 510.5 517.6 527.5 531.2 536.1 545.1 550.2 552.7 555.4 555.5 547.4 536.2 528.5 524.6 517.4 517.7 518.9 517.1 514.3 512.3 506.7 500.6 496.2 489.3 484.2 481.4 475.9 466.7 455.5 448.3 441.1 433.5 426.9 420.2 410.6 398.4 389 374.2 366.1 382.6 399.1 421.5 441.8 454.7 464.1 469.4
557 543.4 530.7 518.5 504.7 488.7 466.8 447.4 426.1 408.8 392.5 379 370.1 362.2 354.5 357.8 369.8 382.2 395.1 403.4 419.5 438.1 461.2 470.5 476.4 485.4 494.1 498.8 496.9 500 505.2 510.9 518.3 526.8 537.7 547.8 554 556.5 559.5 562.5 562.3 558.3 556.5 554.1 547.6 543.8 538.9 536 519 514.6 508.9 506.4 505.2 500 495.3 492.5 485.7 480.3 475.4 469.9 463.4 453.6 445.5 443.3 438.5 432.8 434.9 436.9 438.3 437.8 439.3 441 440.7 441.4 443.7 438.8 444.1 452.1 458.9 469.2 475.1 482 481.7 486.7 499.9 509.4 515.3 522.1 531.8 543.8 549.9 552.4 558.7 557.9 552.3 549.5 543 537.9 534.8 534.6 537 543.5 541.2 533.7 530.7 533.6 534.8 530.3 527.6 531.5 531 528.3 527.6 523.7 523.2 523.3 521.2 516.7 510.8 504.6 496.6 488.3 480.4 464 444.5 430.9 411.4 370.8 325.6 298.7 269.9 254.3 250.3 250.3 250.3 250.3 250.3 250.3 252.1 260.6 276.5 296.7 322.8 357.4 394.4 426.3 457.2 485 493.3 497.4 499.8 502 501.2 502.2 502 510.4 519.7 526 535.2 543.9 546.1 552.1 556.5 558.7 551.3 538.1 536 526.4 523.9 524.4 523.3 520.7 521.1 516.2 512.7 502.4 500.3 491.7 487 484.5 477.5 468.2 456.7 447.3 440.4 433.5 426.3 419.1 411.4 395.9 385 369.3 365.5 378.5 397.5 421.9 440.6 452.4 461 466.1
554.7 539.4 527 514.6 499.4 482.1 458.1 437.6 416.8 401.4 387.9 377.3 371.8 365.6 355.9 367.2 381.2 396.2 410 420.9 438.1 457.3 473.4 480.5 483.9 494.5 502.8 505.4 504.8 511.1 517 522.5 527.9 535.9 544.2 549.8 555.6 559.6 564.2 567.3 564.5 555.1 549.6 541.2 537.2 532.1 527.9 516.6 508.7 505 503.2 499.7 496.6 489.1 486 481.8 477 472.6 467.3 459.8 452.6 447.4 443.5 438.1 434.1 431 430.5 431.5 432.1 430.6 432.1 431.8 429.2 431.3 431.8 431.2 433.2 436.6 449.9 459.9 464.8 472.6 472.6 479 492.2 501.7 511.7 517.9 528 540.1 545.4 547.3 552.8 550.9 546.4 542.3 537.4 533.9 530.8 532.3 534.7 539 539.6 533.4 531.8 535.2 535.7 531.6 531.4 532.5 532.2 531.8 530.9 527.7 526.7 525.6 521.6 514.3 507.5 500.8 494.3 485 477 464.2 447.3 437.6 398.8 368.8 323.9 298.1 274 259.5 250.3 250.3 250.3 250.3 250.3 250.3 250.3 256.4 268.8 288.9 314.3 344.1 377.3 414.5 451.5 483.7 490.8 494.1 493.3 494.5 496.6 497.1 499.2 505.2 509.7 519.4 531.3 542 543.3 547.1 552.7 555.8 548.6 538.5 540.3 534.5 531.1 527.8 521.5 519.5 519.5 516.3 512.9 503 499.1 488.5 485.9 482.6 475.8 466.9 455.3 445.3 437 429.6 422.8 416.2 407.5 391.9 380.4 365.1 365.7 376.3 393.9 418.9 438.2 450.5 458 460.7
549.8 537.2 521 508 492.1 472.4 447.7 425.2 407.3 394.2 383.7 374.7 368.7 362.6 356.2 373.2 390.3 406.5 423.5 441.4 453.6 475.4 480.3 489.6 496.6 500.9 508.4 510.8 517.8 524 529.1 531.6 536.1 542.3 549 555.5 562.9 567.5 569.6 571.5 565.2 555.7 543.4 530.9 521.9 520.7 515.4 504.6 502.7 498.7 496.4 491.9 485.9 480.6 476.6 473.1 470.8 463.5 457.6 453.1 449.7 445.2 441.4 434.7 430.3 429 428 427.3 426.3 426 424.6 423.3 421 421.6 421 421.3 423.6 427.3 438.4 447.7 452.3 460.2 458.8 468.2 480.2 492 501.2 510.6 522.5 533.6 538.4 540.3 544 541.2 537.3 534.2 531.4 528 526.3 527 528.2 532.3 531.3 528.4 528.7 532 530.7 529.6 530.4 531 531.1 531.4 529.2 528.4 527.3 525.8 519.4 508.2 503.2 497.1 490.3 483.1 476.2 466.2 452.3 439.5 397.6 362.4 334.3 301.3 278.2 260.5 250.3 250.3 250.3 250.3 250.3 250.3 250.3 253.2 263.1 283.3 307 333.8 366.8 403.1 439.2 469.9 479.8 486.5 489.5 491 492 492 496.2 500.2 503 512 521.5 531.8 541.4 542.1 547.8 546.3 542 538.6 538.2 535.8 540.9 534.8 530.4 518.4 511 507.7 504.3 500.2 492.4 484.2 482.9 479.8 470.7 462.3 450.7 441.2 431.6 423.5 417.6 409.8 399.8 384.8 375.6 362 364.4 375.5 393.3 417 434.6 446.6 453.6 456.8
542.7 529.5 513.1 498.9 481.1 457.5 436.9 413.3 397.2 387.8 380.8 371.2 360.4 357.3 368.9 384.2 400.7 417 437.6 460.1 473.8 485.1 488.6 498.5 504.5 508.4 514 521.2 526.8 532.7 540.4 547.5 549 553.6 559.1 564.2 570.5 572.8 575.1 571.9 562.3 552.2 540.2 527.6 513.8 503.7 501.3 499.2 496.4 493.1 486.8 484.8 477.6 470 468.4 465.4 459.5 455 452.8 449.3 446.4 439.3 431.6 432.6 431 428 426.9 426 425.7 423.9 428 423.2 427.3 425.1 421.5 420.2 417.7 419 425.3 432.3 438.4 442.6 443.3 459.5 474.5 484.2 490 503.2 516.1 522.9 528.4 532.3 533.9 532.1 528.3 526.4 525.1 522.5 522.1 521.7 522.5 524.7 524.2 524.5 526.2 529.2 528.4 527.7 528.3 528.5 529.1 529.8 529 527.1 524.9 519.7 513.5 508.5 503.1 495 487.8 482.1 476 467.2 457 445.6 424.7 397.8 357.1 308.5 280.4 260.7 250.3 250.3 250.3 250.3 250.3 250.3 250.3 252.3 263.2 281 300.6 320.7 352.6 386.9 412.1 458.1 469.9 476.8 482 481.9 481.7 479.9 485.5 494.5 504.2 508.7 520.6 530.2 537.4 539.8 547.2 551.6 543.3 533.4 537.6 535.6 538.7 533.9 526 520.4 511.1 503.2 497.8 492.6 486.4 475.7 477.6 473.3 464.5 454.1 442.7 435.2 424.5 418.3 412.4 404.6 395.8 381.6 374.6 359.3 361.8 375 390.9 410.7 430 442.5 449.5 453.2
533.6 520.1 504 484.4 463.4 442.6 422 403.7 390.7 383.7 377.3 362.2 361.4 367.6 378.1 394.5 411.5 429.4 452.5 476.9 490 495.1 497 504.8 512.3 514.5 522.2 530.3 539 548.5 552.4 555.5 561.1 564.8 569.8 572.9 575.4 577.4 577 569.1 557.8 548.6 536.2 521.9 503 498.1 494.7 492.9 489.9 486 482.2 476 468.6 463.8 461.2 457.7 452.1 447.8 445.8 438.7 433.6 442.1 444.3 441.9 436.1 432.5 429.4 429.3 434.5 435.1 436.9 436 435.7 433.7 428.7 429.1 425 421.1 416.7 416.2 420 422.8 433.7 448.7 462.1 468.7 480.6 497.3 510.1 517.1 519.7 522.4 524.9 526.2 522.7 519.8 518 517.9 517 515.8 517.4 517.2 518.2 520.7 523.7 525.6 526 525.5 525.1 524.5 525.7 527.1 528.6 526.3 523.5 520.9 516.7 510.9 505.7 497.9 489.1 482.4 474.7 465.7 457.4 447.6 435.1 402.1 352.1 301.8 278.4 259.7 250.3 250.3 250.3 250.3 250.3 250.3 250.3 254.3 262.8 277 293.8 307.5 336.4 371 409.3 444.1 462.8 468 471.8 471.6 468.2 472.6 481.9 490.2 495.2 505.9 516.7 521 525.4 528.4 534.6 538.1 532.4 532.1 534.7 534.6 537.1 532.4 523.9 521 507.2 501.7 494.4 491.5 485.8 471.9 468.3 464.6 455.9 444 435.3 425.8 417.5 414.4 411.2 406.9 399.6 381.5 372.8 358.6 357 371 390.6 410 427.2 440.4 448 451.8
520 508.8 489.1 469.3 448.7 428 409.7 396.3 386.7 379.1 372 361.9 368.7 375 386.5 405.2 426.9 449.1 471.6 492.5 498.8 503.1 505.7 512.5 516.1 519.1 528.7 540 554.3 557.2 561.1 565.9 568.3 571.3 573.8 575.8 579.5 579 572.7 565.4 553.5 538.9 526.2 509.5 501 495.5 490.2 487.8 484.4 481.6 476.9 466.6 462.7 459 454.5 451.2 445.2 441.9 441.8 445.8 446.6 446.9 448.4 445.3 441.9 435 433.9 438.7 443.8 445.8 447.8 448.3 448.4 447.6 445.1 442.7 438.6 433.9 430.9 423.7 415.8 409.2 420.6 435.3 450.1 459.3 470.4 485.6 496.7 506.3 512.4 513.5 514.9 515.9 515.5 512.8 511.7 511.6 511.5 510.7 511.1 511.1 511.6 514 517.8 521.2 522.5 522 522.6 522.4 523.3 525.4 528.4 529 528.8 525.9 522.3 516.6 511.7 504 493.7 482.2 473.6 464.8 455.7 445.7 435.4 411.1 349.6 315.1 285.5 256.5 250.3 250.3 250.3 250.3 250.3 250.3 250.3 254.3 261.6 273.5 287.4 305.1 330.1 359.3 389.6 423.6 450.5 462.1 463.2 455.2 447.7 459.6 475.3 483.7 495.9 502.4 509 513.1 517.7 525.5 530.2 534 534.1 530.4 536.7 535.3 533.5 526.1 524.8 516.6 497.9 492.7 488.2 488.7 480 470.6 462.2 455.2 446.4 433.7 426 418.2 413.3 410.2 408.7 405.4 402.3 389.3 374.3 363.1 351.1 364.4 386.9 408.2 423.9 435.3 445.2 451.8
514.3 483.1 468.7 449.2 431.7 414 402.2 389.6 382.2 373.9 364.6 367.2 376.3 383.5 398 419.3 441.9 464.6 488.1 501.2 507.7 514.6 513.1 515.8 519.1 525.9 536 546.2 559.2 564.1 570.8 575.8 575.1 571.6 573.9 577.8 577.9 575.1 569.4 557.3 539.1 526.7 516.2 505.4 497.2 491.4 487.5 482.4 479 475 468.7 461.5 455.9 454.2 445.5 450 449.4 448.5 449.5 450.3 449.4 450.2 451.7 450.2 445.5 438.3 443.4 448.1 453.3 456.1 459.3 462.7 463.9 463.2 461.8 459.6 455.2 445.9 435.3 429.1 421.7 413.8 410.2 418.5 434.5 453.3 468.1 480.7 488 495.6 501.8 505.1 508.8 511.2 510.1 506.9 505.9 505.7 505.5 505 506.5 506.6 507.2 508.5 509.9 513.4 515.6 516.6 518.6 520.7 521.6 524.6 528.9 529 529.3 531.2 529 524.2 519 512.3 501.7 490.4 477.9 465.9 458.2 452.8 440.6 393.1 353.7 321.2 288.8 256.2 250.3 250.3 250.3 250.3 250.3 250.3 250.3 251.5 260.2 269 282.6 298.3 317.6 345.7 374.8 402.3 427.5 448.6 454.7 447 434.7 443.8 461.6 481.1 490.7 498.8 505.3 504.9 509.6 515.6 521.4 527.6 529.5 526.3 534.3 534.3 528 523.8 516.7 500.6 486.9 486.3 484.9 479.1 469.9 463.3 457 449 439.9 431.6 422.1 414.6 409.9 407.3 403.6 403.2 399.5 388.6 376.3 364.9 347.9 358.2 380.2 401.9 418.7 432.3 444.7 449.9
514.1 482.4 455.2 428.1 414.7 403.6 394.8 383.2 373.6 367.1 368.9 371.7 382.3 396 410.4 432.9 456.9 485.3 502 509.1 518.4 520.3 520.3 520.2 525.7 531.9 539.8 550.6 563.1 566.9 570.5 573.8 572.3 568.9 575.3 580.2 576.5 571.4 562.5 547.5 532.3 511 504.4 500.6 491 488.7 485.4 480.8 474.7 468.9 463.5 456 449.5 450.6 454.3 455.8 456.1 455.3 454.8 454 453.1 453.1 454.2 453.6 446.8 447.6 452.6 459.4 465.4 470.8 474.8 478.9 476.4 477.6 473.4 472.1 469.5 461.3 449.6 439.1 426.9 419.5 412.4 405.3 419.8 441.3 462.3 472 473.4 482.7 494.7 496.6 501.1 502.7 502.4 501.5 500.1 499.2 500.1 500.3 502 502.1 502.9 504.1 505.9 507.4 508.7 510.3 512.5 515.5 519 524.4 527.9 530.9 531.9 535.1 534.6 531.2 526.5 519.5 508.7 498.4 488.9 479.7 471.5 464.3 455.8 395.3 354.3 325.3 297 262.2 250.3 250.3 250.3 250.3 250.3 250.3 250.3 250.3 257.6 266.6 278.2 293.9 308.3 334 360.4 382.7 403.2 422.7 428.6 426.2 421 438.3 450 469.7 485.4 492.6 495.8 500 508.8 515.6 519.3 523.8 520.4 521 523.3 525.1 525 518.6 510.9 495.8 488.2 485.9 482 473.7 466.4 462.6 458.8 453.9 447.5 439.2 428.3 418.2 412.4 408.2 405.7 398.4 394.6 391.9 375.8 365.6 347.9 353.3 375 393.9 414 427.8 438.3 446.1
