ncols 200
nrows 82
xllcorner 290000
yllcorner 363700
cellsize 50
154.4 147 147.4 155.4 159 156.5 160.4 177.1 208.2 215.7 221.9 230.3 241.4 256.7 273.6 289.1 305.4 326.3 340.9 357.8 354.6 349.1 337.8 332.2 329.7 330.6 323.7 309.3 308.8 307.9 305.8 302.1 294.4 290.6 281.2 268.8 255.4 245.5 235 225.9 218.5 223.5 234.1 242 250.3 261.1 267.3 275.4 280.1 288 296.9 303 309.1 313.3 317.5 323.5 326.7 328.6 328.3 326 320.9 313.9 310.5 301.5 295.1 285.9 277.4 271.4 266.4 262.1 256.1 260.5 265.1 265.1 259 248.4 251.8 258.6 263.5 265.3 261.2 256.2 255.8 256.1 255.3 253.2 247 241.8 237.5 231.8 236.2 237.8 234.3 229.4 225.1 220.9 214.8 216.8 214.8 212.4 208.2 203.8 202.4 197 190.5 182.9 178.4 166.5 151.9 155.5 160.3 158.3 154.1 146.5 134.5 128.6 129.4 129.5 130.5 139.2 133.9 144.9 156 168.6 185 202.5 213.1 220.6 227 234.3 243.1 254.9 271.5 294.6 306.2 310.1 312.4 314.6 312.4 304.9 296.2 283.6 294.8 315.8 333.8 342.5 345.1 343.9 339.2 333.3 324.7 314.8 307.6 297.1 293.1 297 307.8 317.2 324.2 326.9 326.1 323.1 315.5 308.5 304.7 299.4 292.9 286.2 278.9 273.3 268.1 263.3 258.7 253.8 248.2 247.7 251.1 254.4 256.8 259.3 258.9 256.2 251.8 246.4 238.7 231.3 224.3 220 213.6 205.2 199.9 206.9 211.7 213.7 216.1 223.8 222.7 216.8 210.3 204.6
156 151.5 147.5 152.3 162.9 160.1 159.7 167.7 197.9 215.5 216.4 222.3 234.8 251.4 267.3 283.6 302.8 314.1 337.1 344.6 344.6 342.9 343.5 345 332.3 324.5 314.2 308.3 307.2 306.7 304.6 300.2 295.4 283.4 270.7 257.4 248.9 239.8 230.6 223.4 222.8 230.8 240.5 250.9 258 266.8 272.7 278.9 285.6 292.1 300.3 307.4 311.2 318.4 326.9 329.1 330.1 329.3 327 322.8 316.9 311.5 304.1 297.8 289.8 281.5 274.6 270.6 266.8 260.6 255.8 265.4 268.4 265.3 258.6 250.1 253.7 260.4 265.6 266.4 263 261.1 262 260.5 256.6 251.6 246.5 242.6 238.7 235.9 237.7 234.8 230.2 225.8 223.1 220.4 221.1 220.4 218.6 217 215.3 211.8 208 202.9 199.4 194.2 180.5 165.2 158.4 147.3 151.8 146.6 140.6 130.5 129.4 129.5 130.1 132.3 137.1 140.7 141.1 145.8 157.3 168.4 176.9 194.7 212.6 222.8 228.7 234.7 240.3 248.9 263 283.6 302.5 306.1 309.1 310.3 305.8 289.8 278.4 267.2 290.1 309.2 330.7 341.4 345.6 343.3 338.7 331 320.6 312.1 303.9 294.4 286.4 285 287.6 295.9 307.4 310.8 309 308.4 305.1 302.5 298.2 292.3 287.2 280.9 275.5 269.7 263.5 258 254.6 250.2 249.9 254.4 256.6 260 262.9 262.4 260.3 255.9 251.5 244.9 237.1 229.1 222.1 217.5 209.3 204.4 209.8 215.2 217 218.6 221.9 228.3 223 216.3 210 205.2
155.7 158.9 149.5 150.8 161.3 165.4 161.2 162.3 180.8 208 203.5 208.3 230.5 243.1 258.3 275.1 289.5 302.1 316.6 327.8 335.2 334.9 337.6 332.9 324.9 319.8 313 306.7 304.1 307 303.7 293.2 284.4 271.7 261.1 253.6 243.9 235.3 228.6 222.4 227.8 239.8 250 257.5 264.4 272.7 279 283.6 290.6 297.4 304.1 310.5 314.7 322 331.7 333.7 332.2 330 325.6 319.6 313.4 306.6 298.7 291.6 285.5 279.3 273 270 266.8 259.9 260.4 267.2 267.5 265.3 259.8 254.1 253.9 260 265.9 265.8 264.3 265.4 265.2 259.6 255.4 251.1 245.4 241.8 238.9 238 235.1 231.1 227.5 223.2 225.9 226.7 226.8 225.5 223.5 222.7 221.2 218.1 211.1 205.5 200.6 186.8 176.3 166.6 155.9 149.9 140.3 129.4 131.9 131.1 130.5 130.5 131.1 131.8 142.5 150.3 144.6 138.7 150.7 161.1 171.9 183.6 197.4 216 227.4 232.3 236.7 237.1 250.1 266.4 282.1 296.4 301.7 304.6 294.7 272 257.2 257.4 281.9 304.7 327.8 338.7 343.1 340.7 336.2 322.8 315.9 307.2 299.6 291.2 283.4 278 279.3 282.5 293.2 300 299.7 298.9 296.2 293.9 291.4 287.8 281.2 275.8 271.2 265.4 258 254.4 252.7 249.7 254.5 259.8 263.8 266.5 266.9 265.6 261.1 257.1 252.1 244.1 235.7 227.4 219.5 212.5 208.6 214.2 217.4 222.3 223.9 227.1 229.9 225.2 221.6 215.3 210.2 205.2
159.5 161.2 155.1 150.3 158.3 172.1 165.8 163.9 169.3 181.8 185.5 202.6 219.1 243.3 255.1 266.9 283.2 292.4 302.9 311 315.7 319.1 317.5 315.3 311.6 306.4 301.1 298.7 293.2 291.3 286.7 279.5 272.9 265.3 259.2 249.7 241.3 234 226.4 230.4 236.7 249.8 258.4 264.8 270.2 278 283.2 289.2 296.2 302.9 308.6 316.1 318.7 324.8 329.3 332.6 332.5 328.5 323.8 316.6 309.5 302.4 294.8 289.5 283.4 277.1 271.6 268.8 266.3 259.6 261.9 265.6 264.8 264 261.9 258.8 258.1 259.6 265.6 265.7 267.4 268.6 264.7 258.9 254.7 250 244.8 242.7 240.4 238.1 233.8 230.9 229.4 230 231.4 232 231.4 230 228.8 228.1 226 221.4 214.1 205.6 198.6 184.8 173.7 163.8 152.9 145.2 138.7 129.5 132.3 132 131.8 131.5 133.8 140.5 144.7 151 154.5 150.3 146 151.2 165.3 176.3 184.5 192.5 211.6 224.7 227.3 225.5 227.9 237.8 253.5 265.1 273.1 279.2 270.6 251.3 246.3 252.5 275.7 301.4 323.2 333.9 335.4 336 325.8 319.5 312.1 304.5 296.5 288.4 281.8 277.5 274.7 276.9 279.8 285.3 287.8 290.1 289.3 286.3 282.5 277.2 273.5 268.8 265 260.7 255.2 253.2 251.8 252.4 257.9 264.2 268.3 270.8 270 267.6 262.8 257.1 251.1 243.3 235.2 225 216.3 212.4 217.7 222.1 225.3 228 228.9 232.6 232.4 225.3 220.4 214.4 210.4 205.3
166.8 165.8 161.9 150.3 159.3 173.2 175.6 169.7 168.9 174 181 200.3 223.8 240.5 253 262.6 274.1 286.2 290.3 293.3 297.4 302.1 303.4 301.1 297.9 293.3 289.8 285.7 282.7 279.2 278.4 273.6 269.7 262.7 255.4 245.3 238.2 233 228.4 235.5 243.4 254.9 266.5 272.5 277.2 282.2 287.9 294.9 302 309.6 314 320.1 322.9 326.7 330.4 332.9 329.9 326.6 319.8 312.4 305.8 298.2 292 287.1 281.3 276.2 273.1 269.3 264.7 260.4 259 262.4 265.2 265.5 263.6 263.7 262.5 261.9 265.6 267.9 269.9 269.6 264.1 258.1 254.1 249.5 246.6 244.5 242.6 238.9 236 235.2 234.7 235.3 235.8 235.7 235.2 234.6 232.5 230.2 226.6 221.3 216 207.1 193.1 181.5 170.6 162.6 147.9 139.2 135.1 133.1 132.7 132.5 132.6 133.9 138.3 147.5 159.4 161.7 156.3 160.2 159.6 147.9 155.9 164.9 172.2 180.6 189.2 203.7 214.7 213.1 207.2 211.1 220.9 232.8 245.6 253.2 249.7 239 239.3 247.2 271.8 302 317.8 327 328.6 326.2 322.3 317.1 311.4 301.1 293.9 286.6 278.5 276.3 273.3 272.6 272.9 276.9 280.5 281.1 281.4 281.3 277.1 273.4 269.7 266 262.3 259 256.8 255.1 254.4 255.4 261.6 266.2 270 270.9 269.7 266.1 261.3 255.1 248.7 241.2 231.9 223 213 219.5 226.3 230.3 232.2 232.7 234.4 236.6 229.8 225.3 219.5 214.6 209.7 203.5
171.7 171 168.1 152.2 160.2 171.9 184.7 179.9 175.7 175.6 183.3 193.4 206.6 226.2 243.4 254.8 267 270.6 270.4 274 281.8 287 287.4 285.8 285 283.8 281.1 275.3 270.7 267.8 268.5 267.9 265.9 257.8 248.8 243 241 238.3 233.8 241.3 252 263 272.7 277.7 282.3 287.2 294.9 303.3 309.2 317 321.9 324.1 326 327 329.6 329.7 327.5 323 316 308.7 302.6 295.1 290.6 286.2 283.1 280 275.7 270.3 266 262.1 260.3 261.4 264.4 266.4 267 266.7 266.2 265.3 267.6 270.3 272.1 269.1 262.8 257.4 253.9 251.4 248.8 247.7 244.8 242.3 240.5 238.9 239.1 238.9 237.7 237 236.1 235.6 234.6 230.8 226 221.7 213.6 206 189.9 178.4 161.2 149.8 139.6 135.8 133.6 131.8 131.7 133.9 134 134.9 138.2 155.8 169.8 167.4 161.5 162.9 165.8 162.8 154.9 151.3 162.5 169.7 175.6 179.5 187.9 196.8 193.5 195.8 201 209 217.5 230.6 232.8 231 235.2 240.4 265 298.2 311.9 320.4 323.2 321.7 318.6 314.6 308.4 296.5 288.5 282.2 275.6 273 272.1 270.4 267.3 272.9 275.5 276.5 278.6 278.3 275.5 273 268.6 265.2 262 261.5 261 258.5 257.6 259.7 265.9 269.9 271.2 270.6 267.9 263.9 258.3 252.1 245.6 238.8 230.7 220.3 213.2 225.3 234.1 237.6 238.1 238.7 240.1 233.5 228.6 223.7 218.1 213.6 209.5 200.9
177.4 176.4 174.7 158.3 157.2 171.7 182.5 191 186.5 183.4 186.2 193.4 203.8 212.7 225.1 244.3 252.5 252.7 253.8 261.3 270.2 276 279 279.6 276.8 274.9 271.6 266.9 263.5 261.9 259.8 258.5 255.5 249.7 248.1 248.1 246.4 242.7 239.5 248.5 265.1 270.4 278 283.2 287.4 293.3 300.8 309.2 316.5 324.4 329 329.5 329.6 328.9 327.6 327.6 324.7 317.5 310.7 304.4 299.2 294.5 291.1 288.1 285 280.3 275.7 271 266.6 263.5 261.2 261.4 264 266.8 267.9 268.4 268.4 268.8 270.9 274.2 273.6 267.9 262.1 257.5 255.5 253.3 251.8 251 249 247 244.7 242.6 243.1 240.1 238.9 237.8 239.1 239.5 237.3 232.2 228.4 222.5 213.8 202.1 187.7 174 152.6 139.4 136.7 134.7 133.5 133.1 131.7 133.8 135.1 137.1 141.7 160 180.8 186.4 176 166.8 171.7 173.5 172.9 169.2 162.2 157.5 162.8 168.4 172.6 178.2 184.9 189.8 195.8 202.9 209.6 214.3 218.6 223.4 230 236.6 267.1 297.4 303.9 311.9 318.5 319.4 316.5 311.1 305.3 292.2 284.4 277.4 271.8 267.9 265.9 263.9 263.3 267.6 271 273.7 275.6 277 275.5 272.7 269.6 266.2 265.8 265.7 264.4 262.2 262.5 264.3 267.9 270.8 270.2 267.6 265 261.9 256.1 249.7 243.3 235.7 227 217.5 218.9 230 241.3 245.5 245.4 242.9 237.7 232.1 227.3 223 217.8 211.6 207.2 199
188 182.6 177.3 165.4 155.2 173.3 180.5 191.7 194.2 190.3 191 195 202.2 210.9 221.6 232.5 240.3 243 257.4 268.5 272.6 272.4 276.5 275.5 272.9 271.8 268.2 264.2 262.5 260.6 258.4 257 255.4 255.6 253.4 249.1 247.1 242.1 249.6 260.7 270.4 277.7 284.9 287.7 292.2 298.2 306.2 314.1 322.7 331.1 333.8 334.3 332.1 328.5 325 323.1 319.1 312.3 306.2 301.6 298.3 294.7 290.8 287.4 283.9 279.8 275.6 270.9 265.3 264.2 263.3 263 264.5 266.9 268.3 269.8 270.8 271.5 274.5 277.2 272.3 266.4 263 261 258.6 256.1 256.1 254.3 253 251 247.6 246.7 245.3 242.7 238.6 239.4 240.5 240.6 238.4 233 226.3 220.4 213.7 199.1 187.6 166.7 141.8 134.8 134.9 134.6 134.2 133.9 131.9 134.3 135 137.7 146.3 163.5 182.7 198.5 194.2 181.5 197.8 188.4 186 182.7 174.9 171.7 168.6 167.5 166.5 167.1 176.4 185 191.6 197.1 205.9 209.2 212.3 217 221.7 235.4 268.2 291.6 297.6 302.7 311.7 314.1 311.7 307.8 300 290.9 279.4 270.9 267.4 264.2 259.9 258.5 259.8 264.8 269 273.3 274.8 274.2 273.4 272.1 269.6 268.9 271.9 269.7 267.7 268 268.7 268.9 270.6 272.4 270.8 267.6 265.1 260.2 253.9 247.2 239.6 231.6 221.9 221.1 225.3 238.9 250.5 253 250.1 242.5 235.8 230 225.9 221.7 217.2 211.3 202.1 196.9
193.4 186.2 174.6 169.2 157.2 172.6 180.7 190.2 201.9 197.6 193.3 195.9 201.6 211.8 220.4 227.9 233.1 245.8 265.9 279.8 276.1 274.6 273.8 273 270.9 270.4 269.2 267.6 265.6 263.4 261.6 259.4 256.8 254.7 252.1 248.9 245.4 247.1 259.3 269.1 276.8 285.4 290.1 295.2 300.4 306.2 311.8 320.4 330.1 335.5 336.9 335.6 331.1 326 321.7 317.9 313.7 308 304.2 300.3 297.6 294.7 290.8 286.6 281.8 277.6 273.7 268.6 266.9 265.7 264.7 264.4 265.1 266.8 269 270.5 272.3 275 278.5 279.1 269.4 265.9 263.4 261.1 259 259.8 259.6 257.7 256.5 253.7 251.9 250.9 246.4 242.8 240 242.1 241.8 240.8 237.4 234.1 223.9 215 210.6 201.1 189.3 158.4 135.8 135.2 135.4 135.3 135.1 135.2 133.5 139.1 132.8 136.4 149.6 164.2 180.5 199.6 207.8 198.6 200.6 195.8 192.3 190.1 184.9 179.8 178.2 176 176.2 177 171.9 177.7 185 190.7 197.1 202.2 204.5 211.5 214 236.6 267.3 287.1 291 297.6 306.4 306.6 307 304.1 295 287.4 274.3 265.6 260 258 256.1 253.1 258.7 263.5 268.4 273.2 275.1 275.6 275.3 274.2 273.4 274.8 274.6 273.3 272.1 272.1 272.5 273.1 273.4 273.8 271.3 268 263.7 258.3 250.6 242.2 233.4 225.4 222.5 225.8 234 249.5 259.2 260.1 253.2 244.8 237.3 231.2 224.1 220.1 216.1 207.2 200 194
186.1 179.4 176 174.9 157.2 171.2 181.6 192.4 206 200.9 198.2 199 202.6 210.7 218 224.3 234.3 255.6 274.4 284.1 282.5 280.2 279.5 277 274.6 274.3 273.4 271.2 269.1 266.6 263.8 260.6 257.7 254.6 251 247.8 246.6 252.4 263.3 273 281.8 289.6 293.7 298.6 304.5 311.6 319.7 328.4 335.8 338.4 337.7 333.6 327.7 322.6 318.2 313.8 309 304.2 301.7 299.1 296.5 293.3 289.2 284.6 279.2 275.2 272.2 271.6 273.4 271.9 270.1 267.5 266.2 267.3 267.3 268.7 271.8 278 277.6 273.2 268.4 266.5 264.4 262.3 261.9 263.4 260.7 260.6 258.7 255.1 255.8 252.7 246.5 242 240.8 241.1 242.8 239.8 236.9 232.1 219.5 212 206.4 201 178.3 148.4 135.2 134.9 134.6 134.2 133.4 133.6 134.5 142.4 138.2 136.3 147.7 160.6 183.2 209.4 223.4 212.7 203.5 199 196.5 194.3 193.3 189.5 187.8 183.9 182.2 183.3 185.3 184 180.2 181.7 187.3 194 196.2 203.1 207 229.2 258.3 274 280.4 287 298.4 300.9 299.5 297.3 288.9 279.3 268.8 260.7 255.3 250.8 248.2 253.5 259 262.8 267 272.5 275.3 277.4 277.5 275.1 278.1 279.6 279.5 277.4 278 279.4 278.3 276.7 276.1 276 271.3 266.3 260.1 254 246.1 237.8 228.6 226.9 229.5 233.7 241.3 256.9 264.4 264.7 255.3 245.7 237.7 229 221.3 215.5 210.3 204 198 191.9
186 180.1 177.6 177.7 161.8 171.9 182.7 194.6 197.8 199.9 201.5 207.5 210.4 214.6 219.2 223.3 233.3 253.9 274 288.6 289.9 290.5 288.4 283.8 281.1 279.7 277.7 275.3 272.8 268.5 264 259.6 256.9 252.4 249.3 247.5 251.6 259.9 269.2 276.7 286.2 292.6 296.9 303.9 311.3 316.6 324.1 334.3 338.6 338.9 336.1 330.4 324.7 319.6 314.5 309.3 305 301.6 299.7 297.6 294.9 291.1 286.7 283.2 279 276.7 272.7 272.9 273.1 272.6 271.9 269 268.5 268.3 267.7 269.5 273.1 275.3 274.6 271.3 268.7 267.2 266 263.8 263.7 263.3 263.2 262.1 258.3 256.7 256.2 252.8 245.4 240.3 237.6 240 240.4 237.9 233.2 225.7 213.2 206.1 199.3 191.5 165.3 142 134.8 134.5 134.2 135.4 134.8 137.9 139.7 143.9 141.7 135.7 146.8 160.8 186.5 214.6 220.2 222.9 219.5 212.9 212.9 209.7 203.5 198.6 196.6 196.1 195.2 195.4 193.5 193.2 194.5 186.6 181.7 188.6 193.5 197.8 201.9 213.1 232.2 248.7 258.1 262.8 277 287 291.5 289.6 282.4 272.1 257.1 250.2 246.8 247.1 246.8 252.2 256.7 260.8 265.6 273 276.2 278.2 279.2 278.1 280.3 284.8 283.5 282.3 284.6 284 282.7 281.1 279.4 277.2 272.9 264.9 257.1 249.9 241.1 232.2 228.8 232 235.3 239.8 256.9 266.2 268.9 263 253.3 245.3 237 227.5 219.3 214 209.6 201.4 194.7 188.5
189 182.9 181.1 178.2 168.4 169.8 180.6 185.7 188.2 192.4 198.9 212 216.4 217.9 218.2 219.8 227.9 248.5 266.3 282.3 294.9 295.1 297.5 296.1 291.9 287.2 284.3 280.7 277.8 271.9 265 260.7 258.4 254.8 250.1 250.3 254.3 261.7 271.8 280.8 288.9 294.9 302.4 310.8 317.1 322.6 330.6 337.9 339.8 337.8 333.7 328.2 321.6 316 311.3 306.5 302.6 299.6 296.3 292.8 288.8 284.3 282.1 280.7 278.8 275.5 274.4 273.6 272.3 270.9 270.6 269.9 271.1 269.3 268.9 270.5 273.5 274.1 272.2 270.4 269.4 268.2 264.5 265.8 265.4 264.9 263.2 260.2 257.3 257 252.5 250.1 240.9 235.3 233.4 235 232.6 230.5 226.6 218.2 207 200.6 192.4 177.7 146.6 135.1 135.5 135.5 135.5 135.1 136.2 148.8 144 146.6 145.7 138.1 146 164.2 187.4 212.1 223.7 224.8 226.4 229.7 226.8 224.8 218.5 227.5 222.9 217 212.5 204.2 204.1 200.8 200.3 193.9 187.6 185.2 187.7 192.2 195.6 200.7 207.3 219.1 229.2 236.6 250.4 261 270.8 274.8 271.2 261 249.6 242.1 239.6 241.5 246 250.2 254.4 259.4 266 272.6 275.2 279 281.3 283.4 284.6 287.6 287.4 287.3 289.4 288.5 287.2 284.8 281.2 277.7 274 264.7 255.2 246.8 237.9 230.7 235.1 237.5 241 255.7 269.7 273.3 267.7 261.1 253 244.9 236.3 226.5 219.3 212.2 204.4 196.7 190.3 184.3
192.1 187.7 182.1 178.9 175.7 161.6 169.8 172.1 177.3 181.5 190.5 212.9 220.5 221.7 219.4 217.7 223 241.9 256.7 271.7 284.4 294.1 301.1 304.1 301.9 298.4 293.3 287.4 279.5 272.9 266.5 261.7 258.4 254.5 252 253 258.9 263.8 272.9 282.4 290.1 299.6 309.5 317.3 323.2 329.3 337.1 340.8 340.3 337.4 332.7 326.2 320.2 315.1 310.2 305.3 301.3 299.4 298.2 296.6 293 290.3 285.9 281 280.3 278.8 277.7 275.9 274.5 274.2 274.7 272.9 272.1 269.6 268.4 269.9 272.6 272.1 270.4 271.1 270.9 266.6 264.5 267.6 266.4 265 261.5 257.8 256.8 253.1 246.8 241.3 232.8 229.3 228.3 228 225.7 224.4 219.7 210.9 203.4 194.2 177.8 154.7 136.4 136.9 136.8 136.5 136.5 137.1 149.3 156.8 155.2 152.5 146.7 140.2 142 166.1 185.8 209.4 218.7 220.3 224.2 230.4 236.9 233.8 235.7 238.7 239.3 233.5 225.3 222.7 214 205.9 201 195.5 197.1 194.4 186.5 188.6 191.5 195.8 201.7 207.2 216.7 225.7 232.6 237.7 244.1 250.9 249.1 245.9 236.1 232.9 235.9 236.3 244.6 248.9 253.9 260.4 265.7 271.7 275 283.1 287.6 289.6 290 292.6 292.5 292.8 294.1 293.3 291.7 287.9 282.8 278.3 271.7 261.3 252 245.7 240.5 236.9 240.3 243.3 250.7 267 274.6 271.6 265.6 259.2 253.4 245.9 234 226 218.8 210.6 200 195.1 188.8 181.4
195.9 190.9 187.1 182.3 180.2 177.1 165.9 162.3 163.7 170.3 186.2 210.4 223.3 224.6 220.7 216.8 219.6 235.9 249.1 260.5 270.8 282.4 292.3 301.3 305.4 305.6 301.4 292.8 281.9 274.8 268.7 263.9 259.2 254.8 254.4 256.7 264.1 271.3 278.3 285.8 295.1 306.7 318.3 323.8 329.4 336.2 340.8 342.8 340.7 336.6 332.5 326.6 321 315.7 310.5 306.2 304.5 302.2 301 299.2 295 292.5 289.1 285.6 283.9 282.6 281.7 280.1 279 278.4 277.5 275.2 272.7 268.9 266.8 268.9 271.2 269.1 267.7 271.3 272.3 266.2 266.5 269 266.2 263.1 258.5 251.9 251.3 245.8 238.8 233.9 229.3 225.3 221.7 221.3 218.7 214.5 212.4 204.2 187 172.2 155.2 139.1 137.8 137.5 137.5 137.5 136.6 144.7 167.9 174.6 167.2 159.6 149.8 142.5 148.5 168.9 188.1 198.6 206.9 213.3 221.1 231.5 238.8 241.1 242.1 242.3 242.8 242.6 237.7 229.7 217.3 207 204.9 205.2 202.9 200 194.5 190 191 192.2 197.4 201 208.2 216.9 225.1 230.9 231.2 228.8 225 222.5 222.9 225.8 229.4 237.5 244.3 249.5 253.5 261.1 266.9 270.1 275 285 289.4 292 296.3 297.8 298.9 298.9 297.8 296 294.3 289.7 282.7 275.2 265.9 258.4 254.8 248.6 241.5 240.7 243.5 248 264.4 275.6 276 271.1 264.4 257.4 250.9 242.8 232.6 225.3 217.1 209.8 200.2 194.4 187.6 180.6
199.3 198.3 192.9 186.9 186.6 184.8 177.8 177.2 176 164 177.7 204.8 221.6 226 224.4 217.9 217.9 231.7 244.9 253.2 261.7 268.9 280.9 288.7 294.5 295.3 291.7 286.3 280.7 275.8 272.4 269.2 263 256.7 256.4 260.8 268.3 275.3 285.3 292.7 303.1 315.8 326.6 330.9 337.3 342.7 344.9 344.3 341.5 337.6 333.9 328.1 321.9 316.4 311.3 307.3 308.7 306.1 302.4 299.3 297.3 294.9 293.7 291 287.6 286.7 285.4 283.8 283.9 283.1 280.8 276.5 271.3 267.4 260.4 267.1 266.2 264.4 266.7 273.8 269.8 266.1 269.7 263.9 256.3 250.9 245.2 243 240.6 236.5 235.2 230.3 226 219 211.7 212.3 210.5 204.3 199 186.6 175.7 157.1 144.7 136.1 138.8 137.9 137.5 136.8 142.1 158.3 172.3 182.9 173.9 165.8 153.9 142.3 145.1 163.4 182.3 195.2 204.1 205 217.2 233.9 246.8 243.2 247.2 251.7 245.6 241.6 234.7 229.3 217.2 210 209.6 209.4 206.7 203.8 199.1 195.4 194.4 195.2 195.2 197.4 202.5 210.5 218.4 223 223.3 223.1 214.3 218.7 219.7 222.6 229.1 238.2 246.3 251 254.6 259.9 265.8 271.1 280.2 283.9 289.8 299.5 303 306.1 306.2 302.6 298.1 295.1 291.5 287.3 278.7 269.8 262.9 259.1 252.9 245.5 242.7 244.9 248.5 261.1 275.6 278.6 275.1 269.4 262.3 254.8 249.3 242.7 232.9 224.7 216 207.6 199.9 192.1 184.4 180.2
209.5 205.1 200.2 194.3 193 192.6 189.5 194.6 193.7 181.5 169.2 195.8 223.2 229.6 227.6 221.1 215.3 228 239.7 252.6 260.6 263.2 269.2 276.5 279 279.9 278 274.2 273.1 274.7 274.6 271.9 267 260.9 259.5 265.7 272.2 279.6 288 298.2 311.3 324.4 335.7 339.5 344.3 346.9 347.5 345.8 342.1 338 333.4 328.4 323.1 319 314.4 312.5 314.8 311 307.2 304.8 302.2 299.6 297.6 294.6 292.1 290.5 288.8 288.1 287.7 286 283 274.6 266.8 261 252.5 262.4 262.8 261.6 267.9 271.1 270.8 263 261.6 252.5 246.4 244.7 241.3 237.1 232 227.8 224.8 222.5 219.7 211.1 203.9 202.4 200.4 195.5 189.3 177.7 164.1 148.7 137.7 137.6 138.4 138 137.8 137.6 147.3 163.7 177.6 189.4 178.6 165.2 157.1 146.3 144.2 147.7 158.6 173.5 184.7 194.2 202.2 222.6 241 246.7 250.8 251.7 248.5 244.6 238 227.6 221.2 215.8 214.2 213.4 210.9 209.8 208.5 207.4 202.5 201.8 201.5 201.4 198.9 205.5 209.3 212.3 211.8 213 222.1 224.5 225.2 225.7 228.5 238 248.2 250.8 253 259.2 265.5 273.2 282.6 286.7 292.8 303 309.5 310.1 307 304.6 299.7 294.4 289.8 282.9 273.9 265.6 259.4 255.7 251.9 250.6 246.4 248.5 253.9 272.9 281.5 279.4 273.7 267.2 260.1 251.9 246.3 239.4 231.3 223.1 213.2 205.7 194.4 191.9 186.5 184.5
215 211.2 206.2 199.2 194.3 196.8 193.5 201.8 201.5 190.2 168.1 187 219.2 230.7 229.3 219 212.2 217.9 235.9 247.4 255.6 259.5 261.1 261.9 260.3 260.9 262 263 264.9 266.3 269.9 268.2 265.6 265.2 264.6 272.9 280.3 285.5 292.4 304.9 318.1 330.2 343.8 348.6 350.1 351.1 349 347.8 341.9 338.2 333.9 330.2 325.8 322.2 320.3 318.9 317.8 316.4 313.7 310.2 306.6 303.7 300.5 298 295.3 292.4 291.8 291.4 289.5 286.5 281.1 272.4 261.6 247.8 241.1 250.1 254.5 265.5 272.1 273.6 268.5 258.3 250.7 248.5 242.6 241.1 239.5 233.2 226.6 222 218 214.8 213 205.6 195.7 191.9 189.3 185.3 178.2 168.3 155.1 142.5 136.6 139.4 139.3 138.5 137.7 137.7 159.5 173.1 189.9 200.6 184.3 164 158 149.9 144.6 148 148.4 150.5 160.7 174.8 186.9 206.7 233.1 257.3 261.9 260 254.1 250.5 244.7 237.8 228.3 219.6 219.9 218.5 217.3 217.5 214.3 213.2 211.6 208.7 208.5 213.7 212 207.8 212.3 216.5 221.2 227 230.6 231.7 230.9 230.9 236.2 243.2 246.9 247.1 247 255.9 267.9 276.5 286.2 287.3 297 302.9 305.4 307.5 308.8 305.2 298.9 292.1 284.6 275.9 267.9 267.2 263 258.4 256.8 254.5 250.9 255 264.5 277.9 280.1 276.4 271.2 264.9 257.7 248.9 242.2 236.2 229.4 222.9 214 205.5 199.1 197.7 195.2 192
218.1 213.7 210.4 206.7 199.3 195.3 197 202.1 206.6 199.1 182.7 177.4 206.7 221.7 221.8 214 209.2 217 229.7 240.1 245.4 250.9 253.5 252.9 251.2 249.8 251.2 250.3 251.9 258.3 261.2 261 263.8 268.4 270.4 274.6 282.8 289.6 298.6 308.5 319.5 331.3 345.3 356.6 358.1 355.5 351.9 347.3 343.5 339.4 335 332.2 329.4 327.2 326.7 326.2 324.3 320.7 317.3 313.7 310.4 307 303.1 300.6 297.7 294.5 294.5 293.7 290.9 286.3 279 271.8 255.7 236.7 231.3 239.7 255.5 269.5 273.4 277 259.7 250.3 243.8 242.4 240 238 233.6 227.9 222 216.2 209.6 206.8 206.4 199 189.9 186.8 179.7 173.4 168.3 157.6 146 138.7 138.3 140.1 139.6 138.9 138.7 150.2 168.3 179.6 191.7 195.1 180.3 164.4 158.5 151.1 149.5 157.5 158.5 159.7 156.5 153.9 167.1 187.1 216.7 250.2 267.5 266.8 262 254.4 250.7 245.9 236.9 226.7 225.4 230.4 235.1 239.7 233.1 222.7 222.5 225.7 224.1 227.8 225.1 219.2 219.2 230.8 237.1 238.7 239.1 240.5 240.5 245.4 248.5 250.2 253 254 254.3 250.2 259.8 269.4 277.6 287.4 298.3 305.1 307.1 308.5 307 302.5 294.8 287.1 277.5 271.3 272.3 271.3 267.1 263.6 260.9 256.9 256.6 260.6 270.4 277.5 277.9 272.7 266.7 261.1 254.8 248 241.5 235.7 229 222.5 211.4 211.8 207.4 204.9 200.1 195.7
228.7 226.9 218.9 211.8 203.6 197.3 198 203.8 209.3 207.4 190.5 169.2 193 214.1 208.8 204.8 215 222.9 226.3 230.5 235.3 237 235.4 239.8 238.6 239.6 238.5 237.3 239.2 245.3 249.1 255.9 262.9 269.8 274 278.7 283.6 292 302.5 311.7 320 330.4 343.4 356.2 360.2 360.1 354 347.7 341.7 339.5 335.7 334.5 333.7 334.5 335.6 334.8 331 323.8 319.6 316.7 312.5 308.4 305 303.1 299.9 295.1 295.7 293.7 289.5 283.1 276.7 269 250.4 230.8 224.6 231.3 250 262.6 275.1 269.3 253.3 238.7 232.7 234.2 235.1 232.2 227.9 223.1 218.1 210.6 201.8 194.1 195.9 189.1 183.5 178.9 173.9 170.8 161.8 152.2 142.2 138.1 139.7 139.2 139.6 139 143 164.4 178.7 188.3 197.2 198.8 179 164.1 157.6 146.4 155.7 167.6 172.6 176.9 176 174.9 164.9 170.1 199.3 231.2 264.5 273.9 269.2 258.3 255.2 251.5 246.4 237.7 237 245.1 253.8 257.1 254.1 244.6 242.3 242.2 244.4 245.8 246.4 239 228.7 235.2 240.5 244.5 247.1 249.4 251.9 256 257.6 258.2 260.3 261.6 264.6 265.3 253.6 267.9 282.6 298.1 304.2 306.9 307 309.6 306.7 302.2 292.8 282.8 274.7 273.3 274.8 274 271 267.2 262.9 258.4 259.8 263.6 272.3 275.4 272.8 268.1 263.6 261.3 258.1 250.7 242.8 236.4 230.2 223.9 220 218.8 212.9 206.2 201.8 197.6
225.2 229.4 225.1 218.7 209.5 198.7 199.7 205.7 211.2 216.3 203.1 184 176.3 188.8 193.4 205.5 220 222.7 221 219.1 214.9 216.2 215.9 218.7 223.8 228 229.2 229.7 233.7 238.9 243.1 251.5 261.7 273.6 277.9 282.7 289.4 297.6 306.6 314.7 323.6 332.8 340.6 348.6 352.2 349.3 346.5 342.1 335.7 332.4 330.6 333.8 336 338.4 339.9 339.2 332.5 324.9 321.1 318.2 313.9 309.8 306.6 303.4 299.7 294.7 293.2 288.7 282.3 275.4 272.5 260.8 243 226.1 217.8 223.1 238.7 253.2 258 254.7 242.4 232.5 229.4 223.7 225.2 225.1 221 219.2 210.6 203.3 192.7 182.1 185 180.3 175.5 170.9 167.1 160.7 151 142.8 138.5 138.7 140 140 139.3 139.8 155.5 184.6 188.9 194.1 202.4 200.5 178.8 163.2 156 145.6 160.9 176.2 183.1 189 187 181.9 178 161.5 185 217.6 253.4 276.7 278.2 270.6 260.4 256.6 252.5 249.8 252.7 259.9 267.6 271.8 270.2 264.9 259.6 253.8 251.7 251.5 251.3 246.2 239.5 242.3 245.9 252.2 255.2 257.4 258.5 261.2 264.5 266.6 268.6 270.6 271.7 266.3 255.7 268.5 288.5 303.4 307.9 311.7 311.9 308.4 307.8 303.2 288.9 279.1 274.2 275.5 276.2 275.2 272.1 268.2 263.7 261.5 264 267.8 270.6 270.9 268.7 265.4 263.7 262.6 257.6 250.8 243.6 236.9 232.3 227.6 225.1 218.8 212.1 207.1 202.2 198.6
222.9 224.9 224 216.1 205.4 202.5 203.3 205.1 214.4 225 218.1 202.7 198.7 192.4 181.8 191.7 195.7 200.2 199.4 197.6 198.8 204.4 209.8 215.6 226.2 232.6 233.4 233.9 237.1 242 247.3 251.8 262.9 274.1 282.2 288.5 295.2 302.9 311.3 317.8 325.8 333.4 340.1 346.5 346.2 341.6 338.3 334.8 330.8 327.6 328.8 330.1 331.6 333.7 337.8 337.2 330.9 323.1 321.7 319.9 315.5 311.1 307.3 303.1 297.3 292.2 285.9 277.6 268.4 262.2 257.8 245.4 230.7 220.7 212.8 212.4 223.7 240 240.2 239.1 233.3 231.3 223.2 219.7 214.5 207.7 210.1 204.6 198.8 194.2 184.3 174.2 177.1 171.7 165.1 161.5 157.2 148.7 141.5 139.8 139.9 139.8 139.8 140.3 140.7 151.2 172.9 192.4 193.6 197.7 204.1 201.5 179.8 162.9 148.6 145.6 163 183.8 193.3 193.1 193.9 184.2 179.1 172.6 174.5 204 238.1 270.7 286.3 282.7 272.9 264.3 263.6 263.5 265.6 268.6 276.2 279.6 279.9 276 271.7 264.5 257.7 254.5 251.1 248.2 249.1 250.9 253.9 257.9 260.4 263.4 265.7 266.8 270.3 274.4 275.3 276.4 274.6 266.4 257.1 271.3 294.7 307 311.3 313.6 310.7 307.3 301.3 293.4 282.4 276.8 274.4 275.8 275.8 274.6 272.3 268.6 265.1 264.9 267.8 271.1 272.6 270.7 268.1 265.4 264 261.6 255.7 248.9 239.7 240.7 238.4 231 223 216.8 211.9 206.6 201.5 197.6
230.7 219 215.1 212.2 210 214.5 210.6 209.1 217.7 228.6 229.9 221.8 214.9 202.7 183.3 193.7 192.2 192.5 198.9 201.8 207.1 212.1 216.6 220.6 226.1 236.6 238.5 239.6 243.9 249.5 256.1 260.4 267.3 279.2 287 293.1 300.7 309.5 315.7 321.8 328.3 334.7 341.6 344.3 340.7 336.1 332.6 329.6 326.7 324.1 324.2 324.9 323.7 322.9 324.4 325.1 323.1 319.7 319.8 317.4 313.6 311.1 304.7 299 294.6 287.2 277.2 265.1 254.1 245.3 241.5 234.8 222.9 212.7 205.8 204.5 218.3 230.5 235.3 228.7 227 222.3 216.8 217.3 207.4 190.7 188.8 186 181.2 178.2 173.4 166.4 165.9 160.3 152.3 145.3 143.4 140.2 141.4 141.1 141.1 140.9 140.9 141.4 150 167.8 182.5 196 200.4 202.2 209 198.7 176.2 163.5 149.2 149.4 161.2 186.3 200.8 197.4 194 188.1 182.5 179.7 169.2 191.7 222 256.7 282.4 289.7 284.8 279.7 280.5 279 277.7 284.6 291.5 292.5 291.1 286 281.2 277.6 268.5 262.3 256.2 254.1 255.8 259.1 263 265.1 265.1 267.6 270.7 273.9 276.3 280.2 281.4 280 276 268.8 259.5 275.1 296.2 307.9 312.5 314 311.2 302.9 294.4 286 279.7 274.6 274.9 275.7 275 273 270.6 268.7 268.1 269.3 271.4 274.7 274.4 272.1 268.6 265 262.5 258.5 253.1 246.5 248.7 245.2 239.2 230.1 221.4 214.3 210 205.7 201.3 196.2
231.3 218.6 220.3 217.7 218.4 217.9 213.1 212.6 220.4 225.7 223.5 217.6 208.7 187.1 189.7 200.8 203.5 208.4 211.5 209.1 215.7 220.8 224 230.1 235.7 238.3 247.9 251.6 252.6 259.2 264.9 268.9 273 283.5 291.2 297.9 304.9 312.7 320.8 325.9 331.4 339.7 342.7 340.3 335.3 331.4 328.3 325.5 322.6 319.7 318.5 317.4 316.2 314.5 314 315.3 316.3 314.7 313.7 311.1 309.9 306.3 299 295.7 290.7 280.6 269 256.9 243.5 238 233.1 228.3 221 204.8 192.6 197.6 210.9 218.8 224.5 216.5 213.4 208.1 209.9 199.3 186 175.7 171 168.6 165.3 162.5 161.3 158.6 156.7 146.5 142 140.9 142.1 141.4 141.3 141.4 141.7 142 144.4 150.4 164 178.3 188.7 200.7 207.1 210.5 210.9 196.1 174.2 163.7 149.5 152.3 161.2 180.5 204.6 200.7 197.3 196.8 189.4 184.2 179 175 206.4 238.3 271.5 292.3 292.8 292.9 290.7 288.9 292.9 301.4 306.4 306.2 303.4 299.7 292.2 283.9 276.4 267.4 261.7 265.7 266.9 266 269.5 272.1 271.5 272.4 275.3 277.1 278.5 282.6 285.1 282.8 278.2 266.5 267.5 286.5 301.3 306.8 311.1 311.1 306.7 300.9 291 283.8 278.1 275.2 274.1 275.2 273.4 271.3 269.5 269 271.7 272.8 275 279.4 276.4 271.5 267.5 264.3 259.6 254.4 255.5 254.9 248.3 242.1 235.9 230.1 218.3 212.5 209.1 204.2 197.1 191.7
237.5 219.3 214.3 214.7 217.9 219.9 215.9 215.3 219.7 217.5 210.8 203.5 191.3 189.3 201.4 210.3 213.9 212.8 213.9 214.7 219.3 228.5 235.3 240.2 245.5 245.2 253.3 258.1 261.3 267.6 270.8 275.8 282.6 288.6 295.8 301.6 308.9 316.1 322.6 328.9 334.3 342.5 341.3 336.1 331.5 328 324.7 321.5 318.3 314.9 312.5 310.7 309.3 308.6 308.2 309.4 310.9 309.3 307.2 305.2 302.9 297.1 292.5 287.2 280.4 271.7 261.4 248.7 235.3 230.3 229.2 227.1 216.6 201.7 190.9 183.5 198.6 208 210.1 210 203.4 194 186.9 176.1 166.4 164.6 159.4 155.6 151.6 147.5 146.5 144 143.2 142 141.8 142 142.2 141.9 141.5 142.3 147.9 150.5 152.8 158.2 174.5 187 199.4 212.4 216.9 211.5 205.7 195.8 175.3 163.3 153 150.2 160.6 177.5 200.5 203.7 201.4 201.4 196.9 191.2 189.2 180.4 192 220.6 252.1 281.9 296.3 300.3 299.2 300.1 301.6 311.9 318.7 316.9 315.8 310.7 303 297.6 289.4 277.2 270.7 275.6 277.9 275.5 277 280.1 279.8 278.3 280.4 280.4 281 285.6 287.6 283.5 278 264.7 278.6 293.8 303.2 307.4 310.4 309.1 303.8 298.4 292.1 285.5 279.9 278.2 275.3 274.6 273.8 272.9 274.4 276.2 277.1 277.9 282.4 281.4 276.7 271.8 267.1 264.1 261.1 261.8 260.6 253.2 246.1 239.7 234.6 228.9 216.1 211.1 203.6 193.4 196.1 197.3
230.8 219.2 212.7 212.8 219.5 220.2 218 215.2 214.9 204.8 198.2 188.7 187.1 202.6 210.2 220.1 223.7 219.9 221.2 224.7 229.9 237.6 246 250.4 253.5 254.9 256.9 262.5 267.2 274.1 277.9 285.3 290.6 294.9 300 305.4 311.2 318.3 325.3 328.9 333.8 335.8 334.2 331.9 329 325 320.6 316.1 312.6 309.7 306.1 304.6 302.9 302.8 302 299.3 299.3 300.4 297.7 293.4 291.2 288.5 285.2 280.1 273.4 265.7 256.6 244.1 230.6 222.1 221.1 220.1 210.9 205.7 190.3 179 184.9 197.7 199.4 194.8 183.7 172.4 165.7 160.3 156 151.1 146.9 145.8 144.8 143.9 142.8 143.1 143.9 143.3 142.9 143.1 143.3 143.7 144.2 150.2 155.2 158.2 162.7 172.7 188 200.1 208.9 219.2 219.9 214.7 208.2 198.8 177.5 163.8 155.7 152.6 161.5 170.6 190 205 204.5 204.9 202.8 197.3 194.5 193.3 178.1 202.7 232.9 263.5 288.7 305.8 307.1 310.7 313.5 324.7 325.8 324.9 323.2 318 311.3 308 306.2 299.7 290 288.8 288.2 286.3 286.3 286.9 285.2 283.7 284 283.7 282.5 286.5 287.3 282 275.7 271.8 284.1 295.4 303.7 307.3 308.8 306.8 303.9 299 294.1 291.2 285.4 283.8 279.7 276.9 276.6 278.5 280 281.8 285 286.4 286.6 282.5 277.8 273.3 271.2 269.2 267.5 264.1 258.1 252.3 244.2 237.7 233.3 227.2 215.8 202.4 206.8 204.8 202.9 200.2
229.3 226.9 214.9 210.7 221.9 220.1 215.9 214 207.5 191 191.2 196.1 207.5 213.6 223.9 231.9 232 230.7 237.1 241.3 245.8 249.7 252.9 257.4 259.9 259.9 259.1 266 273.1 278 285.1 291.5 296 299.4 303 308.4 314.5 320.5 326.7 327.8 328.9 329.5 328.3 326.9 324.4 321 316.5 311.9 307.7 304.9 302.5 298.7 297 295.6 295.3 292.8 288.4 287.4 282.5 280.6 284.4 283.3 279.9 274.8 268.5 260.7 250.4 240 229.9 219.3 214.2 213.8 212.1 205.6 186.2 174.5 168.5 179.9 183.5 178.1 169.5 161.9 158.8 153.5 149 147.7 147.3 145.9 145.2 145 145.6 146.4 145.7 144.8 144.5 145.5 145.1 144.6 151.1 156.3 160.9 165.1 175.3 193.3 203 212.1 220 223.3 222.9 218.5 211.8 202.6 186.9 165.6 159 153.9 159.3 171.8 186.5 203.8 205.7 206.1 206.3 200.8 197.4 196.5 189.5 186.2 212.1 240 268.2 297.7 314.7 324.7 325.4 329.4 331.8 331.8 330.3 326.4 321.9 319.7 317.2 313.3 310.9 307.3 304.4 294 292.5 292.7 291.9 288.9 287.7 285.8 283.2 284.2 284.2 280.1 270.4 279.1 286.8 296.2 302 306.7 308.5 307.4 304.8 301.4 298.3 296.1 292.9 287.9 283 280.7 279.2 282.1 284.2 286.7 290.3 291.2 287 282.9 280.6 277.8 275.1 273.3 269.7 262.3 257 251.1 242.9 233.8 228.9 222.2 211.4 212 210.5 208.2 205.6 203.1
237 237.5 217.3 209.7 216.7 212.9 209.9 210.3 199.2 193.4 203.9 209.4 216.2 226.7 237.5 240.2 236.3 241.3 248.7 251.5 253.8 257.4 260.4 263.4 264.6 261.8 263.1 268.3 274 281.8 289.4 295.6 299.6 303.2 307.7 312.2 315.8 320 322.7 324.7 325 325.1 324 321.4 319.2 316.9 312.5 307.9 303.5 300.8 297.8 293.1 290.9 289.1 288.2 285.7 280.5 278.4 272.2 268.2 269.3 268.4 264.4 259.5 253.9 247.2 243.7 238.9 232.5 223.7 215.4 208.6 207.2 193.9 181.9 172 166 163.7 164.3 161 159.6 153.2 149.7 149.3 149 148.3 147.2 145.7 145.6 147.2 147.9 148.1 147.2 146.8 148.6 149.4 149.9 152.9 157.3 162.4 168.2 176.8 192.2 205.2 213 219 227.8 227.8 226.7 222.5 214.5 204.8 187 170.2 163.2 155.3 157.8 173 186.4 200.7 208.3 208.5 210.5 205.6 200 197.4 193.5 183.9 194 220.4 248 278 308.7 330 331.5 337.3 343.2 339.5 335.5 331.7 328.5 323.1 322.3 320 318.4 316.4 313.1 301 300 299.4 296.8 293.1 290.1 287.1 283.9 281.3 278.7 275.4 274.9 292.3 302.7 302.3 301.4 305.1 309.6 309.4 306.3 305.2 304.4 301.9 298.6 294.7 291.2 287 283 286.5 288.9 292.1 294.4 291.7 290.2 288.9 286.2 282.8 279.5 274.7 267.3 262.1 255.2 249.1 241.8 231.7 226.2 221.2 210.8 213.9 213.7 211.5 209.3 205.8
240.6 235.2 218.5 209.9 208.1 206.4 205 202.2 192.7 203.5 211.7 217.9 227.7 240.1 247 244.7 246.6 250.3 254.1 257 259.5 262.3 264 266 267.3 265.3 267.5 271.6 277 286.6 295.1 299.6 303.6 307.9 311.8 315.6 318.3 320.3 322.3 323.2 323.6 323.2 321.3 318.3 315.4 312 308.5 304 300.2 296.3 292.4 288 284 282.6 281 279.2 274.6 269.4 262.4 256 254.5 252.3 249.7 247 243.4 242.8 241.9 237.6 231.7 227.4 218.4 207.7 198.3 192.8 185.8 179.4 170.9 162.8 160.4 158.4 156.6 150.5 149.8 149.3 148.7 148.4 147.1 145.7 146 147.5 148.4 148.3 149.4 150.6 151.4 151.1 153.8 160.1 164.6 170.2 177.8 188.9 203.9 215 221.9 226.5 231.9 232.3 230.2 225 217.8 208.7 188.9 180.8 171.3 160.8 155.1 165.9 179.7 192.9 206 211.5 211.3 210.2 204.9 199.6 196.7 189.3 189.8 205.2 228.4 259.4 289.9 321.1 333.6 337.1 339.1 341 338.8 335.1 331.7 327.4 325.5 324.3 325.2 322.4 315.3 309.4 310.4 309.3 302.1 296.1 291.4 288.2 284.9 281.3 277.1 273.8 276.9 294.5 305.5 303.6 302.8 305.3 309.9 313.1 311.7 309.3 308.6 308.3 306.9 299.7 293.5 290.7 288.8 290.5 293 295.2 294.8 294.6 295.6 295.7 292.5 288.5 283.2 274.7 267.4 260.9 251.5 244.9 236 230.7 225.1 216.1 215.7 217.9 217.4 215.1 211.4 206.4
240.9 235.5 220.1 210.4 206.6 203.7 200.3 194.8 201.9 207.8 214.2 222.4 231.9 243 245.7 245.2 252.8 256.3 259 262.3 264.5 266.7 268.2 269.9 270.5 269 271.8 274.8 283.9 294.1 299.5 302.4 307.1 310.4 314.2 317.7 320.7 321.6 322.5 323.1 323.4 322.7 319.8 316.1 312.5 309.2 304.6 300.7 297.2 293.2 288.5 283.8 279.3 276.9 275 272.8 266.4 258.9 252 246.2 244 242.8 239.6 239.1 238.8 240.3 238.7 235.1 233.1 225.4 216.8 209 202.4 197.4 190.6 182.1 170.8 163.6 159 154.2 150.8 150.6 149.9 149.3 148.4 147.6 147.8 146.7 146.6 152.7 153.4 151.4 152.6 152.4 152.4 154.1 159.3 166.5 173.9 179.2 185.2 202 215.5 224.2 229.2 233.9 236 235.4 233.4 229.2 220.6 210.9 203.8 190.8 178.5 168.1 157.8 158.6 171.6 180 198.1 215.1 212.2 210.7 208.5 205.8 201.8 195.7 188.3 197.8 212.9 242.3 271.7 303.6 327.6 334.5 337.3 340.4 341.1 339.1 335.8 332.8 330.9 329.1 328.2 325.8 321.4 316 316.2 314.9 308.7 300.9 292.9 289.2 285.8 282.5 278.6 274.1 277.3 285.2 305.9 306.1 305.3 307.3 311.2 313.9 315.6 315.4 316.5 313.8 310 302.8 294.9 294.6 295.2 295.1 296.8 297.6 299.9 301.1 303.5 301.8 297.5 292.1 284.2 275.7 267.3 260.2 246.2 240 234.1 228.3 222.8 215.5 221.7 222.1 220.2 218.1 212.9 206.8
239.9 234.6 222.7 214.8 208.4 203.8 199.3 194.7 203.7 209.5 215.7 223.4 232.3 239.6 243.3 247.8 258.3 259.4 263.4 267.1 269.3 270.5 272 272.5 272.7 272.4 274.6 279.7 291.2 298.4 301.7 304.6 309.9 313.4 315.8 318.8 321.6 322.4 322.8 323.1 322.2 320.7 318.4 314.8 310.7 306.5 301.7 297.6 294.1 290.1 284.2 280.2 276 272 268.5 265.1 259.8 250.9 243.1 237.5 233.8 231.4 230.9 231.8 235 236.6 234.1 234 227.2 218.1 212.8 205 196.3 192.2 185.7 175.1 164.7 157.8 153 151.6 150.7 150.4 149.9 149 150.2 151.6 152.9 154.2 154.2 155.7 154.5 153.9 154 155.3 156.6 159.8 165.4 173.4 181.6 187.7 199.4 218.3 225.8 231.7 235.5 237.5 238.7 237.9 236.4 232.4 223.4 215.9 208.5 202.7 195.4 179 166 156.7 160.8 172.1 181.7 209.3 214 210.6 212.1 211 205.9 199.7 192.8 193.8 202.8 226.6 253.7 284.7 313.7 330.8 342.7 346.4 346.7 344.6 343 341 339.1 338.7 336.5 331.2 327 322.3 320.9 318 311.9 303.5 295.4 289.8 286.1 283.9 279.8 275.5 276.9 281.6 295.7 310.9 312.5 311.4 313.1 315.9 317.2 319.9 319 316.4 311 305.1 299.1 299.7 300.5 300.1 301.7 303.7 306.6 310.7 311.3 305.2 298.7 291.1 283 275.4 265.5 252.3 242.5 237.2 231.9 225.9 217.5 223.8 225.5 225.1 222.8 218.2 213.3 208.2
230.9 228.9 223.3 215.2 205.7 200.3 198.8 195.8 200.2 207.7 216.1 225.8 229.2 234.4 240.5 248.2 258.1 260.8 264.8 269.4 271.2 272.8 274.8 275.2 275.3 275.2 278.7 284.8 293.4 300.1 303.3 306.5 311.8 315 317.3 320.3 321.8 322 321.5 319.5 319.4 318.5 316.5 313.3 309.2 305 300.3 295.9 291.6 286.8 282.2 277.1 272 268 253 255.8 251.3 242.8 234 228.9 225.1 222.2 222.5 226.3 231 232.4 228.4 224.3 218.6 211.5 202.9 195.7 190.3 184.8 177.8 167.7 157.7 152.4 151.4 151 149.8 149.1 151.6 157.8 160.8 159.8 160.5 158.3 156.7 161.2 160.3 159.8 162.5 163.8 164.5 166.9 178.2 183.3 190.9 199.2 212.2 223.8 229 234.7 238.7 240 240.5 240.2 237.6 233.8 227.4 218.8 213 207.1 200 185.1 170.1 168 162.3 158.9 167.4 189 209.5 211.8 216.3 214 209 203.6 199.2 194.1 196.8 210.5 239.1 268.5 299.2 322.9 340.6 346.2 349.5 348.8 346.2 343.9 342.5 343.8 342.6 338.4 333.3 328.1 324.5 321 315.3 309.8 299.5 290.3 286.1 284 280.7 277.2 277.7 281.9 288.9 304.6 314.5 318.1 321.6 322.7 323.6 324.5 325.5 323.2 315.7 311.1 308.1 308.6 308.9 308.3 308.4 311.5 313.4 315.9 310.2 303.5 296.5 288.9 282 272.6 260.2 247.2 240.7 234.9 229.4 225.5 224 228.9 230.4 227.9 224.8 219 215.2 212
235.6 229.4 221.2 209.8 203.9 201.2 199.9 198 199.9 206.4 213.8 219.7 223.4 230.8 238.3 245.7 251.6 259.3 265.8 269.6 273.1 276.7 277.6 278.5 278.8 281.7 283.8 286.4 292.2 301.9 306.7 309.8 311.5 314.2 317.7 320 320.2 319 317.1 315.7 315.9 317.3 314.8 310.7 306.6 302.2 297.9 292.6 287.8 283.7 280.1 274.9 269.5 263.8 257.4 241.6 242.1 234.2 227.4 221.8 218.2 215.5 214.8 219.1 224.8 226.1 221.6 214.3 210.3 203.5 195.8 188.6 179.4 176.4 166.5 154.3 154.5 152 150.2 150 154.9 158.4 165 173.8 170.7 168.8 166.9 159.5 162.5 167 171.6 172.1 171.6 173 175 176.1 185.3 193.6 202.8 211.6 221.8 228.9 233.2 237.9 240.5 242.3 243 241.7 238.5 234.7 228.5 220.4 213.8 200.2 187.7 191.4 184.4 181.9 174.5 167.7 159.8 173.5 196.9 213.1 219.2 215.4 212.2 209.8 206.7 199.3 195.4 202.9 226.6 253 285.1 307.3 326.7 340 347 349.3 350.4 348.5 347.6 348.2 348.2 346 341.4 335.3 331.5 326.7 321.3 313.6 303.8 294.4 287.3 284 280.8 278.2 279.6 284 290.1 297.4 307.3 317.1 326.4 332.4 335.8 333.1 331.5 327.4 322.6 320.3 317.7 318.4 319.8 319.2 316.8 316.9 316.7 314.1 307.9 301.1 294.3 287.6 278.9 266.1 252.4 245.1 238.9 232.9 227.8 224.4 228.6 233.3 232.7 229.8 226.7 222.6 217.9 213.3
238.6 229.6 217.3 208.1 204.4 202.2 200.8 199.7 198.8 204.3 209.8 215.1 221.5 227.9 235 240.8 247.3 261.7 267.9 273.3 277.1 280 280.7 281.7 284.5 286.4 287.1 288.8 296.1 301.9 307.6 310.7 312.3 314.2 316.5 316.9 315.8 315.4 313.8 311.9 313.3 315.3 312.2 308.2 303.8 299.4 294.9 289 282.1 279.9 275.6 271 265.7 259 251.5 243 233.3 228.1 222.2 215.5 212.6 209.8 208.7 213.8 220 217.6 210.7 206.3 202.5 194.6 184.5 178 172.7 166.1 160 153.3 152.7 151.5 152.8 161.1 163.5 170.7 178 181.8 178.3 175.1 170.6 160.8 168.7 172.3 177.6 180.8 182.1 184.6 189 190.4 194.6 201.1 209.6 222.5 229.5 234.5 237.6 241.1 243.2 244.5 244.3 242.6 239.1 235.2 228.2 213.3 206.5 208.8 208.9 202.7 193.7 189.8 186 180.3 166.2 163.8 186 208.6 216.3 218.4 217.7 216 211.9 202.7 197.4 198.3 209.6 240.1 267.2 287 305.4 327.6 343.1 349.3 352.9 355.5 353.9 354 353.4 351.6 349.1 343.4 338.1 332.1 326.2 319.5 309.6 298.6 288.3 282.5 279.3 280.7 283.3 285.4 290 296.3 302.5 313.2 327.2 339.4 342.8 342.3 336.8 333.8 330.4 328.6 327.7 329.6 330.8 328.7 323 318.9 315.7 311.6 305.2 299.2 290.8 282.5 268.1 256.8 246.9 240.8 234 230 225.7 229.7 233.2 236.8 233.9 230.9 228.4 225.5 219.7 215.4
237.7 230.1 219 210.2 206.3 204.6 203.7 201.9 200.2 199.2 206.4 212.6 219 226.2 232 239.4 253.2 263.3 270.2 276.3 279.1 282.6 283.8 285.1 288.3 289.4 289.5 290.6 299.6 303.2 307.4 311.3 313.4 314.1 314.6 313.5 312 312 310.8 308.9 310.7 312.1 309.3 305 300.6 296.3 291.5 285 279.2 272.7 269.6 265.1 260 253.9 244.5 235.3 226.6 221.1 215 209.8 207.7 202.5 203.8 207.9 208.3 206.1 202.7 199.6 194.6 184.2 175.7 168.9 164.2 160.3 158.3 152.9 151.6 152.2 158 165.4 170.5 178.2 186.8 187.2 184.1 178.6 169.3 168.2 174.4 180.9 184.8 189.7 191.6 194.1 202.4 203.3 205.6 212.2 220.4 227.2 232.9 238.4 241.6 243.9 246.3 246.8 245.6 243 239.5 234.4 226.7 217.2 218.3 217.5 213.2 206.7 202.7 196.3 190.9 186.4 175.4 165.6 170.8 192 215.7 221.4 222.3 220.5 215.9 209.1 202.8 197 201.3 224.2 249.8 265.3 284 314 336.8 350.6 357.2 359 360.1 360.1 359.9 360.3 356.1 347.3 342 338.5 331.9 322.6 312.6 301.3 291.5 284.9 282.2 283.2 287.2 288.7 291.8 296.6 304.3 316.1 328.4 342.3 346.8 349 347.9 344 340.3 337.8 340.3 342 340.9 336.8 328.3 321.3 314.4 308.1 301.9 294.7 284 267.9 258.4 248.2 239 236 232.4 231.7 233.3 236 238.6 237.8 235.1 232.1 231.2 226.6 221.8 216.6
236.9 228.6 217.7 211.6 208.9 207.6 207.4 205.8 203.8 199.9 201.8 210.9 218.7 224.4 230.2 239.5 254.2 266.1 271 276.3 279.9 284 285.9 287.7 289.7 289.3 291 291.6 300.6 306.4 310.8 311.3 313.1 312.8 312.2 311.4 308.8 307.9 307.4 306.3 306.4 307.7 304.6 300.8 296.5 291.8 286.1 279.9 274.5 267.8 262.1 256.6 252.8 245.9 239 229.7 213.1 214.3 207.9 202.4 198.7 194.2 197.2 197.8 198.7 196.1 194.6 192.5 189.1 175.6 168.7 161.3 157.9 154.4 153.4 152.3 152.7 154.6 162.2 169.3 178.3 187.1 192.1 191.2 186.3 179.3 166.8 173.9 179.2 186.2 189.8 194.8 199.2 204.6 210.3 211.6 215.8 221.7 226.9 232.4 237.1 241.2 245.4 247.5 249.6 249 246 242.9 239.5 234.1 221.9 226.7 226.2 223.2 215.8 210.4 206.4 202 194.5 187.9 180.4 178.7 164.4 184.3 208.6 227.7 226.5 224 221 217.9 209.8 205.2 199.4 212.5 237.2 261.1 283.9 308.4 332.5 347.1 358.7 360.4 366.9 367.9 367.6 365.7 362.7 352.2 345.5 341.5 334.3 325 313.5 303.4 295.2 290.9 288.2 285.6 289.6 291.5 295.5 299.9 311.2 323.8 333.8 346.5 350 353.2 354.1 353 349.5 348.5 349.5 350.5 347.1 342.7 332.4 323 313.6 304 297.1 283.7 267.6 256 249.6 246.2 241.4 238.4 237.1 238.4 240.1 241.8 242.1 238.3 235.5 233.5 230.6 225.5 220.3 215
233.6 226.5 219.5 215.5 212.6 211 211.8 211.6 209.8 207.8 201 209.3 217 223.4 231.9 241.4 260.2 268.5 274.6 279.3 280.8 284.8 286.5 288.4 289.6 289.9 290.3 293.3 301.9 310.6 311.7 311.2 312.9 312.8 311.2 308.6 306.1 305.3 304.7 304.2 301.3 301.1 300.1 295.7 291.1 286.1 279.5 275.2 267.8 262.8 257.8 252.1 243.4 233 229.2 223.2 214 193.8 183.2 191.2 189.3 186 188 189.6 190.3 188.5 186.8 183.7 175.6 160.9 154.7 154.5 154.4 153.8 152.7 154.2 157.7 158.9 168.1 176 187.7 193.6 191.7 188.9 184.6 178.4 174.8 181.1 187.3 192.3 197.4 201.4 204.7 211.3 214.6 217.8 220.5 226.6 230.9 235.7 240.7 245.1 249.1 251.2 252.4 249.3 245.6 243 239.3 228.6 231.2 233.5 232.5 225.7 219.7 214.8 206.5 200.8 194.2 187.7 184.9 182.8 163.9 185 207.6 229.2 231 228.5 226.8 222.4 218.2 212.4 207.5 205.8 227.5 256.4 278.2 304.6 328.6 345.8 355.4 360.1 365 369.6 371.6 370.7 366.7 358.5 347.2 341.7 333.9 325.4 316.7 309.7 301.9 296.6 293.9 291.8 292.2 294.8 299 305 320.7 330.7 343 352 355.6 358.5 360 360.2 357.4 354 353.9 352.4 348.7 342.9 336.6 326.6 310.9 298.1 285.7 269 261.7 259.7 253.7 248.8 247.2 248 246 245.7 246.9 244.3 242.8 238.8 235.2 233.4 229.1 223.2 215.2 211.4
237.2 229.6 223.5 219.5 216.6 214.9 216.1 215.1 212.7 211.4 200.7 212.9 218.3 224.9 234.1 242.7 265.2 271.7 277.9 282 283.6 284.6 286.7 288 289.4 289.4 290.7 295.2 304 309.7 311.1 310.9 311.7 311.9 309 306.8 305.1 303.5 302.9 302.5 298.6 292.7 290.1 287.8 284.1 278.3 272.4 267 260.8 257.2 252.5 245.4 236.5 228.5 217.1 204.8 205.7 207.9 201.7 178.9 181.5 180.4 180.1 182.4 183.1 182.2 181 174.5 155.9 157.3 156.7 156.3 154.5 154.4 154.7 157.1 163.1 165.3 175.4 185.7 192.6 193.5 191.6 186.4 182.5 177.9 177.4 186.3 194.8 200 205.5 207.8 210.8 214.4 218.4 223.2 226.6 230.7 234.9 240.5 244.7 249.2 252.9 255.5 252.3 248.3 245.6 243.2 236.2 234.8 238.3 238.9 236.7 232.9 228 223.3 214.2 202.6 193.7 189.3 187.6 180.5 166.6 188.1 207.7 221.3 233.1 233.4 230.9 227.1 224.6 222.2 213.9 205.2 217.7 240.7 265.8 287.6 316.7 338.7 350.4 358.5 362.8 366.6 370.1 368.3 365.2 358.8 347.1 342 334.1 326.7 322.3 315.9 311.9 305.3 299.5 298.3 296.5 298.8 302.1 310.1 324.4 335.6 350.9 357.9 361.6 364.5 365.9 367.6 366.4 359.5 358 354.3 349.6 343 335.6 321 306.5 292.2 275.2 268.8 268.2 265.7 261.1 259.9 256.5 255.4 252.6 251 249.3 246.7 243 238.8 235.4 232.2 226.6 220.6 213.8 207.5
240.8 235 228.5 223.1 219.6 217.6 217.6 216.5 215.8 212.7 202.6 213.5 220.2 226.4 234 245.2 267.5 274.6 280.7 284.9 286 286.4 288.6 290.7 291.2 292.1 294 298.4 302.9 308.1 309.5 309.2 309.7 307.9 305.2 303.2 303.8 302.9 299.9 296.4 292 286.8 282.5 278.9 274.5 269.7 264.2 259.5 254.6 251.8 247.5 239.5 231.9 224.5 218.8 213.1 222.1 220.9 204.9 183.8 175 175.9 176.7 176.4 174.3 174.7 174.3 168.5 158.4 157.6 158.4 157.4 156 157.4 163.3 166 166.1 170.1 182.6 194.3 193.9 192.5 190 186.7 183.3 183 181.1 190.9 200.8 206.5 210.2 213.3 215 217.7 221.2 226.8 230.9 234.5 239.6 244.9 249.1 253.3 256.6 256.1 251.6 248.9 246.6 244.6 237.6 241.9 242.5 242.2 241.3 238.6 233.9 228.5 221.4 212.1 200 189.8 186.9 171.6 172.9 190.2 205.9 213.9 231.9 237.3 234.6 231.6 229.7 227.2 222.6 207.8 217.9 230.1 253.2 272.2 294.8 315.9 337.1 352.1 361.9 366.2 366 364.3 362.7 351.9 346 340.6 337.3 335.8 330.4 324.9 319.8 313 304.1 302.1 299.8 304.1 306.5 311.8 326.5 338.6 353.4 363 367.8 369 370 372.4 370 364 362.9 358.8 353.2 347 334 318.5 304 287.5 277.3 277 274.6 270.9 268.2 265.7 262.5 259.5 256.3 253.3 249.8 245.5 241.3 239.2 235.8 231.9 225.6 219.8 212.2 204.7
242.9 239 231.1 224.6 222.1 219.9 217.3 216.7 215.2 211.2 204.1 213.8 221.1 227.7 234.2 244.6 260.7 274.6 283.1 287.3 288.1 288.3 290.4 292.1 292.9 293.9 295 298.4 301.8 306.6 308 307.6 306.2 304 300.6 298.9 299.9 301.3 300.7 293.9 287.7 283.8 277.7 272.2 265.6 261.8 258 253.6 249.4 246.3 241.1 234.8 228.1 221.2 218.5 225.1 227.5 225 211.1 187.6 176.1 172.9 172.9 172.6 170.7 169.6 168.1 166.6 165.6 157.8 157.6 158.7 163.4 169.4 172.2 173.3 174.1 174.9 185.1 190.9 193.5 191.9 188.9 187.4 187.9 190.3 188.9 189 202.9 209.5 213.1 216.3 218.4 220.3 224 231 234.9 239 245.2 249.3 254.3 258.2 258.5 254.7 250.9 250.1 248.4 245.6 246.4 246.5 246.1 245.5 244.5 242.7 237.7 232 224.1 214.2 201.4 187.3 179.4 166.6 181 191.8 199.4 205.7 226.7 239.1 238.2 235.3 234.2 231.4 227.4 216.6 218.5 234.4 249.3 259.3 276.4 303.1 328.5 346.5 360.6 365.3 365.3 363.8 360.8 356.9 350.6 348.9 347.8 346 340.1 333.2 327.9 320.2 310.8 306.9 305.7 308.3 311.5 315.2 330.2 345 356.4 367.2 374.1 375.1 376.3 378.4 377 372.1 367.8 362.1 356.5 346.2 331.3 317.2 302.5 284.4 285.7 283.4 280.5 277.4 274.3 269.6 265.5 260.6 257.5 254.1 248.6 244.7 241 237.1 232.7 228.6 223.3 217.2 210.7 203.6
243.3 239.5 233.4 228.7 224.1 220.2 216.7 213.5 209.9 206.1 205.6 213.6 221.4 226.8 234.6 245.5 256.4 278.2 285 289.6 290.4 290.2 290.9 292.3 297 296.7 296.5 300 302.2 304.3 305.1 304.1 301.9 299.1 296.7 295.3 295.3 294.2 294.1 290 284 279.9 274.7 268.6 262.1 257.3 252.3 248.3 243.5 240.6 236.3 229.1 221.8 216.8 227.1 234.3 236 227.8 213.6 200.5 180.8 172.8 171.6 169.7 168.6 168 167.6 166.7 165.3 162.2 159.9 157 170.9 173.9 176.4 179.3 180.9 187.8 187 189.6 193 191.4 189.7 190 193.8 194.2 194.6 194.8 205.7 211.3 215.8 219.3 221.2 223.3 228.8 234.2 239 245.3 249.9 254.2 261.2 261.1 257.2 253.9 253 251.9 250.2 248.8 249.5 249.4 248.6 247.8 246.8 245.7 242.2 235.4 229.8 217.6 202.1 187.9 179.2 170.9 177.2 184.7 192.7 199.7 224.3 240.7 242.5 239.2 237.9 234.6 230.8 221.6 221.7 231.9 243.7 252.9 268.2 291.6 318.1 342.4 362.1 366.7 367.9 364.9 361.9 358.1 354.4 355.2 357.6 354.6 348.7 341.8 333.3 324.9 317.2 311.7 308.3 310.5 314.8 320.6 333.9 349.7 361.9 370.3 378.2 383.3 383.2 386 383.1 378.4 374.3 365.5 358.5 344.6 329.7 316.7 298.8 292.3 290.8 288.4 286.9 283.5 278 272.9 268.4 263.9 259.5 255.2 250.6 247 242.2 238.2 234 228.6 222.1 214.6 210 205
244.7 242.4 238.6 231.3 225.6 221 216.5 212.5 213 207.7 206.9 213.5 221.2 225.8 234.9 248.2 257.6 272.8 286.3 292 292.4 293.2 293.5 293.6 294.4 297.3 299.3 301.2 303.4 304.3 303 301.8 299.9 296.4 293.6 292.3 290.8 287.3 284.9 283.1 279 276 271.8 265.1 258.4 255.5 250 243.2 237.7 232.7 229.2 223.8 220.8 226.7 235 242.3 240.1 229 215.4 203.3 186.5 174.6 172.8 172.1 169.8 166.7 166.9 165.2 163.6 161.8 162.8 160.1 168.7 178.5 186.2 185.1 184.9 189.5 191.1 189 188.7 189.6 190.1 195.1 196.9 199.6 206.4 207.4 207.7 213.2 217.2 220.4 222.4 225.5 232.4 238.4 243.4 247.4 252.6 261 266.4 259.1 256.7 255.8 254.7 252.6 250.7 251.9 252.3 251.7 250.8 249.9 248.9 247.5 245.9 243.4 236.2 224.7 210.3 193.7 180.2 171 170.4 177.6 187.6 196.3 224.2 242.7 246.9 246.4 241.3 238 235 228.5 216.4 230.4 240.3 252.1 259.9 280.4 308.7 331.8 357.9 366.3 364.9 366.5 364.2 363 361 360.9 360.9 358.9 357.6 349.2 340.4 333.8 326.6 318.7 313.8 314.3 317.3 324.2 338.9 354.2 365.9 373.7 380.8 386.3 390.6 392.1 391.7 383.1 374.3 365.7 354.3 342.6 329 314.8 297.4 297.8 296.1 294.3 292 286.3 282.6 278 273.9 268.8 264.4 259 253.6 248.2 243.4 238.6 234 228.2 221.3 214.8 210.2 206.4
245.5 244.4 241.3 233.4 227.7 222 217.5 216.4 214.6 210.1 206.4 212 220.4 228 235.7 250.5 260.5 264 277.2 287.4 292.1 294.7 295.3 294.8 295.8 297.4 298.7 300.6 303.4 300.4 299.4 298.1 295.6 292.8 290.8 288.4 284.9 282 280.2 276 273.9 272.7 269.1 261.6 255.7 249.5 244.4 241.7 234.7 231.2 229.4 225.8 221.9 230.9 239.4 246.3 241.7 231.6 221 208.3 188.9 175.5 173.1 171.4 170.2 169 167 164.9 164.1 164.5 160.6 159.8 167.3 178.8 191.2 193.3 191.7 192 192.4 190.9 188.8 189.2 191.6 198.4 199.8 205.4 211.7 208.9 208.5 212.7 216 219.5 223.4 228.9 235.6 241.7 247.5 250.8 255 262.6 259.5 256.9 257.3 256.7 255.3 253.5 252.5 253.9 253.9 253.6 252.9 252 250.4 249.3 248.8 246.5 241.2 232.9 220.2 207.2 187 175.1 168.8 172 184.9 195.1 220.7 239.9 246.2 247.3 245.7 242.3 238.9 235.1 224.2 229.1 239.7 249.4 257.8 271.9 293.5 318.2 345.1 361.2 369.2 371 372.9 374.2 371.1 371.3 373.4 372.5 367.5 360 352.2 344.6 334.6 325.3 318.3 318.1 321 331.1 344.9 357.5 368.6 375.7 383 387.5 394.5 398.7 396.5 382.6 372.7 362.5 351.4 340.8 327.8 313.6 304 302.2 300.5 299.9 296.8 293.4 289.4 284.3 279 274.4 269 263.8 257.3 251.1 245.1 239.2 233.7 226.9 220.3 214.9 211.2 208.8
246.7 245.9 241.8 237.1 229.3 222.6 218.2 218.4 216.8 212.5 208.2 211.6 219.6 229.2 235.8 247.8 256.1 259.8 265.4 268.6 276.1 289.8 294.1 296.4 297.9 298.6 297.2 295.9 298.1 296.9 295.3 292.1 290.3 289.5 287.7 284.2 282.9 278.5 276.1 271 266.8 267.3 263.3 256.9 251.6 244.4 241.6 238.1 233.4 234.6 233.7 226.1 222.9 234.7 244.6 245.6 238.3 230.7 220.3 209.2 190.1 178.7 175.4 172.5 169.9 167.8 165.8 165.7 166.2 163.8 160.7 159.1 167 175.1 190.8 192.5 193.9 194.4 191.6 191.6 189.2 189.7 192.8 199 204 208.3 211.4 210.6 210.6 216.3 218 221 226.7 232.8 238.7 245.2 249.4 252.3 255.9 258.7 257 258.1 258 256.5 255.6 254.6 255.1 254.8 255.1 255.3 254.9 253.4 252.1 251.8 251.5 249.7 244 236 225.1 209.4 188.3 176 169.4 171.6 184 196.7 214.1 234 244.1 247.4 246.4 244.6 239.5 234.2 229.2 230.1 240.3 252.1 261.1 262.7 280 304.4 329.4 352.7 369.6 374.9 385.8 383.5 379.5 375.5 375.9 373.4 368.2 362.4 356.9 350.4 343 333.4 325.7 322.9 325.7 335.7 350 361.4 371.5 377.3 383.6 390.6 394.2 397 390.7 376.7 370.1 361.7 350.7 341.9 330.5 317.5 313 310.5 310.1 308.5 307.3 303.6 297.4 293.3 285.5 278.5 272.8 268.1 261.9 254.1 246.6 240.2 233.4 228 221 216.1 212.8 210.1
247.9 246.7 244.5 236.9 229.5 223.4 220.1 221.3 219.5 213.8 209.6 209.5 216.2 222 225.9 231.8 235.5 243.9 255.8 265.5 270.1 277.5 290.4 296.8 297.4 296.5 295.9 294.3 294.3 293.9 291.3 289 287.2 285.5 283.1 279.8 278.1 276.6 272.4 266.4 260.9 258.5 257.5 254.6 247.3 242.8 238.9 237 238.7 239.1 233.4 226.5 227.9 237.9 242.5 239.5 231.9 224.2 212.3 197.2 190.8 183.4 177.6 172.7 169.5 166.5 165.3 166 168.9 167.6 161.2 161.1 162.4 167.9 187.6 195.6 198.1 195.5 194.9 193.2 189.8 190.7 194.2 199.1 204.6 209.1 211 214.2 216.8 213.9 220.2 223.9 230.5 236.7 241.5 245.5 249.3 252.5 255.1 256.9 258.7 258.4 256.8 256.4 256 256.3 256 255.7 255.6 256.8 256.2 254.5 254.2 254 253.7 251 244.4 236.4 225.9 212.3 192.3 177.9 171 170.9 181 194.8 209 227.9 240.3 245.5 246.8 245.8 240.5 237.3 233.5 229.1 239.3 250.7 264.7 261.6 266.1 286.3 311.8 336.1 357.5 371.3 382.3 393.3 390.3 382.5 381.7 377 372.9 367 361.8 356.6 350.9 342 333.2 329.3 331.4 342.2 354.5 367.5 374.1 379.2 387.1 390.3 391.9 393.1 386.4 377.7 366.8 355.6 350.1 344.3 333.6 327.5 324.9 323.5 321.2 318.9 316 312.3 306.5 298.7 290.9 283.1 276.5 269.8 263 255.4 248.2 240.6 232.9 227.4 221.4 217.3 214.2 211.4
248.3 246 243.5 236.9 230.1 224.9 221.5 224.3 222.1 216.1 211.2 209 217 225 229.4 236 240.9 245 259.2 268.9 272.6 274.9 283 296.4 297 296.2 296.1 294.5 294.2 292.2 289.3 287.6 284.2 280.9 276.5 271.8 270.6 271.5 267.6 263.7 259.5 254.1 250.7 248.5 245.5 240.4 240.4 242.6 243.9 239.2 231.4 226.1 228.4 234.1 234.9 231.9 226.8 220.4 225.1 220.2 209.9 198.5 187.6 176.5 170.9 167.8 166.1 167.8 171.8 169.5 160.9 161.2 162.3 165.5 186.8 202.9 201.7 197.4 195.5 193.6 190.7 191 195.9 201.4 205.4 208.9 212.8 219 222 217.8 223.5 229.2 233.9 238.2 242.6 245.3 249 251.8 254.8 258.8 258.9 257.5 257 257.4 257.5 257.3 257 256.6 256.4 256.3 255.9 255.8 255.5 255.3 253.7 250.5 243.7 235.5 224.1 207.8 191.2 177.7 171.2 171.2 180.5 198.7 210.9 224.5 238.2 244 246.1 246.5 247 244.9 246.4 229.1 236.2 248.2 258.5 261.3 259.3 268.7 291.1 317.8 343.3 361.8 373.5 382 388.7 392.4 391.7 386.9 381.9 374 368.1 361.2 353.2 346.2 339.8 334.7 337.9 349.1 359.5 371 378.3 385 390.5 393.2 391.7 388.3 380.9 369.4 360 353.4 349.9 345.7 341.4 339.2 336.6 334 330.8 325.8 322.3 317 309.3 301.9 293.9 286.7 280.3 271.7 262.5 255.8 247.7 239.8 232.8 226.4 221.7 217.3 214.3 211.2
248.8 245.4 241.5 235.5 229.8 224.9 223.9 227.5 225.5 218.6 213.7 209.3 219.7 230.4 235.9 243.4 249.4 253.2 266.3 273.6 276.1 276 279.6 287 295.2 295.4 295.2 295.8 294.1 290.4 287.2 284.5 282.1 280.2 271.4 266 264.6 264.7 263.1 259.6 257.5 252.6 248.2 245.1 242.8 242.3 245.1 247.5 244.8 236.6 230.5 225.5 226.8 229.7 229.4 224.8 223.9 232.5 235.2 227.5 218.4 209.1 201.2 187.2 177.9 172.8 168.8 171.1 171.9 170.5 167.3 162.6 160.4 163.7 190.5 204.4 203.3 201 197.7 194.3 193 192.3 199.1 205.3 206.5 210.4 216.5 222.8 223.2 221.3 225.7 232.2 236.3 239.1 242.3 245.1 248.6 252.2 256.3 258.1 257.7 257.7 258.1 258.5 258.3 258.1 258 257.7 256.1 255.4 255.6 255.7 255.7 254.1 252.1 248.7 242.9 234.5 219.4 203.4 191.3 182.3 174.1 173.4 185.8 205.6 216.7 226.5 237.7 243.1 247.4 249.8 250 251.6 249.8 241.6 229.5 239.7 248.3 256.7 259.9 264 275.1 299 325.4 352.4 362.6 370.6 378.6 390.2 397 398.8 393.1 386.3 378.2 370 361.8 354.6 347.3 341.2 340.9 350.8 364.2 373.2 383.1 387.5 390 391.6 390 385.9 376.5 364.4 357.4 354.5 350.9 350.4 350.4 349.5 347.6 342.9 336.6 330.9 324.7 317.8 310.5 303.2 296.6 288.3 280.5 272.6 264.1 255.6 247.8 239.4 230.9 224.1 219.6 216.1 213.1 209.8
246.1 242.2 238.4 233.3 229.2 227.1 228.3 231.1 229.3 221.9 216 210.6 223.6 233.6 239.5 247.3 255.3 259.9 265.5 274.6 277.2 276.2 278 283 290.2 294.2 295.9 296.3 293.1 287.6 284 282.4 277.8 273.4 268.4 263.1 260.4 258.9 258.1 255.3 250.5 248.7 247.3 242.9 242.1 245.1 248.4 246.4 240.1 233.1 229 225 225.8 227.8 228.1 227.1 232.7 241.4 241.3 236.2 227.4 217.2 207.2 198.4 192.1 185.6 182.3 177 172.5 169 165.3 163.2 162.7 163 177 199.6 202.4 200.3 199.9 196.3 195.8 194.2 199.2 205.1 209.5 214.5 221 224.3 226.2 224.7 227.3 232.7 237.4 240 241.7 245 249 253.5 256.2 257.5 258.1 259.2 259.7 259.7 258.8 258.6 258.2 257.5 256.2 256.5 256.6 256.2 254 251.6 249.2 246.8 242.6 234.8 222.4 208.7 197.9 190 182.3 174 191.9 211.9 223.5 229.4 233.8 242.3 247.4 250.6 255.1 256.5 254.9 250.9 244.5 236.3 240.9 253.6 263.9 267.4 269.3 282.4 306.3 333.5 356.5 362.8 366.8 375.3 380.9 387.6 395.5 395.5 387.8 380 371.9 361.9 352.8 347.8 345.6 353.7 363.1 373.7 384.6 386.9 388.7 388.9 386.1 380.8 372.2 360.8 353.8 351.2 351.1 351.8 353.5 353.8 352.3 346.9 340.4 333.5 327.9 321.3 313.5 306 297.5 286.9 282.7 274.2 266.7 258.1 248.4 239.3 229.4 221.7 217.3 214 210.7 207.9
242.5 238 235.2 233.7 232.4 229.6 231.3 234.6 232.9 227.8 220.5 212.4 222.1 233.2 240.3 247.9 256.9 263.7 265 273.8 276.5 277.3 280.9 287 294.5 293.8 295.3 294.7 291.5 285 280.4 278.2 272.7 268.2 265.6 260.5 257.2 257.5 256.3 252.2 246.1 243.2 242.6 241.9 243.7 246.5 246 240.8 235.3 230.4 227.3 225.9 228.2 229.4 228.9 230.1 239.6 247.5 248.4 243.6 233 223.2 214.1 206.1 199.9 195.9 191.4 183.4 170.7 167.5 166.5 164.9 164.3 164 163.8 182.6 197.3 199.7 197.7 196.7 198.6 199 199.2 205.8 212.4 218 222.3 226 228.1 227 227.9 230.8 236.2 239.4 242.3 246 250.2 254.1 256.9 258.7 259.5 260.7 260.7 259.8 259.3 258.7 258.2 257.8 257.4 256.7 256.5 254.7 252.2 248.7 246.2 243.8 241.6 234.4 224.2 207.9 198.5 192.5 182.2 178.6 192.9 210.8 228.6 233.7 237 241.9 246.4 249.7 255.8 258.3 258 258.4 256.5 250.4 236.6 249.2 259.4 265.1 265.2 272.4 288.5 313.4 338.4 352.9 356.8 360.8 365.5 370.8 373 375.9 374.7 371 367.9 364 358 352.8 351.9 358.6 366.7 372.1 381.2 385.2 385.7 385 382 375.3 364.9 356.6 348.8 343.6 344.1 347.5 351.6 355.4 354.5 347.9 342.5 335.7 332.1 324.2 315.8 306.5 298.1 290.3 283.7 276.5 268.4 258.2 248.5 238.9 227.5 219.4 215.4 212.1 209 206.3
241.3 239.1 237.5 236 233.4 231.2 233.6 236.8 236.5 231.8 225.3 215.6 218.3 230.9 238.4 244.3 254 263.5 267.5 274.1 274.9 276.7 279.4 282.7 291.5 295.5 295.8 294 289.8 282.1 278 274 269.5 265.7 263 261.3 255.7 253 252.4 247.5 242.2 240.8 239.3 241.1 243.9 242.7 239.2 234.1 230.7 229 227.4 227.6 229.2 230.3 230.2 233.9 245.5 251.8 252.5 245.6 235 224.2 217.1 209.6 203.5 197.1 186.2 173.7 171.4 167.2 170.6 170 166 164.8 165.4 168.8 185.6 199.2 197.7 195.4 200.2 200.6 200.8 208 214.2 220.7 224.1 227.5 228.3 228.5 230 233.6 236.7 240.5 244.6 248.1 251.6 255.1 258.5 260.5 261.3 262.1 261.9 260.3 260.2 259.7 259.2 258.7 258 256 254.6 251.8 248.2 245.3 242.5 239.9 238 231.2 220.3 204.4 196.1 186.8 174.7 183.4 202.1 215 223.8 233.5 240.2 245 249.4 251.5 257 260 262.3 261.3 259.5 255.4 248.5 241.4 250 255.1 258.9 262.4 276.9 296.5 318 336.2 342.6 347 351.6 356 358.3 362.4 364 363.9 363.5 363.6 361.2 358.7 357.3 359.1 365 369.3 372.8 373 374.6 375.7 372.1 366.2 358 351.7 343.8 338.5 338.8 341.5 347.6 349.6 348.7 345.9 340.1 334.6 329.8 322.1 313.9 306.8 297.8 291.5 285.3 276.6 267 257.1 246.2 235 224 218.1 213.8 210.6 207.6 204.8
245.9 240.7 238.3 236.7 233.2 230.6 235.2 238.5 239.9 235.1 228.9 219.4 215.1 229.2 237.9 242.4 252 259 271.2 275.2 276.4 276.8 276.9 281.8 288.3 293.2 293.6 291.1 286.6 281.7 276.8 273.2 270 269.5 265.6 260 255 250.4 247.9 243.3 240.8 239.5 237.3 237.5 240.3 237.7 234.5 231 229.6 229 228.1 227.4 229.6 230.1 230.7 236.8 248.7 248.4 241.4 239.3 230.8 223.8 217.6 210.7 201.4 189.2 177 173.7 171.2 169.2 173.8 174.6 173.7 165.2 166.2 168.4 175.3 195.6 184 180.8 192 195.8 203.7 210.3 216.1 221.8 225.9 227.8 228 229.6 231.9 235.1 238 241.3 246 250.8 253.8 258.1 261.4 262.8 263.2 263.6 262.9 261.2 261.2 260.8 259.3 258.5 257 255.4 251.5 248.3 243.8 240.7 236.9 234 230.4 223.6 212.2 199.9 192.4 177.3 178.9 206.9 215.8 221.2 228.3 236.7 243.6 247.9 250 253.3 257.1 260.5 264.3 265.4 263.9 262 256 250.8 246.6 247 246 253.3 259.9 280.4 302.2 316.1 326.2 329.4 334 342.5 347.2 348.4 351.6 355.8 362.4 364.9 364.1 362.5 361.3 357.7 357.7 360.3 362 360.8 360.7 358.2 355.1 351.2 343 338.4 334.1 330.5 330.8 335.4 339.9 342.4 345.4 344.4 338.5 332.5 326.9 320.5 314.2 306.3 297.2 289.1 281 272.2 263.3 252 241 230.5 223.6 216.7 211.8 208.7 206 205.1
248.3 242.7 237.9 235.1 232.2 231.7 234.9 239.6 243.4 239.3 231.5 223 216.8 223.5 235.7 242 248.5 256.6 269.4 272 273.6 276.3 278.4 283.1 286.8 289.6 290.5 287.9 283.4 282.1 277.3 273.9 270.4 267 265.8 260.5 254.9 249.6 245.9 242.7 243.1 242 240.4 237.2 235 233.6 232.6 231.4 229.7 228.7 227.6 227 227.3 228.1 230.1 238.3 246.5 238 233.5 229.3 223.3 219.2 216.9 211.2 198.5 184.5 175.8 173.2 169.8 170.9 179.9 180.4 178.2 169.7 166.9 167.3 169.6 177.9 176.9 195.7 194.7 185.7 190.3 208.7 217.4 222.8 226.5 227.2 228.6 230.8 233.7 236.3 239.5 242.8 248.3 251.7 255.8 259.3 262.5 263.9 265.6 266.1 264.5 262.4 261.2 260.8 259.5 257.8 256.2 253.9 249.4 243.7 239.4 235.6 231.1 225.6 220.4 213.1 201.7 192.7 187.5 183.9 188.4 202.8 213 224.3 233.4 240.6 247.1 249.1 251.6 254.5 258.2 262.1 266.2 267.9 269 268 265.7 263.5 264.1 264 260.3 253.3 251.8 266.6 288.8 300.8 308.9 317.3 319.5 322.8 327 331.6 343 354 357.7 363.1 364.8 363.7 362.5 354.2 351.6 349.7 345.3 343 340.6 342 343.2 338.4 336.3 333.4 328.9 322.3 320.9 325.4 329.4 332.4 336 337.2 334.4 329.2 323.2 316.3 309.6 303.1 294.7 285.8 276.2 266.4 258.2 247.2 237.1 228.1 220.8 214.1 209.2 207.7 207.5 207.3
249.8 244 238.6 235.1 232.7 232.4 235.7 241.1 246.8 242.9 236 226.9 218.8 218 230.4 240.1 249.1 254.7 258.6 263.4 270.7 274.6 276.4 279.5 283.1 287.3 288.7 289.8 284.5 279.9 276.1 274.1 270.1 265.4 264.8 259.6 253.5 248.6 247.1 246.3 247.7 247.8 245.3 241.1 238.5 235.6 233.8 231.9 230 228.3 227.2 226.8 227.7 226.2 229.2 236.7 239.8 231.7 226.4 219.1 212.8 212 210.2 204.2 192 178.4 174.6 174.1 174.1 176.8 183.7 184.4 183.4 181.8 169.4 166.3 168.3 169.7 181.9 199.8 199.2 198.1 204.4 206.8 217 222.2 224.5 227.7 229.4 232.4 235 237.8 241 243.9 249.9 254.2 258.1 261.7 263.2 265.7 268.6 267.9 266 263.7 262.1 260.8 259 256.8 253.5 250.4 245.7 241.1 235.1 228.1 223.8 217.3 209.5 203.9 200.3 196.8 191.4 183.4 188.6 197 209.9 226 232.4 237.2 242.7 246.6 251.1 255.4 259.6 263 266.6 270.4 271.9 270.8 269.9 268.7 269.1 268.5 267.5 257.8 251.6 255.9 274.7 286.8 290.2 296.2 301.7 310.8 316.6 318.2 326.4 342 353.2 361.4 361.7 361.4 355.7 350.1 345.2 340.9 337.3 333.8 330.8 331.4 328.6 328.8 329.8 326.5 321.1 312.3 308.4 313.2 317.1 322.6 328.8 329.8 327.6 323.8 319.7 312.8 306.6 300.2 291.6 281.1 272 263.3 253.1 243.5 234.4 226.1 219 212.8 209.6 209.2 210 212.9
250.8 245.2 239.7 236.1 233.8 232.8 235.7 241.7 248.4 246.6 241.8 233 224.6 219.2 221 237.6 250.7 254.3 257.6 259 261.7 265 270.6 277 281.4 282.9 286 290.9 286.6 278.9 273.9 272.3 267.6 263.5 262.6 257.6 251.8 251.4 250.6 251.5 252.2 250.5 247.6 243.4 241.2 238.4 236.1 234.5 232.5 229.8 228 227.4 226.8 225.1 226.7 231.9 232.2 225.4 221.1 211 206.3 203.2 199.6 194 182.6 178.9 184.7 182.1 180.7 185.7 188.6 189.7 188.3 184.3 180 167.8 167.1 168.8 183.1 196.4 199.1 204.4 206.7 213.2 220.6 223.4 226.1 228.3 230.9 233.9 236.2 238.4 240.7 244.8 251.3 256.1 260 263.9 265.7 268.1 269.8 269.5 267.4 265.5 263.8 262.2 259 255.9 252.9 248.7 242.1 238 231.5 226.5 220.8 218.7 215.6 210.3 204.2 200 194.7 181.5 184.9 195.3 206.8 223 229.5 234.6 239.1 243.2 249.3 254.9 260.1 264.5 267.9 270.6 271.9 272.2 271.7 271.2 271.8 272.3 272.6 265.6 253.7 252.9 256.6 263.4 268.7 277.3 284.3 295.6 303.1 304.6 320.2 327.7 338.6 348.7 352.7 354.7 353.2 345.1 339.4 335.7 331.6 326 324.8 324.5 319.4 313.2 315.9 315.3 310.3 302.6 296.5 295.7 303.4 306.4 313.7 317.1 318.1 316.5 314.1 311.2 304 297.9 289.2 280.7 271.1 261.3 251.7 243 233.4 224.7 216.9 213.1 214.9 215.2 217.9 220.6
250.8 246.6 241.2 237.3 235.2 234.3 236.1 241.6 247.1 250.1 247 240.4 230.8 224.5 219.6 233.3 249.9 253.5 254.2 251.8 259.7 267.3 272.9 277.3 280.4 280.8 283.9 285.2 281.5 277.9 272.8 270.9 268.7 265.2 260.6 256.3 256.7 257.7 256 256.5 256.5 252.9 250 247.9 245.9 242.2 238.5 236.7 234.6 232.3 229.3 227.7 227.6 227.2 226.5 228.9 228.2 221.2 209.9 203 202 198.8 194.5 183.2 182.9 193.6 193.3 191.2 193.3 196.5 194.5 193.7 190.9 186.6 182.8 178.4 170.3 167.3 179.4 194.8 202.1 208.4 213 214 221.5 224.5 227 230.1 231.9 234 236.9 239.1 240.9 243.1 249.4 256.3 261.8 265.8 268.9 269.8 270.2 270.4 268.7 266.1 264.3 262.1 259.1 255.7 251.8 245.9 239.5 233.7 229.2 226.1 225.1 223 217.4 211.9 205.5 199.9 190.4 182.5 184.7 200.1 207.5 215.1 222.9 232.5 239.6 244.6 250.6 256.3 260.6 264.6 267.7 269.1 271 272.3 272.9 274 275.7 276.7 277.4 274.2 262.5 254.4 253.5 255.2 258.7 266.6 272.9 280.2 286.9 293.5 307.8 323.7 333 340.7 344.5 347.9 344.8 340.4 334.5 330.1 323.4 318.6 313.1 308.4 304.5 301.5 302.3 302.7 302.2 294.8 282.6 282.2 289.2 296.9 301.6 308.7 311.3 311.5 310.8 308.4 302.2 295.6 288.9 279.8 269.3 255.1 247.9 239.1 230.3 223.3 218.4 220.6 223.8 227.3 230.4 228.8
250.4 247.4 242.6 238.8 236.9 236.5 236 240.1 245.6 251 251 244.3 237.8 232.3 223.9 223.2 240.3 241 240.7 251.9 261.1 270.5 276 279.7 281.1 281 284.7 286.7 285.9 280.4 272.2 275 275.5 271.1 264.6 263.5 263.7 262.4 261.1 261.3 260.1 256.5 253.5 253.3 250.6 247.2 243.2 238.9 235.6 233.7 230.8 228.1 227.6 227.5 227.4 228.9 226.9 220.6 210.3 203.4 192 186.2 183.3 190.6 200 206.2 200.1 201.7 205.8 204 199.1 194.9 191.5 187.4 185.3 183.2 171 169.2 183.5 196.8 206.4 211.4 214 218.3 222.6 225.4 228.9 232.4 233.8 235.8 238.1 240.7 243.1 245.8 250.2 255.7 261.1 266.4 269.1 270.7 271.4 269.9 268 266.5 265.2 261.7 258.2 253.7 250.2 243.7 237.1 231.1 228.6 228.3 228.5 224.1 217.3 210.8 204.9 194.2 192.7 187.9 185.1 197.2 206.1 215.8 224.5 237.2 241.9 246.3 251.7 257 262.8 267.3 269.8 271.6 273.1 274.9 276 277.4 279.3 281 281.5 278.5 271.8 263.7 258 255 261.1 267.3 271.4 276.4 284 291.8 308.9 325 336.8 341.6 344.5 347 345.1 339.5 330.4 323.2 315.3 309.8 305 301.5 298.5 296.3 292.7 292.1 285.4 278.1 273.3 270.6 272.3 279.6 294.6 303.7 307.2 306.1 303.2 297.7 292.6 286.5 280.1 271.1 262.5 253.2 246.8 238.1 230.1 224.1 222.2 226.4 233 237.8 239.5 238.2
251 248.2 244.7 239.5 237.3 236.5 236 238.6 243.7 249 249.9 245.5 239.6 237.3 229.6 223.9 232.5 234.4 244.9 253.9 264.1 272.6 276.8 278.8 280.3 279.6 281.6 289.6 288.3 283.6 274.1 273.1 274.7 271.9 266.6 273 270.6 268.6 267.1 265.8 262.9 261 260.5 257.7 254.6 250.4 247.1 242.9 239 235.4 232.5 228.4 228 227.8 229.3 229.7 224.4 215.6 210.9 203.7 203 185.9 197.8 205.8 214.6 213.3 210.3 213.2 217.9 213 202.4 194.9 189.8 186.5 186.1 185 170.7 172.5 187.4 200.1 210.2 215 217 222.1 226.4 228.7 230.8 233.2 236.3 238.4 241 244.6 247.1 250.4 253.8 259.8 265.8 269.3 269.6 271.1 270.4 268.7 267.2 265.9 263.4 260.7 256.1 250.9 245.8 239.7 233 228.8 227.7 229.3 228 222.7 217 210.5 200.8 198.1 197.8 188.9 188.8 200.8 211.1 219.4 230 240.3 246.1 249.4 254.3 260.4 266.5 269.6 272 273.8 275.5 277.6 279.1 280.9 281.5 282.9 282.9 279.8 274.9 268.6 264 256.8 262.1 268.5 273.7 280.2 288.1 303.4 318.7 331.8 340.7 343.4 344.7 347.5 347.8 339.2 323.1 315.1 309.2 303 299.1 296.6 293.7 291 287.6 280.5 277.6 273.7 265 262.1 262.8 267.5 281.2 293.4 299.2 296 289.3 286.3 283.1 278.3 272.1 265.7 258 251.1 245.4 237.6 230.1 225.2 227.7 233.1 240 246.1 247.1 245
251.8 248.9 246.1 243.4 240.4 237.1 235.6 236.1 239.7 244 244.1 241.8 240.1 238.5 223 234.7 241.9 242.3 245.5 253.1 262.8 272.3 275.5 276.9 280.7 279.8 278.7 281 286.5 281.7 276.9 272.7 271 271.4 273.2 276.9 276.4 274.3 271.7 269.6 265.8 265.6 264.5 261.9 258.1 254.4 250.6 246.9 243.2 239.5 236.1 232.7 231.4 232.3 232.1 226.8 217.5 216.4 211.1 207.4 197.1 197.4 208.1 220.6 222.6 218.4 218.8 223.8 226.4 219.6 206.5 197.7 187.9 183.7 183.3 182.3 170.8 170.3 195.7 205 214.1 218.6 220.7 222.6 227.1 230.7 232.3 234.7 238.5 240.4 244.1 247.9 251.2 254 256.8 262.9 268 270.8 271.3 271.8 270.6 269 267.1 264.4 261.7 258.5 253.7 247.3 240.6 234.7 230.6 227.1 227.6 227.4 225.3 220.9 215.6 204.1 201.9 206 196.7 185.4 196.5 207.8 214.7 221.7 231.8 240.7 247.4 252.3 257.3 264.9 269.5 272 274.4 277.1 280.1 281.2 281.6 281.7 282.3 282.2 281.9 279.2 274.3 268.2 263.3 257.6 269.3 278.5 287.4 295.2 304.1 313.6 325.3 335 341.9 344.4 341.6 345.5 345.4 331.9 314 308.4 304.2 298.7 295.9 292.9 290.7 287.3 281.3 284.8 287.1 285.1 278.1 268 256.6 262.1 270 281.1 285.6 285.1 280.3 277.8 275.2 272.7 268.8 264 258.1 252.1 244.5 238.2 232 230.1 233.4 238.7 245.7 251.6 252.3 248.7
252.8 250.1 248.8 246.6 243.5 239.8 235.9 234.8 236 237.7 238.3 238.2 237.9 228.3 233.2 240.6 248.2 248.9 249 250.3 259.6 266.3 269 272.4 277.4 279.9 282 282.5 281.5 280.4 280.4 277.8 273.9 275.4 278.8 283.3 281.1 279 275.4 273.5 269.6 268.6 267.3 265 261.3 258.5 255.4 249.4 245.6 243.1 239.4 235.9 234.3 234.3 232.7 224.6 222.4 219.3 212.5 204.3 198 210.1 224.2 229.5 228.5 221.8 228.3 233.9 235.2 227.3 219.3 203.9 192.5 184.6 179.9 176.7 171.3 169.9 199.3 211.7 218.2 220.7 221.9 225.8 228.7 231.9 234.5 235.6 239.4 241.5 244.7 251.4 254.6 255.9 259.8 265.6 269.5 271 271.2 271.4 270.9 268.6 265.2 262.3 260 255.6 250.4 244.4 237.8 232.3 227.9 225.7 226.2 223.1 220.7 218.8 210 207.1 210.1 202.6 189.1 195.5 207 217.5 223 231.3 236.8 243.9 250.7 254.8 259.5 266.6 271.5 275.2 279.2 282.1 284 284.1 283.5 282.6 281.4 280 278.3 276.2 272.1 267.4 259.2 256.5 270.4 286.1 297.2 306.4 312.6 321.1 325 332.3 337.7 336.9 335.9 333.9 328.2 317.5 310.2 304.6 298.9 295 292 289.7 287.1 284 285.9 289.2 290.8 286.6 278.7 267.8 256.9 259.2 264.7 268.8 271.3 271.6 271.5 270.6 268.9 267.9 265.4 262.2 258.8 254.1 247.8 241.3 236 234.3 237.4 241.9 249.1 256.1 256.3 252.5
254.2 253.4 252.4 249.8 246.3 242.2 237.8 235.2 234 233.2 233.5 233.5 233.4 228.9 238 244.5 252.3 253 251.7 250.3 253.6 257.7 260.1 264.2 269.3 277.2 280.3 280.8 281 282.9 280.3 278.5 278.9 282.6 283.6 286.7 285.6 282.1 278.9 276.6 273.4 271.6 269.9 266.4 264.2 261.4 257.1 252.9 248.4 245 242.6 239.5 236.8 233.4 230.7 226.4 223.8 218.1 210.9 208.3 217.8 226.9 234.9 236.8 232.9 230.6 235.5 241.8 242.8 236.3 227.6 215.5 201.1 191.4 183.6 177.5 173.3 170.1 195.2 215.4 219.9 222.1 223.8 226 230.6 235.1 235.9 238.1 240.4 243.1 247.4 253.7 256.9 257.7 261.9 266.3 269.7 270.9 271.3 271 269.9 267.2 264.3 262.3 258.7 253.7 248.5 242.4 236 230.1 225.9 224.4 222.6 220.3 215.6 210.2 214.2 217.1 212 198 190.1 206 217.6 225.2 230.5 237.3 242.9 248.1 253.9 257.5 262.3 269 275.4 281.4 285 286.7 287.3 285.6 284.3 282.3 280 278 274.7 272 269.1 264.9 258.8 257.4 265.3 288.1 302.2 315.5 318.9 321.6 322.2 325 327.8 328.3 326.1 328.6 323.5 317.9 308.6 301 295.8 292 289.2 286.7 284.6 284.6 288.4 291.7 290.2 283.3 275.5 267 255.3 254.8 258.8 260.3 262.3 263.5 263.7 264.3 262.8 262.2 261 257.6 255.6 253.6 248.1 244.2 239.5 239.1 240.3 245.5 252.6 256.9 257.5 254.3
256.5 255.6 254.1 252.5 249 244.7 240.5 236.4 234.6 233.2 232.2 231.6 229.9 232.3 240.6 246.1 253.1 254 251.1 248.6 250.1 253.5 259.8 260.8 267.6 275.2 277.6 278.4 279.8 281.6 279.8 281.3 286.5 287.1 289.6 291.2 289.1 285.5 281.5 280.1 277.1 275.9 272.2 268.6 265 263.1 259.6 255.6 251.5 247.7 243.8 240.9 239.1 238 231.1 230.4 221.9 213.9 204 217.2 227.6 237.2 242.4 242.1 234.8 234.6 240.9 249 249.6 243.8 235.6 225.6 211 199.2 190.4 181.7 175.1 170.8 190.3 218.4 221.5 223.1 225.3 230.9 234.8 237.5 238 240.8 243.8 247 251.6 255.8 257.6 259 263.7 268.4 270.3 270.6 271.2 269.2 267.7 266.3 263.6 261 257.7 252.9 247.1 240.9 234.6 228.4 224 222 220.1 217.9 216.3 219.3 221.8 221.3 215.5 198.6 194.4 213.5 224.7 230.7 238.9 243.3 248.9 252 256.2 262.1 267.2 273.7 281.9 287.7 290 290.6 289.9 287.3 284.8 281.5 278.5 275.4 272.3 268.7 265.5 262.4 258.1 257.5 260.4 279.2 304.1 315.7 318.2 317.6 317.6 318.8 321.4 321.9 323.2 323.7 321.8 314.5 303.9 297.9 293.9 290.4 287.3 285.2 285.2 287.2 290.4 290.1 285.6 276.5 267.2 260 253.6 252.3 253 253.8 255.1 256.5 257.3 258 256.3 255 254.1 252.6 251.5 249.2 246.9 244.1 241.8 242.5 243.8 248.9 254.9 256.7 257.4 255
258 257 256.1 254.6 250.5 245.9 241.9 238.4 236.3 237.1 234.6 231.4 230.4 228.7 236.4 242.1 247.5 252 247.6 247.4 251.1 257.1 263.2 263.1 268.7 274.3 278.9 280.1 283.4 284 285.2 289.9 290.4 290.9 293.6 293.2 292.2 288.9 284.6 282.5 280.3 277.2 273.6 269.9 266.7 263.7 261.3 258 254 249.4 245.4 242.4 241.4 236.8 236.7 230.3 220.7 212.1 213.5 223.5 234.8 243.1 246.4 243.5 237.7 238.5 245.6 253.4 254.1 249.1 241.6 231 219.6 203.9 194.8 187.9 182.9 172.7 188.5 215.3 221.4 224.7 228.9 232 235.3 240 241.1 244.3 247.6 250.4 255.8 258.6 260.8 263.4 267.5 270.2 270.8 270.9 270.8 268.4 266.9 264.7 263.1 259.5 254.6 250.8 245.1 238.1 232.3 227.2 224.3 222.7 220.8 220.2 221.5 223.4 225.9 223.3 214.5 196.9 198.8 219.6 229.8 238.3 246 250.5 254.8 257.3 261.4 266.4 274.5 284.5 291.2 294.6 295.6 294.5 292.8 289.1 285.4 281.3 278.4 276.2 272.3 269.2 264.8 260.7 259.3 258.7 259.2 268.4 291.6 307.7 311.3 312.8 313.4 312.7 313 318.3 324 320.8 315.3 306 301.5 296.8 293.3 289.4 287.2 287.5 288.2 289.2 289 284.7 277.6 271.5 265.6 256.4 251.4 250.1 248.9 248.6 249.2 249.6 249 248.8 248.4 247.4 246.2 247.3 247.1 243.1 241.9 244 243.4 245 244.9 249 252.4 254.7 256.8 258
258 258 257.4 254.7 251.1 246.7 243.5 239.1 241.4 241.5 239.9 234.5 232.8 232.4 229.5 237 242.1 245.6 250.5 256 260.5 265.4 271 269.2 267.4 275.7 280.7 281.3 283.5 288.6 292 292.6 291.1 292.4 293.6 292.4 292.4 291.3 287.6 284.5 281.4 279.2 276.2 271.6 266.4 261.9 261.5 258.4 254.9 251.3 247.4 244.8 242 241.7 236.8 228.5 220.9 211.6 217.4 227.2 237.8 245.7 246.4 242.4 237.6 240.5 248.5 255 255 252.5 245.7 234.4 222.9 208.3 197.9 194.2 190.1 172.6 179.4 209.4 222.4 226.8 231.5 235 238.7 242.8 245.6 248.1 251.9 255.7 258.4 261.7 264.4 268.5 270.7 272.1 272 271.4 269.8 268.1 266.3 264.5 261.5 257.5 254.4 248.7 240.9 235.5 230.7 227.6 224.8 223.5 222.4 224.1 224.4 226.4 227.8 223.8 211.6 195.4 204.5 223.3 233.5 244.7 251 256.4 260.2 264.1 269 273.4 283.4 294.5 299.3 301.2 301 298.9 296.5 293 288.6 282.9 278.6 276 272.6 268.9 265.5 261.6 260.3 259.8 259.6 262.1 275.8 293.9 299.9 305.4 307.1 306 303.4 302.5 314.3 309.6 305.1 301.6 298.6 297.3 294.8 291.9 290.8 290.6 289.7 287.2 284.6 281.3 274.1 266.5 260.1 252.9 250.2 249 248.4 247.7 247.9 247.3 245.2 244 244.9 244 241.1 240.4 239.3 241.6 240.8 234 240.2 243.9 245.4 248.2 251.3 257.5 261.6 260.4
257.9 258.7 257.6 254.7 251.7 248 244.4 242.8 244.1 246 244.6 238.6 235.1 236.1 238.9 232 235.9 246.5 254 258.5 262.9 269.2 275.1 275.6 271 275.6 280.8 283.6 286.1 291.6 295.3 293.9 294 294.1 295.1 294.2 293 291.8 288.9 285.9 282.3 280.1 277.1 273.6 267.7 262.2 258.3 256.1 254.5 252.3 248 244.8 243.5 242.6 234.9 227.3 217.3 208.2 219 229.3 238 244.2 244.7 243.2 243.7 244.1 250.1 254.1 255.4 254.1 246.8 236.7 225.9 212.4 203.7 198 190.7 172.3 177.1 208.5 222.7 229.2 233.8 237.7 241.6 245.8 249.2 250.1 254.3 258 259.9 264 268.3 270.5 272.8 273.4 273.3 272.1 270.7 269.1 266.6 263.1 258.7 256.7 253.3 248.6 242 234.8 231.2 228.1 226.5 225.4 227.5 227.9 227.2 228.9 226.1 216.9 205.2 194 215.6 227.4 240.2 250.3 257.2 261.6 265.6 270.5 275.5 282.4 290.7 301 306.3 306.5 305.6 303.4 299.9 295.2 289.5 284.1 279.7 276.2 272.7 269.2 267.4 264 261.9 260.6 260.6 262 264.1 269.4 276 287.2 290.8 285.9 282.3 287.5 299 302.8 303 300.2 298.2 300.3 299.1 296.5 293.9 291.4 288.5 284.6 280.7 275.5 267.3 261.2 255.4 250.7 251.6 251.9 252.4 253.3 251.5 252.7 253.8 253.2 253.3 251.5 250.4 251 251.9 250.4 244.8 230.6 232.3 238.6 242.7 245.1 254.1 261.8 260.9 259.9
258.5 259.1 257.7 254.6 252.1 248.7 244.9 245.4 247.7 250 247.9 242.6 238.7 237.8 243.2 233.1 239.7 250.1 255.3 260 264.9 271.6 278.4 282.9 276.2 277.3 283.1 286.9 290.6 294.4 297.3 299 298 296 296 296.1 294.5 292 288.2 283.6 280.9 277.7 274.8 272.1 267.5 263.7 260.4 257 254.2 250.9 248 245.7 245.7 238.4 230.5 222 212.4 211.8 220.5 229.7 236.9 242.4 245.5 247.1 248.2 249.2 250.7 252.7 253.9 252.9 245.2 235.8 225.2 217 210 199.4 186.6 173.8 177.8 205.7 221.8 229.6 234.3 237.8 242.6 250.4 252.9 251.5 254.9 259.6 261.3 265 269.6 272.3 274.2 274 274.2 273.5 272.4 270.5 266.3 263 259.7 257.1 251.5 246.2 241 236.1 232.6 230 229.3 230.3 231.4 229.9 228.4 227.4 222.1 208.2 194.4 204.7 220.9 235.1 247.1 256 261.4 267.8 271.1 275.1 280.6 289.4 299 305.7 310 310.3 309.4 306.9 303.1 298 291.2 286.6 280.1 276.4 273.1 270.6 268.6 266.3 263.4 263.9 264.1 264.6 264.9 265.6 266.6 268 268.7 271.6 275.1 281.5 296.1 303.1 303.3 301.6 301.8 306 304.3 299.5 294.1 290.7 286.2 280.5 274.5 267.7 261.7 255.6 252.3 252.3 255.9 258.9 262.2 261.2 260.6 262.8 263.5 262.9 262 264 264.3 262 258 252.7 243.1 235 220.9 229.7 233.3 237.4 247.2 256.5 255.3 252.8
259.4 258.6 256.5 253.3 251.7 249.4 247.6 248.2 249.6 250.8 249.2 244.5 241 240 244.2 234 242.7 250.9 256.6 261.5 266.7 273.3 280.5 290 283.4 284 286.9 288.9 291.9 294.2 298.4 300.3 301 299.3 299.7 298.9 296.6 292.1 288.5 282.9 279.7 278.2 275.5 273.5 269 265.7 261.5 258 255.1 250.8 248 247.5 242.6 232.7 225.8 217.4 211 215.1 224.1 232.1 239.8 245.2 248 249.1 250.9 250.9 250.6 250.4 250.3 246.2 239.2 233.1 226.9 219.7 211.2 196.2 175.6 175.1 185.9 211.4 223.5 229.8 234.9 239 244.4 251.2 251.9 252.8 254.5 259.7 263.8 267.1 270.6 273.1 273.8 275.1 275.1 274.2 273.3 271.1 267.4 263.5 260.3 257.7 252.5 246.8 242.4 239.6 234 232.8 232.6 233.4 233.5 231.8 227.9 223.7 217.4 199.7 199.6 213.3 228 241 251.5 258.8 269.4 274.7 277.1 280.5 286.3 293.1 303.9 309.9 312.5 313.6 312.7 309.4 305.8 299.7 292 285.5 280.6 276.4 272.2 269.9 267.9 267.2 269.3 271.7 273.3 271.3 268.1 269.8 270.2 269.9 270.4 270.6 272 282.7 297 304.4 304.9 306.2 308.8 311.7 307.1 300.9 294.8 288.5 282.5 277 270.8 263.4 257 255.1 257.5 260.5 263.1 266.5 267.7 267.7 268.9 270.3 270.9 271.4 272.3 273.8 271.1 263.8 255.3 248.3 239.6 233.2 226.3 211.9 218.5 225.9 235.9 246.5 248 247.9
260.1 258.5 255.5 253.2 252 251.3 250.9 250.1 250.5 250.6 250.2 246 242.8 242.5 239.4 235.8 244.6 250.3 257.6 264.5 270.5 278.7 288.6 294.7 287.7 285.8 289.2 291.6 294.5 296.5 299.6 303.3 303.8 304.1 304.6 301.2 295.9 292.3 288.7 286.5 283.1 280.8 277.4 273.8 268.6 264.6 261.3 258 254.2 250.5 249.7 245.5 237 228.2 220.5 213.1 215.3 224.4 233.7 239.2 244.6 248.5 252.4 253.6 253.1 251.5 249.6 246.8 245.1 241.1 235.6 230.4 224.7 216.9 205.8 184.6 175.7 172.5 192.5 211.2 221.6 227.9 234.1 239.2 240.8 244.5 248.2 252.4 254.6 258.6 263.7 269.1 272.5 273.3 273.5 273.9 275.1 274.6 273 271.1 268 265.7 261.9 258.8 253.8 249.4 246.7 242.4 236.2 235.7 236.2 234.5 235.2 231.7 226.6 222.1 212.1 197.8 208.6 219.6 231.2 243.9 253.8 263.1 275.6 280.6 283 286.5 292 302.8 308.2 313.2 315.6 316.9 315 311.6 307.9 301.5 292.9 285.7 279.7 275.3 271.9 270.8 271.4 274.8 277.1 278.6 279.1 278 271.8 275.6 276.7 277.7 275.5 272.8 272.9 281.6 293.7 300.1 304 307.7 312.2 311.4 307.5 301.4 294 285.2 277.9 271.5 264.2 257.8 258.2 260.8 263.7 266.8 268.9 270.4 272.5 274.4 275.9 277.3 279 280 279.9 274.7 267.5 258 250.3 242.1 235.6 231.3 227.7 218.1 203.5 213.1 218.3 233 242.3 243.2
260.7 258.4 255.4 253 252 252.6 253 252.6 250.5 250.5 249.8 247 245.3 243.1 238.5 236.5 244.8 252.9 259.2 267.3 275.6 284.5 294.1 296.5 288.9 287.8 291.6 293.4 298.4 299.9 302.1 307 306.4 305.2 304 298.9 295.1 292.1 289.2 287 283.1 277.7 273.6 270.9 266 262 258.5 255.4 252.8 251.8 250 241.7 230.2 221.8 214.9 217.1 225.7 237.9 242.9 247.3 250.7 253.3 255.9 257.7 256.4 253.2 250.6 246.3 241.4 235.5 230 225.1 219.6 209 189.6 177.9 174.2 176.3 198.5 213.7 221.9 226 232.7 237.5 235.6 238.9 247.9 253.2 255.6 259.8 266.6 270.6 274 273.8 273.6 276.5 277.5 276.7 273.5 270.8 270.9 267.8 263.8 258.5 254.2 249.5 244.6 243.3 242.2 240.8 239.2 236.1 234.4 229.8 224.3 217 207.2 202.4 212.9 223.5 239.6 250.2 258.8 269.8 279.3 286.4 289.6 293.1 297.4 306.4 311.2 316.7 317.7 319.1 316.9 312.9 308 302 294.5 286.2 279.8 275.1 274 275.4 280.3 282.4 283.1 283.4 282.8 280.1 278 281.1 283.6 283.9 283.1 279.5 276.5 276.6 284.6 294.4 300.3 304 310.2 310.9 305 299.3 291.5 282.4 272.6 264.1 263.2 263.2 264.6 267.4 270.3 272.3 273.5 274.2 276.1 278.5 280.2 281.7 282 280.4 274.9 266.6 260 250.9 242.5 234.8 229.8 226.7 224.2 220.2 202.4 201.5 205.5 208.9 219.3 226.8
261.3 258.4 255.9 253.4 252.8 254.1 256 254.1 251.1 250.4 250.5 248.3 246 242.1 238.2 237.9 244.7 252.7 260.7 268.9 276.8 287.4 296.2 293.6 288.5 289.3 292 297.3 300.8 305.1 306 307.3 307.6 305.8 304 299.2 294.3 288.9 286.4 284.4 281.4 280 275.5 270.6 265.5 261.9 258.1 254.8 252.7 252.7 246.9 236.8 222.1 219 221.4 225.3 236.4 247.7 251.6 255.3 257.4 259.2 260.9 260.3 258.2 254.2 250.2 245.5 239.1 231 224.7 220.5 211.6 191.8 176.7 177.3 191.8 177.8 200.4 216.9 224.3 223.8 228.7 227 223.2 238.1 247.2 253.8 257.1 261.4 268.5 271.8 274.8 274.4 278.1 281.3 279.7 277.4 272 271.9 271.1 268.7 264 259.1 255 251.9 252 251.6 248.9 245.5 241.8 238.7 235.2 228.5 221.5 213 200.4 207.5 214.8 230.6 247.1 254.3 263.7 278.2 288.6 296.2 299.4 299.3 302 309.8 313.9 321.1 319.6 319.6 318.1 313.6 308.4 303.5 291.6 283.2 278.5 279.7 280.4 286.5 289.6 288.7 287.5 287.2 284.8 282.4 282.5 285.3 287.5 290.5 291.2 290.3 287 281.1 279.2 287 295 298.8 303.2 306.1 301.5 296.3 288.3 277.3 269.4 270.9 271.9 272.8 273.6 276.2 276.7 277.2 278.2 278.8 279.8 282 283.7 284.5 280 272.1 266.4 259.6 252.1 243 234.7 226.4 221.7 217.4 214.1 212.3 206.4 192.9 196.6 199 200.4 203.9
260.8 258.8 257 254 253.4 255.4 256.1 254.7 251.1 250.2 250.9 248.7 244.4 240.2 239.8 240.1 240.2 253.6 261.5 269.5 276.8 284.4 291.1 289.6 288.9 291.7 295 300.3 305.9 306.5 307.8 307.6 308 304.9 301.1 298.1 292.8 288.9 285.7 283.4 279.4 278.1 276.8 272.2 266.4 261.7 257.3 253.8 253.4 249.2 239.5 227.3 225.6 225.9 229.8 235.7 246.3 256.3 259.1 261.7 264.1 264.9 265.4 262.8 258.8 254.5 251.2 246.2 240.5 234.1 228.5 221.6 202.8 177.9 179.5 189.1 199.7 179.9 192.9 216 208.2 194.9 211 207.5 218.4 238.6 246.8 252.7 259.4 263.8 271.5 273.8 276 277.2 281.5 282.1 279.5 279.1 272.9 273.5 270.1 267 263.4 259.8 257.5 256.2 257.2 257 253.6 249.2 244.7 241 235.4 229.1 219.8 209 199.6 207.7 214.2 231.7 247.5 256.2 272.9 286.6 298.2 303 305.5 306.8 311.7 313.9 317.5 321.3 319.8 319.2 317.3 313.8 307.8 298.2 288 283.5 283.9 286.8 292.2 294.2 295.1 294.5 292.8 289.7 287.5 285.3 285.1 288.5 292.1 295.3 298.8 295.8 292.2 287.8 282.5 282.6 288.2 294 298 299.3 296.3 290.5 280.1 277.8 279.2 281.9 282.4 282.9 282.6 281.8 282 283.1 282.9 283.1 283.3 284.7 285.3 282.9 275.4 265.8 258.3 251.8 244.1 236 227.2 217.1 212.7 208.8 206.1 204.6 201.9 195.1 191.5 189.4 191.6 194.8
260.4 258.7 256.8 255.4 254.9 255.3 255 254.3 253 250.1 247.7 246.9 243.1 240.5 241.4 242.3 241.5 251.1 260.4 268.5 275.7 285.9 287.1 286.8 290.4 297.1 304.7 312.4 313.7 312.9 311.3 309.5 308.6 304.8 300.5 296.9 292.2 287.5 282 278.9 274.8 269.1 268.3 268.7 265.2 260.3 256.2 253.7 250.9 243.4 228.8 231.9 233.1 233.5 240.7 250.9 255.4 264 266.9 271 271.7 270.8 269.6 266.1 261.1 257.2 252.9 249.6 244.7 237.5 228.7 218.2 195.3 178.1 184.5 198.5 206 189.4 181.2 190.1 183.8 193.1 191.1 192.6 216.6 237.3 248.8 255.5 261.5 265.7 272.1 275.5 277.2 278.4 280.4 281.4 279.8 279.1 274.3 272.5 271.4 268.6 267.4 264.1 267.2 266.8 264.9 263.1 257.5 253.2 249.3 244.1 238.6 231.6 218.4 207.3 199.1 206.4 216.4 233.5 246.8 257.3 279.2 293.5 306.2 308.5 310.6 317.5 322.9 324.1 321.4 320.6 323.5 320.9 317.3 313.5 305.2 293.8 288.7 290.1 293.4 299.4 300.9 300.9 300.5 299.2 295.6 292.5 290.2 288.7 288.2 290.9 294.5 297.7 298.2 296.1 292.4 290 286.3 283.4 285.2 290 294.7 295.5 291.4 285.7 286.1 286.9 289.6 290.8 290.9 290.2 289 287.4 287 288.3 285.7 285.7 286 286.8 282.8 273.8 266.8 258.1 251.3 243.8 234.4 226.4 216 210.7 206.2 205.2 204.3 203.7 202.8 200.5 197.7 193.7 188.3 186.5
259.4 258.1 258.1 257.1 256.9 256.1 254.5 254.2 254.2 252.8 248.5 244.1 242.3 243.1 243.6 244.3 248.1 241.9 256.4 265.8 278.2 281 283.2 287 294.3 304.9 309.5 314.6 315.1 315.7 314.8 314.2 309.6 305.3 300.8 295.9 289.7 285.8 283 278.4 274.4 269.2 264 261.2 259.1 254.4 253.2 250.5 243.7 234.4 237.6 238.2 238.6 242.1 252.9 260 267 272.1 275.3 277 278 276.6 274.2 269.5 264.7 259.4 253.6 249.1 245 236.9 227.2 213.6 186.8 179.6 189.5 203.3 212.2 206.6 192.5 191 197.8 206.3 209.1 199 212 236.1 248.5 257.9 263.7 267.9 272.1 274.9 275.3 276.8 278.3 278.4 279.2 276.1 275.3 273 272.3 271.4 268.3 270.3 274.2 271.3 271.4 267.8 263 260.2 254.4 247.3 240.3 230.5 218.5 207.7 200.7 205.5 220 235.8 247.6 267.1 282.5 296.1 310.5 313.7 313.5 321.7 327.9 329.1 325.3 322.3 322.1 322.5 318.5 312.7 299.9 295.1 295 301.2 306.2 308 307.7 306.7 304.7 302.5 298.7 295.6 294.4 293 293.1 293.6 296.5 298.1 297 295 291.8 289.1 286.5 284.1 285.2 290.1 294.1 293.8 295 294.5 295.2 296.1 297.5 297.6 297.8 296.3 294.3 292.9 291.8 292.2 289.7 287.9 287.3 285.6 276.6 267.2 258.7 251.7 245 234.3 225.9 217.8 212.3 211.7 214.7 215.3 213.2 211.2 212.3 212.6 207.6 199.8 191.7 184.8
258.9 258.8 258.6 258.6 257.6 256.3 254 254 254.4 253 249 243.6 242.8 244.7 246.8 246.7 254.9 252.1 249.3 264.9 272.3 274.5 281.3 290 297.8 308 313 313.1 313.1 313.1 314.3 315.4 311.1 305.5 300.5 298.2 292.7 287.2 282.6 279.1 274.2 269.7 264.3 260.2 252.3 247.8 249.5 244.5 232.9 236.4 240.7 243.3 245.9 252.5 264.6 271 276.5 278.4 280.1 283 282.5 281.5 277.8 273.2 268.6 262 256.9 249.2 241.3 234.3 224.6 208.7 186.9 179.6 195.5 208.8 216 209.8 209.9 210.1 215.3 224.1 212.1 202.1 207.8 237.2 249.9 259.5 263.4 268.5 271.1 271.3 271.8 272.3 272.7 274.4 278.3 276.2 276.1 274.6 273.3 272.9 271.7 279.7 279.9 278.6 276.9 273.9 269.9 265 259.1 252.1 242.8 231 217.6 207.8 202.9 210.2 223.1 240.6 256 276.9 294.7 300 306.5 315 317.9 325.2 332.1 334 330.2 324.3 322.4 321.7 317.8 307.9 302.4 305.9 310.6 312.3 313 314.1 312.8 311.6 308.9 305.3 300.8 301.4 300.1 298.6 298.6 298.5 298.1 299.4 297.5 295.6 294.6 293.2 289.7 286.5 287.4 291.2 296.6 299.1 300.8 302.6 303.9 305.1 305.1 304.4 302.3 301.3 300.6 298.8 296.9 294.5 292.3 289.5 283 275.8 269.9 260.6 252.4 243 237.9 227.9 220.9 213.3 215.9 220 221.8 221.7 220.5 220.8 223.3 223.1 217 204.8 194 187.6
259.2 258.9 258.8 258.4 257.9 256.4 254.2 254.4 254.9 254.6 249.1 244.4 243.8 245.6 249.9 253.1 262.5 255.8 247.1 257 263.8 271.3 280.3 290.7 299.6 306.4 314.3 316.3 316.7 313.7 313.7 314.3 311 307.8 304.2 296.3 294 286.8 280.5 274.8 272 269.9 265.1 257.8 250 243.9 241.3 234.6 234.8 240.3 244.1 251.4 258.1 269.4 275.5 281.2 282.5 283.9 284.9 287.1 286.8 284.7 280.9 276.4 271.5 265.1 258.9 251 241.3 230.2 220 202.1 186.7 181.5 198.7 212.2 218.2 214.1 217.6 220.7 227.6 233.4 221.2 207.7 198.4 220.8 237.8 245.1 251.8 263.3 265.9 264.2 263.3 265 266.9 270.1 273.3 275.4 278.4 276.3 275.5 275.8 277.3 284.1 282.2 281.5 279.4 276.8 273.9 269.3 263.2 254.9 244 229.2 216.4 205.2 202.5 212.1 229.3 248.9 260.5 275.1 296.6 306.6 318.1 319.8 323.1 329.9 334.5 334.9 333.1 329.8 325.1 322.2 318.4 317.8 318.2 317.8 319.8 320.6 321.1 319.8 317.9 315.6 313.1 309.4 308.2 306.6 304 305.1 304.2 302.9 302.3 302.1 301.6 301.1 300.5 300 298.3 295.8 290.7 293.1 301 305 306.7 308.8 311 311.2 311.2 311.8 310.7 308.6 306 303.7 298.4 293.9 290.6 284.9 278.7 268.6 262.7 255.2 243.3 234.5 228.1 221.2 219.1 221.2 224.1 227.3 228.2 226.8 227 230.3 235.5 231.4 223.1 213.6 200 191.7
258.3 258.6 258.7 258.2 257.8 256 255.1 255.6 254.2 253.2 248.3 245.2 244.7 247.3 255.3 262.4 263.8 256 247.6 258.1 260 269.5 278.1 288.9 298 303.2 310.5 314.1 315.4 314.7 312.7 313.1 310.1 307.2 304.1 299 294.4 288.8 282.2 279.5 278.6 273.9 266.6 258.6 250.2 241.3 236.9 240.1 241 244.6 250 257.6 268.1 278.8 282.9 286.7 288.1 289.4 292 291.4 289.7 286.9 283.2 278.6 273.4 267.9 260.6 249.6 238.5 227.9 215.8 202 189.2 179.7 203.6 216.5 219.5 218.5 223.5 227 233.6 242.5 237.2 222.4 212.1 200.1 214.5 225.7 236.8 245.4 252.9 253.6 252.6 254.1 259 269.3 272.9 275.6 278.2 278.1 278.4 277.9 279.9 286.2 284.2 283.2 281.1 279.2 276.1 272.3 265.6 255.9 243.9 226.4 214.8 202.8 207.3 217.6 234.2 258.5 273.2 274.1 292.9 308.6 315 322.8 325.7 329.9 334 335.3 334.3 332.3 326 320.6 323 322.9 324.2 324.9 327.4 327.8 326.6 325.4 323.4 321.1 317.9 314.9 314.9 313.1 310.5 310.2 308.7 307.7 308 308.2 307.8 307.7 308.2 306.9 306.9 305.6 300.7 297.8 305.9 311.8 312.7 314.7 315.5 316.6 318.5 317.5 317.2 312.9 309.5 304.2 297.3 291.6 287.8 280.5 273.2 264.4 253.2 244.1 233 228.1 223.6 221.5 227.1 228.4 230.9 233 232.2 233.7 235.2 238.8 241.2 235 225.7 216.4 207.8 198
258.2 259.2 258.2 257.8 257.5 256.1 255.2 255.3 254.1 253 249.8 245.8 245.7 250.9 262.1 266.7 262.2 255.6 250.2 259.2 264.6 271.1 273.2 282.1 295.1 301.9 307.5 309.2 312.3 312.8 312.4 312.3 307.7 305.7 304.9 301.5 296.5 292.7 287.7 286.5 281.5 275 267.3 258.9 249.2 240 242 244.7 243.8 252.5 260.1 267.4 277.4 284.5 288.3 291.5 293.1 294.6 295.4 293.7 291.8 289.7 285.7 280.9 274.4 268.8 258.3 245.8 236.3 224.1 211.7 204.9 190.6 193.6 209.1 220.1 221.2 222.4 227.4 233.2 240.1 248.1 242.3 234.9 221.3 203.1 212.5 223.7 231.2 239.8 248.4 249.2 249.2 252.2 259.5 265.8 271.6 275.3 279.8 281.6 281.9 279.5 280.7 283 283.6 285.3 283.7 281.2 277.5 273.7 268 259.5 246.1 225.5 208.4 204.8 209.2 219.4 236.9 264.5 276.8 285.5 282.9 293.7 312 319.3 326.2 326.7 329.1 334.5 336.3 332.9 324.7 321.2 326.9 329.7 329.5 329.8 332.1 333.5 332.9 331 328.1 326.2 323.6 320.9 320.6 318.1 314.8 316.3 314.9 314.2 314.5 316.3 318.7 320.2 320.2 317.2 315.7 313.5 306.6 303.8 310.7 317.5 318.6 320.7 320.7 322.6 322.7 319.8 319.3 314.4 310.1 303.5 294.9 289.8 284.4 277.7 267.6 257.5 244.8 236.5 228.2 223.5 226.3 230.4 232.4 234.3 236.8 237.7 237.8 239.1 243.4 247.4 247.6 241.8 233.7 223.8 214.8 203.4
258.2 258.4 257.1 256.6 256.4 255.9 255.8 256.5 254.8 253 251.2 246.6 250.6 258.8 269 265.8 258.1 263.3 257.9 251.6 266.5 274.7 280.2 277 289.8 299.8 307.5 310.4 311.2 311.6 311 311.2 307.5 304 302.8 299 295.8 295.3 293.3 286.2 280 273.2 266.6 258.9 249.7 245.1 251.8 251.1 249.6 257.2 266.3 276.2 282.2 287.7 293.5 296.2 297.4 298.5 297.6 295.8 294 291.9 288.3 282.7 274.8 265.5 252.4 241.3 231.3 220.3 211.7 208.1 186 196.5 213.2 222.6 223.6 225.9 232.1 237.5 244.6 250.5 245.6 235.5 226.1 204.9 219.7 228.4 234.4 239.5 244.9 249.4 252.2 252.9 257.7 265.7 270.4 273.5 278.6 282.6 285 282.1 283.5 283.9 285.8 286.6 285.5 282.3 278.6 274.4 268.9 261.8 249.2 228.2 213.5 206 207.7 217.1 237.4 263.8 277 289 294.3 290.1 298.1 310.9 320.8 323.9 322.8 326.5 333 334.9 324.5 321.4 326.4 331.1 332.4 334.8 338.3 340.3 338.4 335.1 331.7 329.3 326.9 326.3 325.4 323.3 322.1 322.4 322.2 322.7 322.2 324 328 330.1 331.2 331.4 328.8 320.5 311.9 307.7 313.5 319.6 321.4 323.8 324.8 327.4 327.5 323.1 318 314.9 309.1 300.4 292.3 285.2 277.6 271.3 257.9 246.7 238.1 230.1 225.7 229.7 233.2 236.1 236.9 238.4 240.7 241.8 243.2 245.1 250.1 251.4 248.9 243.1 235.5 226.1 215.9 204.7
258.3 258.2 256.9 256.7 255.7 255.9 256.2 256.8 255.3 251.2 249.3 252.3 257.4 265.5 270.7 264 263.3 267.8 267.1 257.8 269.6 277.9 284.8 280 284 295.7 308 311.3 311.6 312.3 310.9 308.6 308.2 306.3 304.5 302.3 300.6 299.6 292.5 285.2 279 272.4 264.8 257.2 245.1 255.6 257.9 253.6 257.8 265.6 274.3 283.6 287.5 293.7 298 300.4 301 301.8 301.3 299.2 297.1 294.6 290 284.2 274.7 261.9 248 236.5 226.4 217.9 211.7 208.1 194.5 207.1 217 222.7 224.6 229.1 235.7 242.1 251.4 252.1 243.6 233.1 219.3 214.2 229.8 235.6 240.3 245.7 250 254 255.8 256.5 257.7 264 274.2 275.5 277 282.9 288.6 289.2 288 286.5 288 286.9 284.1 282.7 279.8 276.1 270 262.1 249.2 227.9 215 207.5 209.3 217.5 236.6 259.3 274.8 287.2 294 301.3 305.3 310.4 314.1 318.9 319.1 326.1 325.9 324.1 321.3 322 326 332.4 336.1 339.1 342.1 344.2 342.4 339.2 335.9 332.8 331 330.3 329.2 328.9 327.9 327 330.4 332 331.7 333 335.4 336.6 337.7 339.2 337.4 329.1 320.2 311.9 316.6 322 325.2 328.8 330.4 332.6 330.3 324.4 317.2 312.7 305.7 296.4 287.6 278.6 270.1 262.3 250.2 240.8 232.2 229.6 232.2 235.4 238.3 239.9 241.6 242.8 244.1 246 248.5 250 251.5 250.2 247 240.8 232.8 224.7 218.9 211.8
257.8 256.8 257.1 257.2 255.9 256.2 257.7 256.7 254.6 250.9 251.8 255.9 261.6 269.6 267.8 263.2 268.8 272.3 267.7 265.6 273.1 281 289.9 283.9 281 292.5 301.3 309.4 308.6 308.3 308.7 308.4 307.1 306.2 303.6 303.3 304.6 297.8 290.6 283.3 278.1 269.3 263.4 256.7 254.4 261.3 261.3 257 264.3 271.8 279.6 290.7 296.6 299.4 302 303.9 305.4 305.4 303.9 301.3 299.6 296.3 291.6 285.1 275.9 264.2 247.6 238.1 223.5 213.8 206.1 196.7 208.4 214.2 222.7 224.2 224.9 230.2 236.9 244.2 251.5 248.1 237.3 226.4 213 222.9 235.8 239.4 244 249.5 253.4 256.6 257.9 259.1 260.6 266.2 276.8 279.7 280.6 284.4 293.8 293.9 291.2 289.6 288.6 287.8 283.9 283.8 282.4 276.6 270.6 263.3 248.2 226.2 211.7 208.8 209.6 216.5 236.8 260.3 274.3 284.6 293.5 297.9 300.3 303.1 309.5 308.2 311.8 314.8 320 322.6 320.4 323.4 327.8 332.7 338.3 342.2 345.3 346.6 345.2 343.1 339.8 337.6 336 334.6 334.5 334.3 333.2 332.8 335.8 338.4 341.3 342.6 344.4 345.8 345.9 345.2 344.5 338.6 331.3 324 326 327.9 331.2 335.8 335.9 333.9 330.3 321.7 315.7 312.3 302.9 292.1 283.1 273.7 263 251.8 241.9 234.7 230.8 234.2 237.5 240.4 243.2 245.7 246.3 247.3 248.1 249.5 252 251.8 250.7 248.6 245.3 241 235.5 230.6 223.2 213.5
256.6 256.6 256.2 256.3 256.9 257.5 257.9 256.6 253.9 251.5 253 259.6 267.6 269.4 265.4 266.5 272 275 263.8 268.9 278.3 286.9 296.4 289.3 283.5 283.6 293.8 302.3 305.7 304.3 305.7 306 304 301.5 302.6 304.9 301.1 294.7 287.9 281.5 276.6 268.9 261.8 254.7 261.7 266.1 266 262.2 270.5 277.5 285.7 293.6 300.4 303.6 306.4 308.3 308.2 308.3 306.7 304.4 301.9 298 292 284.4 273.7 261.5 247.2 238.1 223.5 210.7 199.6 190.5 199.5 216.6 222.3 223.7 225.1 230.8 238.6 249.2 244.2 238.1 227.9 215.8 213.5 229.4 236.4 239.9 246.6 251.8 256.3 258.4 259.2 261 263.2 270.4 277.5 285.4 285.2 289 296.9 298.5 294 291.8 288.8 286.9 284.9 285.2 280.9 275.7 269.7 262.1 243.3 224 208.4 210 211.4 216 236.2 259.5 271.4 284.2 292.8 295.3 296.3 298.3 300.6 302.9 310.3 314.9 312 312 315.4 321.9 327.7 333.1 339.7 344.9 350.7 350.2 347.8 345.2 343.1 342 341.7 341.2 339.9 339.4 339.3 339.3 341.9 344.8 347.8 350.9 352.1 353.1 354 354 351.8 347.1 340.2 337.3 337.5 338.7 338.3 339.8 337.5 333.6 327.2 317.5 313.9 309.6 301.6 289.6 279.2 268.3 256.6 242.3 236.2 233.8 234.4 237.8 244.3 246.9 249.3 252.3 252.4 253.4 254.1 254.3 256.1 256.4 254.5 252.2 249.4 244.6 239 232.7 225.2 217.8
260 256.5 255.9 256.7 257.7 258.8 258.2 256.3 254 252.9 257.2 265.8 268.5 266.8 265.3 270.3 274.7 275.4 260 276.3 284.1 294.2 302.2 296.7 288.5 283.5 287.6 295 302.1 301.8 304.2 304.2 301.8 301.3 303.3 301.4 296.6 290.3 284.8 279.3 271.5 266.2 257.9 262.9 271.5 273.9 272.3 267 275.4 283.9 292.2 298.2 303.8 307.9 310.9 312 311.1 310.5 309.1 306.8 303.4 298.4 291.9 283.2 271.6 255.8 246.5 235.4 222 209.4 200.3 190.5 206.3 215.8 220.1 223.6 225.8 230 239.2 244.9 236 228.6 220.4 213.9 212.7 220.4 223.8 229.1 243.4 253.2 257.3 259.6 259.8 261.5 263.6 269.6 278.8 285.7 287.8 293.2 297.4 297.7 297.1 294.1 289.1 286.5 285.8 283.6 279.3 273.9 268.4 259.9 239.1 222.3 209 210.3 212.6 216 232.8 254.2 270.5 283.8 289.5 289.7 291.6 286.6 287 296.5 302.3 304.3 302.2 301.3 308.9 319.5 329.8 333.8 338.4 347 353 352 349.9 347.5 346.3 345.1 344.6 345.2 345.3 346.2 346.4 346.4 349.4 352.8 355.4 358.1 361.8 362.6 362.2 360.1 358 355.2 350.7 349.8 349.9 348.3 345 341.8 337.6 332.3 325.2 315.6 308.4 303.4 297 285.6 271.8 255.7 245.1 236.6 238.1 240.3 242.9 246.9 251.3 254.9 257.6 258.7 258.5 260 260.9 260.9 262.2 262.4 259.3 257 253.7 248.1 243.7 238.7 231.4 224.4
258.4 256.1 256.9 256.8 257.9 258.9 257.5 255.3 254.4 254.5 262.9 267.2 265.9 264.6 267.1 273.4 277.7 271.9 270.2 279.5 289.4 299.3 307.5 300.6 294.5 286.4 286.1 288 293.4 296.5 298.9 300.2 299.9 301.2 301.3 296.1 291.4 285 280.4 273.5 267.2 262 264.2 273.8 281 281.4 280.2 273.9 282.1 289.9 297.5 304 308.1 311.6 314.9 315.2 315 313.1 311.3 308.2 304.6 298.7 290.5 274 260 252.8 248.4 236.2 222.5 208.2 196 192.9 207.2 214.7 221.2 225 225.4 228.6 236.1 235.9 230 223.7 218.2 214.6 214.4 215.4 216.5 217.2 224.6 237.9 257.9 258.5 260.2 260.8 263.2 268.6 280.4 287.6 289.3 293.7 297.3 296.6 295.7 295 290.8 285.9 284.2 282.6 278.3 273.1 265.9 255.4 234.6 220.5 210.6 212 213.1 216.3 226.2 246 265.2 276.4 281.4 279.7 270 262 264.6 273.7 280.6 282.4 288.3 305.5 315.5 320.4 326.6 332.3 337.4 346 353.7 352.9 352 349.9 348.3 346.6 347 348.2 350.8 353.1 355.2 355.1 356.7 360.7 368.6 373.4 373.4 370.8 369.6 366.4 363.8 362.8 360 356.8 356.7 355.7 346.9 341.2 334.8 328.5 321 317.5 306.6 297 289.1 273.1 257.2 246.4 240.1 241 243.1 247.3 252.5 256.6 260 262.2 263.1 264.1 264.7 266.3 267.7 268.5 271.6 269.9 267 264.4 259.1 254.4 249.5 243.1 236 228.9
255.3 254.6 256.4 256.4 257.6 257.3 255.8 255.7 256.5 259.9 260.8 264.6 264.5 265.4 272.4 277.3 278.7 267.1 275 282.8 290.8 303.3 307.4 300 293.3 288 291 292.7 293.3 293.4 293.7 296.8 299.6 300.7 296.3 291.2 285.9 279.5 275 265 264.1 265.7 277.3 286.1 289.9 290.4 285.5 284.4 292.4 299.4 304.8 309.2 312.6 315.9 317.9 318.1 317.4 315.6 312.7 308.1 304.7 298.5 289.3 269.8 270.6 261.1 252.7 238.9 223.8 207.8 194.7 195 209.7 216.1 223.5 226.6 224.6 226.6 229.8 229 224.4 220.3 217.9 216.5 214.4 216 216.6 217.4 218 221.4 239.4 255.5 259.7 260 264.2 268.9 272.8 280 289.2 291.7 294.9 295.9 292.8 292.9 289.9 285.5 283.3 280.3 277.2 270.2 261.4 247.8 230.9 219.6 212.5 213.2 214.7 215.4 222.9 233.2 246.1 251.9 257.4 264.4 252.6 257 261.3 266.7 275 287.5 302.9 313.4 319.3 323.4 327.2 331.9 336.6 343.9 351.3 355.1 353 349.9 348.9 348.2 350.9 352.7 356.7 360.9 362.7 362.7 367.3 372.8 377.6 382.6 383.8 379.2 375.3 374.5 371.8 369.9 366.2 362.5 360.9 358 349.5 345 338.6 330.9 322.7 312.1 302.4 291.8 275 259.4 248.6 242.8 244.4 248.4 253.1 256.1 260.6 263.2 265.8 268 269.5 270.5 271 271.4 272.5 276.1 277.1 277.5 275.3 269.1 268 261.7 253.9 246 236.3 229.7
