ncols 200
nrows 82
xllcorner 210000
yllcorner 230550
cellsize 50
143.3 142.5 141 140.6 139.8 138.6 138.1 137.9 136.2 135.8 135.8 135.5 136.1 137 138.8 140 140.7 141.3 142.5 143.2 143.8 143.8 143.9 144.1 144.3 144.7 144.7 144.4 143.6 141.5 133.4 129.1 127.8 128.3 129 128.9 129.3 129.5 129 129 129.3 129.2 129.6 130.9 131.9 133.1 134.3 135.7 136.7 138 139.4 140.4 141.4 142.5 143.6 144.5 145.7 146.6 147.4 147.7 147.5 146.9 147.2 147.5 147.5 147.3 147.1 147.7 147.5 147.2 148.4 149.5 150.6 152.5 153.9 154.4 155.1 156.1 157.2 156.6 155.9 153.7 149.9 146.1 144.6 144.2 143.7 143.3 142.7 143 142.8 143.5 144 144.7 146 146.9 146.5 146.9 146.8 146.9 148.3 150 150.8 151.6 151.6 151.9 152.1 152.4 152.2 152.8 154 155.3 156.3 157.9 158.7 159.7 160.3 161 161.5 161.1 160.7 159.9 158.9 158 157 155.7 154.5 153 151.8 149.4 148.5 148 148.7 150.7 153 155.8 158.4 164.1 167.2 171.1 173.6 173.7 172.8 171.8 170.1 164.7 163.4 170.3 173.1 175.8 177.5 179.2 180.2 180.6 180.5 180.1 179.7 178.9 178.1 177.7 178 178.6 179 179.5 180.2 180 179.4 179.1 180.3 182.7 184.8 186.9 188.5 189.7 187.6 186.8 184.7 185.3 191.4 195.9 200.4 203.4 205.8 208.7 210.8 212.9 214.7 216.8 218.9 217.9 219.4 223.1 227.4 233.2 241.5 251 260.6 268 277.8 285.3
145.9 144.7 142.8 141.6 140.9 139.9 140.2 139.3 138.2 137.8 137.4 137.3 139.1 139.2 140.2 141 141.7 141.8 143 143.6 144 144 143.7 144 144.4 144.9 145.1 144.4 143.4 140.4 134.1 130.7 129.3 130.1 130.8 130.6 130.8 131.6 130.9 130.7 131.1 131.3 131.6 132.8 134.3 135.3 136.8 138.2 139.2 140.2 141.4 142.4 143.5 144.6 145.7 146.7 147.7 148.5 149.3 149.9 149.9 149.2 148.6 148.9 149.3 149 148.8 148.9 149.5 149.5 150.2 151.1 152 153 155.1 156.1 157.1 158.1 159.1 158.7 158.3 156.9 153.1 149.2 146.6 146.2 146.5 147.4 147.4 146.8 146.8 148.5 149.1 150.2 151.5 151.5 152.5 152.3 152.5 153.3 154.1 155.1 156.2 157.1 157.7 157.7 158.2 158.1 157.5 157.9 158.6 159.3 160.3 161.3 161.9 162.2 163.4 164.2 164 163.6 163 162.1 161.3 161 160.3 159.4 158.2 157.5 155.3 152.5 150.1 149.4 150.2 152.9 155.2 156.9 158.8 161.3 164.1 169 171.6 172.7 172.7 172 170.6 165.5 163.8 170.1 174.1 177.1 179.4 181.1 182.8 183.1 182.8 182.6 183.1 183.3 182 181.8 182.2 182.8 183.4 183.8 184.4 183.8 183 181.8 183.1 185.8 188.6 189.6 191.4 191.2 192 191.5 186.9 185.5 189.8 196.8 200.9 204.1 206.5 209.7 212.5 214.6 217.5 220 222.1 224.7 224.4 225.2 232.5 241 248 253.8 260.5 269.5 279.2 285.6
147.7 146.6 145.1 143.2 142.8 141.3 141.3 139.9 140.4 140.1 139.8 140.6 140.5 140.4 140.4 141.8 142.6 142.8 143.4 143.8 144.2 144.2 143.9 143.7 144.2 144.7 144.9 144.4 141.7 137.1 133.6 131.5 130.7 132.1 132.1 132.2 132.6 133.6 133.2 132.6 133 133.4 134 135.2 136.6 137.9 139.4 140.7 141.7 142.6 143.6 144.6 145.8 146.9 148 148.8 149.6 150.4 151.2 151.8 152.3 151.8 150.9 150.6 150.9 150.8 151 150.6 151.6 151.6 151.8 152.7 153.6 154.5 156.4 157.5 158.7 159.8 161 160.8 160.4 158.6 155.8 152.2 149.9 149.9 149.8 149.9 150.3 150.9 150.7 152.9 154.4 155.7 156.5 157.4 158.3 159.8 160 160.3 160.9 161.9 164.1 166 166.3 166.8 167.4 167.2 165.3 165.5 165.7 165.3 165.7 165.9 166.4 167.2 167 167.1 166.6 166.1 165.3 165.1 165.4 164.5 163.7 163.2 162.7 162 160.1 155.9 152.5 151 153 156.2 157.5 159.1 160.9 163.4 164.4 167.4 170.3 171.5 172.1 171.6 169.4 165.2 164.6 169.9 174.7 178.2 181.1 183.5 185.5 186 186.6 187.1 187.9 188.2 186.5 186.6 187 188.1 189.4 189 189.1 188.5 187.7 186.2 185.8 190 192.5 194.2 195.4 195.4 195.6 194.6 192.8 190.7 187.9 195.5 199.8 203.9 207 209.9 213.2 216.4 219.2 222.3 226.1 230.2 232.7 230.3 236 245.9 254.3 260.8 267 273.9 280.4 286.2
148.9 147.4 145.9 145.5 144.7 144 142.6 143.1 141.8 142.5 142.1 141.8 141.6 141.6 142.3 143.2 143.4 143.7 143.7 144 144.4 144.5 144.2 143.7 143.5 143.7 143.5 142.6 138.9 135.5 134 132.3 133.4 133.9 134 134.1 134.8 135.6 135.8 135 135 136.3 137.3 138.4 139.3 140.6 142 143.2 144.1 145.2 146.3 147.3 148.4 149.5 150.5 151.4 152 152.3 153 154 154.5 154.2 153.1 153 152.9 153.3 153 152.3 153.5 153.4 153.4 154.5 155.6 156.8 157.8 158.9 160.1 161.2 162.4 162.2 161.5 160.2 157 154.3 153.5 152.9 152.8 152.6 153.5 154.4 155 156.6 158.4 160.1 161.9 163 164 164.9 165.7 166.9 168.7 170.9 172.4 174 175.1 176.6 177.1 177.2 177.3 177.6 177.3 176.1 175 174.8 173.7 171.7 171.5 170.7 169.9 168.8 168.9 169.2 169.5 168.8 168.6 168.3 167.3 166.2 164.3 160.4 154.4 153.4 156.1 160.1 161.5 162.7 163.7 165.8 167.1 168.3 170.5 170.4 171.1 170.4 168.1 166.1 165.4 167.4 174.9 179.1 183 185.9 188.1 190.3 191.1 191.7 192.9 193 191.9 192 192.7 193.5 194.7 194.6 194.5 194.4 193.4 191.2 189.2 193.7 196.6 198.4 198.3 198.4 198 197.5 195.6 192.6 191.5 191.3 197.7 203.8 206.8 210.1 213.7 217.3 221.2 225.6 230.6 235.3 240 241.8 241.3 249.5 259.3 266.2 272.1 277.8 282.8 287.1
150.1 148.4 147.7 147 146.2 145.4 144.6 144.3 144.1 143.2 143.2 143 142.8 142.8 143.7 144 144.3 144.6 144.9 144.5 144.6 144.7 144.3 143.7 143.3 142.7 142 140.3 137.7 135.8 134.7 135.1 135.3 135.8 135.8 136.2 137 137.6 138.2 137.6 138.3 140.1 140.7 141.9 143.1 143.8 144.6 145.7 146.8 147.9 148.9 149.9 151 152 152.9 153.8 154.4 155.1 155.6 156.3 156.8 156.4 155.7 155.7 155.3 155.5 155.2 154.8 155.5 155.5 155.8 156.6 157.6 158.8 159.9 160.8 161.6 162.7 163.8 163.7 162.7 161.3 158.9 157.1 156.6 156.2 156.4 155.8 156.6 157.8 158.6 160 161.7 163.6 166.1 167.6 168.8 170.6 171.4 173.5 175.2 177 178.3 179.6 180.9 181.5 182.9 184.7 184.7 184.5 184.7 184.1 182.8 181.6 179.7 178.6 176.5 175.1 173.8 172.4 172.9 173.2 173.6 174.1 173.6 173.4 172.1 170.6 167.8 161.9 156.9 156.6 159.9 164 165.5 166.2 167.6 169 170.2 171.2 171.7 171.8 172.1 171.5 170.4 168.2 166.9 166.5 172 178.8 183.1 187.4 190.8 193.8 195.7 196.5 197.9 197.7 197.4 197.4 198.8 199.7 200.3 201 200.6 200 198.3 196.2 193.4 197.8 200 201.6 202.2 202.2 200.1 200.9 199.8 197.3 193.1 191.9 203.1 199.1 205.2 210.4 214.1 217.6 223.3 229.7 235.5 241 246.4 249.1 252.8 252 264.1 270.1 276.2 280.9 285.5 289.7
151.8 149.6 148.9 148.3 147.8 146.9 145.9 145.8 145.8 145.2 144.5 144.2 144 144.3 144.6 144.9 145.3 145.6 145.9 145.7 145.4 144.9 144.3 143.8 143.3 141.8 140.9 140.5 138.5 137.2 137.2 136.6 137 137.5 137.8 138.3 139 139.6 140.1 140.3 140.8 141.9 143.7 145.1 146.7 147.4 147.9 149.1 150.1 151.1 151.7 152.6 153.4 154.3 155.2 156.1 156.5 157.1 158.3 159 158.9 158.5 158.1 157.8 157.5 157.6 157.2 157.2 157.5 157.6 158.4 159.2 160 160.8 161.9 162.9 163.8 164.6 165.2 164.9 164 162.7 161.3 159.8 159.1 159.3 159.4 158.7 160 161.1 162.4 163.3 165.1 167.3 169.7 172.1 173.6 175.5 177 179.2 181.8 183.2 184.5 186.3 187.5 188.2 188.5 190.9 192.5 191.5 190.8 189.7 188.4 187.4 185.6 184.5 182 180.1 178.6 177 176.9 177.2 178.1 179.2 180.5 180.4 179.3 177.7 173.2 165.8 158.1 160.4 163.6 166.8 169.8 171.1 172.4 173.5 174.1 174.9 174.5 175.2 175.2 175.1 174.2 172.3 170.7 169.2 169 176.3 182.7 188 193.1 196.6 199 201.5 202.6 203.2 203.4 203.4 204.9 205.8 206.4 206.3 205.7 205.2 203.6 200.7 198 201.5 203.6 205.1 205.7 206.7 204.6 203.9 204 201.4 199.8 199.9 197.1 198.2 201.4 208.3 213.5 218 224.5 231.8 239.3 245.9 251.3 256.3 260 264.1 269.6 274.7 279.1 284.1 288.9 292.2
152.8 151.5 151.1 149.7 149.4 148.5 147.7 147.3 147.2 146.7 146.1 145.8 145.6 145.5 145.6 145.9 146.2 146.5 146.9 146.9 146.6 145.9 145.1 144.4 143.6 142.9 141.9 140.7 139.6 139.5 139 138.5 138.9 139.4 140.2 140.4 141 141.6 142.3 142.8 142.4 144.1 146.1 148.2 150 150.8 151.1 152.1 153.7 154.4 154.6 155 155.8 156.6 157.4 158.3 158.9 159.2 160.5 160.6 160.3 159.9 159.7 159.5 159.4 159.5 159.7 159.6 159.6 160.2 161 161.8 162.6 163.4 164.2 165.1 165.7 166.3 166.8 166.1 165.2 164.3 162.7 161.9 162 162.3 162.1 162 162.8 164.3 165.1 166.8 168.5 171 173.4 175.7 177.9 179.8 182.2 185.6 188.7 189.5 191.4 193.4 194.5 195.2 195.4 197.2 198.5 198 196.3 195.3 194.5 193.4 191.7 189.6 187.6 185.5 183.6 181.8 181.6 181.9 182.6 183.8 185.1 186.2 185.3 182.6 180 171.8 162.1 165.4 169.3 171.4 173.6 175.7 177.3 178.1 179.2 179.6 179.1 178 178.8 178.8 178 176.6 174.5 172.6 170.7 172.3 179.9 186.9 192.9 198.2 203.3 206.2 207.5 208.4 209.2 209.3 210.2 211.8 212.5 212.6 212.1 211.3 209.2 204.9 202.3 205.3 207.7 209.4 210.1 209.1 208.4 208.9 205.7 205 203.8 199.4 201.6 201.5 200.1 204 212.3 219.1 226.8 234.8 242 249.4 255.8 261 265.4 270.1 274.2 278.1 282.1 286.9 292.3 295.3
154.6 153.7 152.4 151.7 150.9 150.2 149.5 148.6 148.3 147.9 147.8 147.6 147.4 147.4 147.2 147.2 147.3 147.5 147.8 148.1 147.7 146.9 146.2 145.6 145 144.4 143.3 141.9 141.5 141.2 140.8 140.3 140.8 141.4 142.5 143.1 143.6 144.2 144.9 145.1 145.3 147.2 149.2 151.2 153.1 154 154.3 155.1 156.6 157.2 157.3 157.5 158.3 159 159.8 160.6 161.2 161.2 161.5 162.1 161.9 161.6 161.6 161.6 161.6 161.9 162.3 162.4 162.3 163 163.9 164.7 165.5 166.4 167.2 168.1 168.2 168.3 168.3 167.8 166.6 165.6 164.7 164.8 164.8 164.7 164.6 165.3 165.4 167.4 168.4 169.6 171.3 174.1 176.4 178.8 181.1 184.2 187.3 190.6 192.8 195 196.7 199.7 201.4 204.6 205.2 204.3 204.9 204.2 202.4 201.3 200.5 199.4 197 194.9 193.2 191.1 189.3 187.8 186.9 187 187.2 188.4 189.4 190.3 189.3 186.6 183.5 178.2 164.3 171.4 174.4 176.7 178.1 180.9 182.7 184.7 186.2 185.8 185 184.1 183.2 183.6 183.1 181.8 179.3 176.8 174.3 171.5 176.9 185.2 192.7 198.3 204.8 211.1 213.9 214.7 215.4 215.5 215.8 216.7 217 217.2 216.8 216 214.2 210.8 207.6 208 211.9 213.1 213.9 214 213.8 212.9 211.6 207.3 204.8 205.2 206.6 206.7 205.2 203.4 208.4 218.3 227.7 236.1 243.8 252 259.2 264.7 269.6 274.4 278.2 281.2 284.6 289.1 293.5 296.4
156.4 155 153.7 152.9 152.5 151.9 150.9 150 149.6 149.3 149.3 149.3 149.3 149.3 149.3 148.9 148.9 149 149.1 149.2 148.8 148.3 147.8 147.2 146.7 145.8 144.4 143.7 143 142.7 142.4 142.1 142.6 143.5 144.5 145.5 146.4 146.9 147.5 147.5 148.4 150.2 152.1 153.8 155.5 157.1 157.5 158 158.8 159.5 159.9 159.7 160.3 161.1 161.9 162.7 163.5 163.8 163.8 163.8 163.7 163.8 163.9 164.1 164.2 164.5 164.8 165.2 165.3 166 166.9 167.8 168.6 169.5 170.6 171.1 171.5 171.2 171 170.4 169 167.7 167.4 167.6 167.7 167.4 167.6 168.6 169.1 170.2 171.8 172.7 174 176.7 179.5 181.8 184.5 188.5 191.5 194.1 196 197.9 201 204.1 207.1 209 210.1 210.5 210.6 209.8 208.7 207.6 206.5 204.9 203.4 203.6 201.2 198.4 197.4 195 192.8 192.2 192.2 192.8 193.9 194.2 193.9 191.3 186.7 182.2 168.7 178 180.7 182.5 184 187.1 190.2 191.7 193.2 192.2 192.1 190.8 187.8 188.7 188.2 186.7 184.1 181.5 178.7 174.6 176.1 181.8 190.5 198.1 206.3 214.2 218.6 220.5 221.2 220.2 220.8 221.3 221.5 221 220.1 219.4 218 214.5 212.1 212 215.3 216.5 217.8 218.6 217.9 217 216 212 210.1 211.6 211.7 212.1 211.8 209.9 208.1 215.3 226.6 236.1 245.5 254.7 262.3 267.9 273.1 277.1 280.3 283.6 286.8 291 294.8 297
157.4 156.4 155 154.1 153.7 153.4 152.3 151.3 151 150.7 150.6 150.9 150.9 151.2 151.2 151 150.5 150.5 150.6 150.8 150.5 149.9 149.4 148.8 148.1 147.3 145.8 145.6 144.5 144.2 144.1 144.2 144.8 145.7 146.8 147.7 148.5 149.4 150.4 151.1 151.6 152.7 154.1 155.8 158 159.7 160.3 160.7 161.2 162 162.4 162.1 162.3 163 163.8 164.6 165.5 166 166.4 166.4 166.4 166.6 167.2 167.4 167.3 167.3 167.7 168 168 169.1 169.9 170.8 171.8 173 174.4 174.8 175.7 174.5 174.2 173.2 171.8 170.5 170.6 170.8 171 170.6 171.1 172 172.8 173.6 174.8 176.3 177.4 179.2 182 184.2 187.9 191.2 194 196.5 198.5 201 204.6 208 210.3 212.7 214.3 215.8 215.8 215.9 215.1 214 212.6 211 212.3 212.4 210.4 207.4 205.2 202.5 199.6 197.8 198.4 197.7 198.1 198.7 197.5 195.3 190.5 181.7 172.6 183 186.6 189.1 190.6 194.5 198.4 200.8 200.8 200 199.7 198.1 196.7 195.9 194.8 192.3 189.4 186.2 182.5 178.5 177.6 179.1 186.4 196.4 205.2 215 222 225.8 228 226.8 225.7 225.3 225.5 224.3 223.4 222.5 221.1 218.2 215 216.6 218.6 220 221.3 222.6 221.9 221 220.2 218.6 216.5 218 219.5 219.5 219.2 218.5 212 214.1 225.5 235.9 245.8 255.9 264 270.5 275.2 279.3 282 284.9 288.2 293.1 295.9 297.3
159.3 158.4 156.8 155.3 155.1 154.7 153.5 152.7 152.3 152.1 152 152.8 152.6 152.6 153 153.1 152.6 152.2 152.1 152.6 152.2 151.5 151 150.4 149.6 148.4 147 147.7 146.4 146.4 146.6 147.2 147.1 147.8 149.5 150.3 151.2 152.1 153.2 153.9 154.3 156.2 157.2 158.6 160.4 162.1 163.1 163.6 163.7 164.2 164.6 164.7 164.8 165 165.7 166.4 167.5 168 168.5 169 169 169.1 169.9 170.6 170.4 170.5 170.7 170.7 171.5 172.6 173.8 175.6 177 178.1 179.6 180.4 181.1 179.6 177.8 176.4 175.1 173.9 174 174.1 174.3 174.5 174.6 174.5 175.3 176.3 177.8 179.3 180.8 182.6 185.2 187.3 189.8 193.4 196.2 198.7 200.6 202.9 206.5 210.2 212.8 215.1 218 220 221.3 221.9 221.6 221 220.7 220.9 220.7 219.5 218.3 215.9 212.6 210.1 207.4 205.6 205.7 206.1 205.5 203.8 201.9 196.8 190 179.9 177.2 188 192.5 195.5 197.9 202.8 206.5 209.5 209.2 208.3 207.4 204.8 203.9 203.1 200.7 198.3 195 190.9 186.8 182.8 178.6 179.4 183.5 192 202.2 212.7 224.4 232.9 233.7 232.5 230.4 229.3 228.2 227.1 225.9 224.4 222.8 220.8 217.9 218.9 220.5 222 223.8 225.1 225.6 225 224.5 223.2 222.7 224.1 225.5 226.3 226.2 226.2 224.6 218.2 223.6 234.9 245.8 255.5 264.4 271.5 276.4 279.7 283 285.9 289.9 294.2 296.2 297.2
161 159.8 158.6 157.8 156.8 156.1 155.1 154.4 154.5 154.6 154.6 154.7 154.4 154 154.4 154.8 154.8 154.4 154 154.2 153.9 153.2 152.6 151.8 150.6 149.3 149.4 149.7 149.5 149 150.4 150.3 149.9 150.5 152.2 153 153.9 154.9 156.1 156.8 157.3 158.6 160.3 160.9 162.8 164.7 165.9 166.6 166.5 166.7 166.9 167.1 167.3 167.5 167.7 169 169.4 170 170.7 171.5 171.5 171.7 172.8 173 174.1 174 174.4 175.2 176 177.2 178.4 180.9 182.8 184.5 185.9 186.9 186.6 184.8 183.1 181.2 179.8 178 178 178 178.1 178.1 178.2 177.7 178.4 179.6 180.9 182.8 184.8 186.5 188 190.1 192.5 195 197.5 200.1 202.6 204.8 208.4 212 215.2 218 221.4 223.7 226 228.1 228.7 228 227.2 227 227.8 227.7 226.2 223.7 222.1 219.4 216.3 217.4 217.3 214.9 213.4 211 206.9 201.1 191 181.9 181.8 191.9 197.5 201.6 205.8 210.1 215.7 218.4 218.1 216.9 215.6 214.1 212.6 211.2 209.4 205.6 201.1 197 192.8 188 183.3 180.4 182.7 186.9 196.7 207.1 218 233.1 236 234.9 233.1 231.6 230.5 229.6 228.1 225.9 225.1 222.7 218.4 220.2 222.6 223.8 225.8 227.9 228.7 229.1 228.7 228.6 228.9 230.6 232.6 233.2 233.9 233.6 233.2 231 223.1 235.2 245.1 255.7 263.5 269.5 275.9 279.3 282.3 285.5 290.6 294.4 296 296.5
163.2 162.2 161.2 160 159.3 158.3 157.8 157.4 157.1 157.2 157.1 156.9 156.6 156 156.3 156.7 156.9 156.8 156.3 155.6 155 154.4 154.1 153.8 152.7 152.2 152.6 152.6 152.4 153.1 153.6 153.3 153.6 154.5 154.9 155.7 156.6 158.5 159.6 160.1 160.4 161.7 163.4 164.3 165.8 167.5 168.5 169.3 169.3 169.9 170 170.3 170.5 170.8 170.7 171.1 172.5 173.6 174.4 174.7 174.2 174.1 175.2 175.6 176.7 177.6 178.2 179.6 180.7 182.9 184.3 187 188.3 189.7 191.2 192 191.8 191.2 189.7 187.1 184.2 183 181.9 182 182 182.1 182 181.1 182.2 183.2 184.4 186.1 187.8 190.1 192.1 193.9 195.9 197.4 199.4 201.7 205.5 207.7 210.8 213.9 217.7 221.3 224.8 227.6 230.8 233.1 234.2 233.7 233.5 235.5 235.5 235.9 235.1 234.2 234.8 233.7 231 229.9 228.9 227 223.6 220.3 215.3 208.6 199.1 185.3 183.2 194.9 203 207.8 212.8 218.3 225.9 227.8 227.2 226.2 224.5 222.2 221.7 219.6 217.2 212.8 207.8 202.5 197.6 192.7 187.8 182.6 183.3 190.1 193.3 200.9 210.3 220.6 229.1 232.7 232.1 231.5 230.8 230.4 228.8 225.9 224.5 222 216.7 217.9 222.6 224.8 226.9 229.1 230.9 231.4 232.9 233.9 235 236.6 237.6 238.5 239.6 240.8 240.5 240 234.9 236.5 246.2 255.7 262.4 268.5 273.4 277.8 280.8 284 288.8 293.3 294.3 294.9
166.2 164.9 163.6 162.2 161.2 160.3 159.9 159.9 159.8 159.2 159 159 158.9 158.2 158.3 159 159.1 158.8 158.5 157.6 156.9 156.4 156.2 156 155 154.9 155.9 155.6 155.4 156 156.6 156.8 157.3 158.1 158 159.2 160.9 161.5 162.1 162.8 163.8 165 166.1 167.9 169 170.5 171.5 172.3 172.4 172.8 173.2 173.8 173.9 174.3 175 175.5 176.2 177.3 177.8 177.4 176.9 177.2 177.3 178.5 179.6 180.7 181.7 183.4 185.7 188.6 190.9 194 196 196.3 196.4 197.6 196.7 196.6 198 196.6 191.9 188.2 187 185.9 186 186 185.6 185.3 185.8 186.8 188.4 190.1 191.5 193.7 195.9 197.8 199.3 201 202.2 204.8 207.4 210.7 213.2 216.9 220.8 224.5 228.5 232.3 236.5 238.7 240.6 243.5 245 246.1 246.6 247.9 247.6 247.6 247.6 246.6 244.5 241.8 239.6 236.8 233.4 230 225.1 220.2 211.2 196 187.6 197.2 207.2 213.5 219.4 224.6 233.4 234.4 233.7 233.3 232.4 230.9 229.3 227.4 224.7 220.5 214.5 209.1 203.2 197.6 192 187 183.8 195.3 200.1 202.7 205.8 213 218.2 221.8 225.3 227.8 227.1 228.1 226.3 224.4 222.5 221.3 216.7 216 221.3 223.9 226.8 230.1 232.3 233.7 235.8 237.6 239.9 241.2 242.6 244.1 245 245.7 246.6 247.7 247 245.1 249.7 256.2 262.2 266.5 271 274.8 278.1 281.3 284.3 287.8 290.1 291
167.8 166.7 165.3 164.2 163.1 162.4 162 162 161.2 161.1 161 161 161 160.2 160.6 161.3 161.4 160.8 160.8 159.8 158.8 159.6 159.3 158.8 157.8 158.4 158.9 158.6 159.2 159.8 161.7 162.5 162.1 162 161.8 162.7 164.2 165 165.7 166.7 167.4 168.1 169.3 170.3 171.5 173.5 174.7 175.5 175.7 176.1 177.1 178 178.8 179.5 180.3 180.8 180.3 180.3 180.6 180.4 180.1 180.3 180.3 181.4 182.6 183.8 185.4 187.5 190.4 194 197.1 200.1 201.6 202.3 201.7 205.9 208.1 208.9 206.9 203.8 198.4 194.1 192.4 190.9 189.9 189.1 189 189.5 190.7 190.2 192.4 194 195.2 196.9 199.5 200.9 202.4 204.8 206.8 208.5 211.4 213.8 216.5 220.4 224.6 228.8 232.9 236.5 239.8 242.9 246.6 249.6 252.7 254.3 258.8 260.5 263.2 263.1 262.3 260.4 257.5 252.7 248.5 244.8 242.6 239.4 235.2 229.7 222.1 207.8 194.1 196.7 210.4 217.7 223.4 230.1 238.6 240.2 239.2 238.9 239 238.3 237 235.3 232.2 227.8 221.8 216.1 210.2 204.3 197.9 191.4 186.9 196.4 205.2 208.2 210.9 212.8 216.5 219.4 222.9 224.5 225.4 225.6 224.5 222.6 220.9 218.1 215.6 214.4 218.5 220.9 224.1 228.6 232.5 235.2 237.2 241.1 243.9 245.2 247 249.2 250.6 251.7 252.3 252.2 251.8 252 255.1 258 261.8 265.6 268.6 271.4 274.4 277.4 278.6 279.1 280.2 280
169.5 168.4 167.1 166.2 165.5 164.5 164 163.6 163.2 162.7 162.7 162.7 162.5 162.6 162.9 163.4 163.9 163.7 163.4 162.7 162.1 162.2 161.7 161 160.5 161.2 161.7 161.7 164 165 166.2 167.4 167.2 167.1 167.6 167.6 167.9 169 170.3 170.2 171 170.9 172.7 172.7 174 176.2 177.9 178.6 179 180.6 181.9 183 184 187.5 189.6 187.6 185.3 183.9 183.4 183.3 183.2 182.9 183.3 184.9 186.1 187.3 189.1 192.2 194.8 198.7 202 205.3 206.7 208.3 211.7 216.4 216.5 217.1 213.7 211.3 203 200 197.4 195.5 193.9 193.1 193.1 193.4 194.6 194.2 196.7 198.1 199.6 199 202.3 204.6 207 209 211.1 212.8 214.9 217.4 220.9 224.6 229.2 233.8 237.8 240.7 245.1 250.4 257.4 260.1 266.8 273.7 277 280 279.9 280 275.8 270.8 268.4 265.5 258.6 252.2 247.3 244 241 237.5 232 220.4 207.3 197.4 213.3 220.3 226.9 233.1 240.9 243.5 243.9 244.5 244.8 244.7 244.1 242.5 239.3 235.2 229.2 222.9 216.8 210.6 203.6 196.9 190.8 195.5 211.3 214.7 215.9 218 219.6 221.3 223.4 225.5 225.8 225.3 224 222.7 221.9 219.3 210.3 209.8 214.5 217.2 218.9 223.4 229.6 235.7 240.7 244.6 247 248.8 250.6 252.8 254.1 254.8 255.3 256.4 256.7 257.2 257.6 260.5 263 265.3 267.6 269.2 270.8 272.3 273.2 273.1 270.7 270
171 170.2 169.4 168.7 168.1 167.6 166.5 166 165.5 164.8 164.7 164.6 164.8 165.2 165.6 165.9 166.9 166.9 165.8 164.7 164.7 164.7 163.9 162.8 162.9 163.6 164.4 166.2 168.5 172.5 172.3 172.1 172.7 173.2 173.3 173.7 174.1 174 173.7 173.7 175 174.7 176 176.1 177.6 178.6 180.9 182.5 184.1 185 186.4 188.6 190.2 193.5 194 191.6 189.1 187.7 186.5 186.6 186.5 186.3 186.2 188 189.5 191.4 193.5 196.7 199.5 203.1 206.8 210.2 214.1 219.5 226.9 229.1 228.1 226.2 226.5 220.7 210 204 201.9 199.5 197.8 197.3 196.6 197.5 198.7 199 200.6 201.9 203.4 203 206.9 209.3 211.5 213.5 214.9 217.3 220.7 223.2 226.6 230.3 234.6 239.3 243.7 248 254.6 261 265.3 275.2 282.3 289.2 295.5 298.6 298.2 297.4 292.5 287.4 282.6 276.7 270.9 260.4 254.6 248.7 245.4 241.3 236.4 229 219.7 208.4 213.6 223.1 228.7 234.5 240.6 246.2 247 248.6 249.4 250.1 249.9 249.3 246 242.1 236.4 230.1 223.2 216.4 209.1 202.7 194.5 195.2 216.7 220.9 220.2 223 225.2 226.5 226.7 226.8 227.6 226.8 227.2 224.4 222.8 221.7 219.8 216.4 208.2 208.4 208.5 217.9 224.9 232.2 241.9 246.5 248.8 250 251.5 253.5 255.1 256.5 257.4 258.2 258.4 259.2 259.6 260.7 263 264.3 266.2 267 268.1 267.9 267.4 266.1 263.2 261.1
173.8 173.3 172.4 171.4 170.6 170.5 169.8 168.8 168 167.3 167.1 167 167.7 168.1 168.5 168.8 169.4 169.5 168.6 168.3 167.9 167.2 166 165.3 165.2 166 167.2 169.5 173.3 176.6 178.4 178.7 177.6 178 178 178 178.7 179.3 179.7 178.7 178.6 178.6 179.5 179.6 181.9 183.2 184.5 185.8 187.4 188.6 190.5 193.2 195.8 197.2 197.6 195.8 192.9 191.4 189.9 189.4 189.8 189.6 190.4 191.3 192.2 194.4 197.1 200.3 204 207.5 212 216.9 221.7 229 234.6 237.1 237.1 238.7 235.8 223.5 212.8 208.9 205.6 203.7 202.2 201.2 200.7 201.2 202.3 203.4 204 205.7 207.6 208.5 210.8 213.2 216 218.2 220.7 223 226.7 229.2 232.6 236.6 241.1 246.3 251.3 257 262.5 269.5 279.9 289.5 295.8 304.9 313.9 315.2 312.1 310.2 304.7 299.5 293.3 282.9 278.5 270.2 261.3 254.7 249.2 244.6 240.4 234.1 226.5 218 216.8 224.4 229.8 235.4 241.1 247.9 249.2 250.7 252.5 254 254.8 254.1 252.9 249 243.6 237.9 230.4 222.8 216.2 208.5 198.3 197.6 220.4 225.5 227.5 228.2 228.8 230.3 231.6 230.2 232 231.1 229 228 226.6 224.4 222.1 219.3 216.2 211.7 205.1 211.3 218.2 226.7 239.6 247.4 249 250.3 251.2 253.2 255.1 256.9 257.8 258.6 259.2 259.8 260.3 260.8 262.1 263.3 264.5 264.7 264.8 263.8 262.1 259.4 255.9 254.8
176.6 176.2 175.4 174.5 173.7 173.5 172.6 171.7 170.7 169.9 169.5 169.6 170.5 170.9 171.4 171.8 171.6 172.1 170.5 170.7 170.6 170.2 168.7 168.5 168.2 168.4 170.4 173.1 176.3 179.6 183 185.7 183.8 182.9 183.4 183.4 184.1 184.2 184.2 183.9 183.2 182.4 182.8 183.8 183.3 186 187 188.9 190.6 192.3 194.5 196.7 198.7 199.9 200.5 199.4 196.4 194.9 193.5 192.8 192.4 193 193.3 193.9 195.4 197.9 200.6 204.3 208.2 212.8 218 222.6 229 234.5 239.7 242.8 245.4 254.1 242 225.2 217.7 213.8 210.6 208.3 207.1 206.2 205.4 206.1 206.6 207.3 208.2 210.1 212.2 214.1 215 217.9 220.6 222.2 225.6 228.2 231.9 234.9 239.6 243.6 248.2 253.2 258 263 270.6 284.4 294.4 301.5 309 320.3 328.7 331.3 330.2 324.2 316.3 309.3 300.6 289.9 281.9 272.4 265.7 259.1 253.5 248.1 243.3 238.3 231.2 222.6 220.9 226.1 231.3 236.6 243 248.6 251.1 253.4 255.5 258.1 258.8 258.7 257.1 254.5 250.4 246.1 239.4 230.6 223.1 214.8 202.1 199.2 224.4 229.1 231.9 233.2 234 234.2 233.8 234.4 234.6 233 231.6 230.5 228.8 226.2 223.6 220.8 217.9 214.4 207.2 203.5 210 220.3 232.1 243.8 247.9 248.2 249.9 252.5 253.5 255.5 256.5 257.5 258.8 259.2 259.6 259.7 260.8 262.2 262.4 262.4 261.1 259.1 255.9 253.1 250.3 247.9
180.1 179.3 178 177.6 177.3 176.3 175.7 174.8 173.6 172.6 172 172.1 173.2 173.7 174.2 174.6 174.2 175 174 174.6 174.4 173.4 173.3 172.1 171.5 172.3 175.2 178.2 180.9 184.9 188.4 190.8 191.7 189.7 189 188.6 188.7 188.8 188.4 187.5 186.7 185.9 185.7 186.5 187 188.7 189.5 190.8 192.7 195.1 197 199 200.8 202.3 202.5 201.3 199.7 197.9 196.9 196.3 196.2 196.4 196.9 198.1 199.4 201.6 204.5 208.9 213.4 218.1 223.1 228.7 233.6 239.9 243.2 246.3 249.2 259.3 237.6 229.8 223.5 219.5 216.1 213.7 212.3 211.5 210.6 210.4 211.2 211.7 212.8 214.9 216.9 218.9 219.9 222.6 224.7 227.8 231.1 233.7 237 241.6 244.8 249.1 254 259 264.1 271.9 281.8 291.8 302 308 318.2 334.2 342.5 347.2 344 335.9 326.5 316 306 295.4 282.6 273.6 267.6 261.8 255.9 250.7 245.7 240.4 234.5 226.9 226.2 226.6 233.5 238.7 243.6 248.1 252.3 255.6 258.1 261.2 262.8 262.8 262.4 260.3 257.3 254.2 247.3 238.9 230.3 221.1 207.5 205.2 226.5 232 234.9 236.2 237.4 237.2 236.4 237.1 236 234.4 232.4 231 230.5 227.5 224.6 222.1 219.1 215.5 211.5 204.5 202.8 212 221 231.9 238.9 240.4 243.3 247 249.6 252.4 254.5 256.3 257.3 257.9 258.3 258.7 259 259.8 260.2 259.5 257.4 254 250.1 246.8 244.2 242.2
183.7 182.3 181.5 181.2 180.9 179.5 178.2 177.8 176.9 175.8 174.9 174.7 175.6 176.3 176.5 177.2 178.1 179 177.8 178.8 178.7 177.5 177.7 176.5 175.2 176.1 179.6 183.3 187.4 190.2 193.5 195 196.6 196 194.6 193.9 193.8 193.6 192.4 191.2 190.3 189.2 188.4 189 190.1 191.3 192.2 193.6 195 197.1 199.3 201.1 203.1 204.6 204.8 204 202.4 201.3 200.2 200.1 200.2 201 201.4 202.2 203.7 206.2 210.1 213.9 218.7 223.8 228.8 233.3 238.2 243.6 246.3 248.1 248.9 247.9 240.8 234.5 229.7 225.1 221.8 219.5 217.4 216.7 215.4 214.4 215.6 216.5 217.6 219.6 221.6 223.6 225.6 226.4 229.7 232.2 235.6 238.9 242.6 246.6 250.5 254.7 259.6 265.1 271.6 278.8 287.7 301 309.9 317.8 325.7 343.1 355.1 360 354.5 342.9 329.7 318.6 306 295.5 282.9 272.6 267.8 263 257.5 252.1 247 241.9 236.3 230.5 230.1 229 235.3 240.4 244.2 248.1 252.4 256.2 260.1 263.1 265.1 266.4 266.3 265.6 262.9 260.1 255.6 246.9 236.6 230.4 219 203.7 227.3 233.5 236.6 238.5 239.4 239.7 239.2 238.5 237.1 235 232.8 231.2 231 228.7 226 223.5 220.4 217.1 213.6 207.6 200.3 205.5 210 217.3 223 228 234.2 239.5 243.8 247.3 249.7 252.1 254.7 255.7 256.3 256.8 256.8 256.5 256 254.4 252 248.6 244.7 242 238.9 236.4
187.2 185.7 185.1 184.7 183.9 182.9 181.6 180.6 180.3 179.3 178.6 177.9 178.9 179.4 179.7 180.9 181.6 182.9 182.7 183.4 183.3 182.2 182.3 181.2 181.5 182.2 185.9 190.2 194.8 198.6 201.2 201.8 202.8 203.9 203.6 201 199.8 199.2 197.7 196.2 194.6 192.9 192.1 192.1 192.7 194 194.2 196.1 198.4 200.1 201.6 203.4 205.4 206.9 207.2 206.7 206.2 205.1 205.4 204.8 205.3 206.3 206.6 206.5 208.4 211.3 216.2 220.8 224.2 229.9 234.5 238.2 242.6 246.6 249.2 250.4 250.8 249.1 244.9 240.2 235.4 231.2 227.3 224.5 222.7 222 219.8 219.2 220.1 221.2 222.5 224.4 226.4 228.3 229.9 231.1 233.1 236 239.6 242.4 246.2 250 255.2 260.4 265 270.6 278.1 284.5 295.2 306.4 316.8 322.9 333.6 348.7 359.4 361.8 354.9 341.5 328.7 316.1 302.7 291.6 281.7 273.6 268.8 264 258.9 253.5 248.7 243.5 237.3 235.4 234.2 231.4 236.9 240.4 244.7 248.7 252.7 257.2 261 264.4 267 268.7 269 268.9 267.6 265.4 262 254.8 245.7 238.2 230.5 210.9 222.3 234.9 236.8 239.1 240.2 240.2 240.2 239 238.2 235.7 233.7 232.2 231.5 230.1 228.7 226.1 222.9 219 215 209.7 199.8 197.2 203.5 207.1 208.9 214.1 222 228.6 233.5 237.4 240.2 244.4 247.6 250.2 253.1 253.7 253.3 253 252.6 250 247.3 244.2 240.2 237.5 233.9 231.4
191.4 190.2 189.1 188.4 187.7 187 186.4 185.6 184 183 182.1 181.6 182.2 182.6 183 184.6 185.1 186.3 186.1 186.6 187.9 187.6 187.8 188.1 190.5 191.7 195.5 199.5 203.3 206 208.6 209.6 209.3 210.8 210.4 208.8 206.7 204.6 204.6 201.7 199 196.8 195.8 196.3 195.6 197.4 198.1 198.8 201.3 203.3 204.6 205.7 207.7 209.1 209.5 209.7 210.1 212.3 212.3 212.1 212.5 212.4 212.8 212.6 214.4 217.4 221.9 228 234.5 238.1 243.2 246.5 250.4 254.9 254.8 256.3 255.8 253.3 249.9 245.7 241.2 237.5 233.3 229.5 228.1 227.1 225 224.3 224.9 226.2 227.4 229.2 231 232.5 234.4 236.2 237.5 240.4 243.3 246.1 250.3 254.7 259.2 265.1 270.2 275.9 283 290.6 299.8 308.4 318.5 327.2 343.4 353.2 352.6 349.1 339.6 327 317.4 307.5 297.7 287.9 280.9 274.9 269.9 265 260 254.9 248.4 243.7 241.6 238.8 236.5 235.2 237.5 241.1 245.3 249.3 253.3 258 261.6 264.9 268.2 270.3 271.1 271.8 271.5 270.3 266.4 262.2 254.8 246.8 239.9 224.2 221.2 235.5 237.5 239 240.2 239.7 239.4 239.1 237.8 236.2 234.9 233.5 231.9 230.6 229.5 228.2 224.6 220.3 218.1 214.7 209.6 196.4 195.4 197.8 199.8 204.3 207.7 213.4 221.1 226.2 229.7 234.3 238.9 242.3 245.9 250.1 251.4 251 250.2 247.5 244.6 240.1 235.8 232.5 228.9 226.8
196.1 195.3 194.8 194.5 193.4 192.9 192 190.9 189.4 187.5 185.7 186.3 186.6 186.9 187.1 187.7 189 190.8 190.6 192 193.2 193.5 194 195.9 199.6 203.2 206.6 210.4 213.4 216.5 218.7 218.1 218.6 217.6 217.1 216.8 215.2 213.8 211.1 206.9 203.5 201.1 199.7 199.7 199.3 199.9 201.5 202.5 204.2 206.4 207.7 208.6 209.8 211.4 213.3 214.7 215.8 217.2 217.8 218.4 218.2 219.4 219.3 219.2 220.9 224.4 231.4 238.5 244.3 248.6 252.8 255.6 258.2 260.7 262.5 263.3 263.4 261.2 255.5 251.4 247.7 244.7 240.5 237.3 234.8 231.5 230 229.6 230.1 231.6 232.8 234.4 235.9 237.1 239.1 240.9 241.5 244.1 247.4 250.1 253.7 257.8 262.8 268.5 274.2 279.8 285.9 293.6 302.7 309.9 319.1 327.4 336.9 339.4 339.5 333 324 315.4 308.2 300.8 294.2 288 280.7 275.4 270.9 266.1 261 255.3 251.2 247.8 245.3 242.8 240.2 238.2 238.7 241.8 245.9 250 254.1 257.7 261.5 265 268.4 271.3 273 274.3 274.5 273.3 270.9 266.9 259.4 252.8 245.8 232.5 233.5 238.6 238.2 238 238.4 238.3 238.2 237.5 237 236.1 235.2 234.9 234 232.3 230.4 228.9 226.5 223.5 220.8 217 212.9 207.8 202.6 194.1 192.2 192.4 198.8 202.4 206.5 211.4 214.2 218.8 224.2 228.6 233.6 240.7 247.4 248.5 247.7 244.9 240.9 234.9 230.7 227.6 224.5 220.9
202.2 201.3 201.6 201.5 199.8 199.2 198.1 196.7 195.3 192.9 190.9 192 191.9 191.4 191 191.9 193.6 195.2 196.8 198.5 200.4 201.5 202.2 204.1 208.5 213.3 218.1 220.7 223.5 224.7 227.8 227.6 226.8 227.8 225.6 222.7 221.6 219.8 217.2 213.5 208.1 205 203.6 203.2 203.4 203.4 205 205.6 207 209.2 211 212.3 213.7 216.5 217.8 218.9 220.7 222.4 223.9 225.3 225.9 227.1 225.6 226.1 228.7 232.5 238.4 245.6 253 259.4 261.8 263.2 264.8 267.7 270.9 275.2 276.6 271.5 263.1 259.6 256.6 252 248.2 244.3 239.3 235.8 235 234.5 235.3 236.9 238.8 240.7 241.5 243.3 244.5 245.7 247 249 251 254.4 257.8 261.9 267 272.4 277.7 284.1 289.9 296.4 306.4 313.6 319.1 325.4 330.3 333.5 329.8 319.9 315 310.5 304.2 298.8 292.6 286.8 280.8 275.1 270.9 266.2 261.3 257.4 253.1 250.8 248.5 246 243.6 241.6 242.3 243.9 246.6 250.7 254.4 257.5 261.3 264.9 268.3 271.6 273.8 275.5 276.1 275.7 274.1 269.4 264.6 257.8 251.2 246.5 242.5 240.4 239.2 238 236.6 235.8 235.2 234.3 234.2 233.7 234.3 234.2 233.8 233.2 231.5 230.1 227.8 225.4 223.3 219.7 216.4 213.8 211.3 208 203.3 195.6 189.4 185.6 192 191.3 203.2 204.4 208.7 211.5 215.3 219.4 226.5 230.8 231.2 235.3 231.7 227.7 224.7 220.8 216.8 213.6
207.2 209.4 210.1 208.9 207 206.3 205 204.1 201.6 199.5 199.5 198.5 197.7 197 196.7 197.1 198.5 199.9 201.7 204 207 208.6 210.2 212.5 216.7 222 227.6 232.2 233.6 236.6 238.2 237.1 234.6 234.4 233.5 231.3 228 226.4 224.7 221.1 215.2 209.2 207.9 207.2 207.5 207.5 208.1 208.9 209.9 212 213.7 215.7 217.2 220.1 222.4 224.2 226.4 228.7 230.4 233.4 235.9 235.3 234.1 234.7 237.9 242.6 250.1 257.3 263.1 267.6 271.1 274.1 276 277.1 279.8 283.5 283.3 279.9 274.9 270.5 264.7 259.3 254.3 249.7 245 242.1 240.6 240 241.3 242.9 244.7 246.8 247.7 251.2 253.6 253.5 254.6 254.7 256.7 258.9 262.2 266.3 270.8 276.7 282.1 288.7 294.5 301.7 308.2 313.9 317.8 321.5 322.2 321.5 318.9 315.4 311.9 307.2 301.7 296.8 291.6 286.2 281.3 275.6 270.4 265.9 262.6 259.3 255.1 252.7 250.7 248.8 246.8 245.4 245.3 246.4 248.8 251.4 255 257.8 261.1 264.7 268.3 271.3 274.1 276.8 278.1 278 276.6 273.2 268.4 262 254.9 250 245.4 242.3 239.6 237.8 235.6 234.3 234.3 232.3 230.8 231 231.6 232 232 232.7 232.2 230.8 229.1 227.5 225.9 223 220.5 218.5 216 213.5 210.9 206.5 201.8 195.2 189.7 175.6 178.1 184.9 195.7 201.4 204.2 205.8 207.1 209.9 215 217.9 212.3 212.3 211.3 209.8 207.9 203.5
214.9 216.5 217.2 216.4 215.7 216 214.1 211.7 210.7 210 209.2 207.8 205.9 204.5 203.1 202.6 204.2 205.4 208.3 210.1 214.1 216.6 219.7 221.1 226 231.6 237.1 241.9 243.5 245.6 246.7 247.3 245.4 245.2 240.1 237.6 234.1 232.3 230.3 227.8 222.6 215.5 212.3 211.5 211.6 211 210.8 212.1 212.8 214.6 216.3 218.3 220.5 223.6 226.6 231.6 233.8 236.7 240.3 244.1 245.5 246.2 244.5 244.7 248.1 252.9 259.3 265.9 272.7 277.1 280.5 283.6 287.3 292.5 293.7 293.3 291.2 285.8 281.5 277.1 272.9 268.1 263 257.3 251.5 248.4 247 247.5 248.5 250 251.4 252.9 255 257.7 260.4 261.5 261.7 261.7 262.6 265.5 268.9 271.8 276.8 281.9 287.5 293.1 299.5 304.5 310 314.3 317.4 318.7 320 318.9 316.6 313.5 309.5 305.1 300.4 295.5 290.7 286.1 281.1 276 272 268.1 264.1 261 257.8 254.9 252.6 250.8 248.9 248 247.6 248.9 251.1 253.5 256.1 258.7 261.6 264.8 268.3 271.4 274.6 278.2 280 279.9 279 276.1 272.2 265.3 258.5 252.5 247.6 244.3 240.8 238.3 236.6 235.2 234.6 232.3 230.3 228.5 228.1 230.6 229.9 230.3 230.5 230.8 230 229.1 228 226.3 223.7 222.1 219.9 217.4 215 211.5 208.1 205.1 200.7 183.9 173.9 172.2 174.7 181.9 185.1 191 196 197 197.4 197.4 196.4 196.4 195.8 195 193.3 190.7
222.5 223.7 224.6 225 225 225.9 224.1 221.7 221.4 220.7 220.3 218.7 216.6 214.1 211.3 209.9 209.9 213 215.9 218.7 219.4 225.1 227.4 229.8 234.5 240.5 246.3 251.5 254.5 256.7 257.7 257.7 255.4 252.5 249.4 244.6 240.2 237.3 235.1 232.7 228.5 222 218.7 216.4 215 214.4 213.7 214.8 216.1 217.3 219.2 221.5 224.9 228.4 234.4 239.7 244.9 248.7 253.5 257.3 257.9 256.6 255.4 255.1 259.1 265.3 268.8 275.9 283.3 288.3 290.6 293.5 299 307.2 311.4 309.4 305.2 298.8 289.2 284 280.3 276.4 272.1 267.5 259.7 257 256.5 256.4 257.4 259 260.6 261.2 262.9 265 267.3 268.7 269.2 270.5 271.6 273.3 277 279.7 283.5 289.2 294 298.8 304.3 308.7 312.8 315.9 318 318.5 319.2 317.8 315.3 312.2 308.4 304.1 299.8 295.1 290.4 286 281.6 277.3 273.2 269.4 265.5 262.8 259.3 256.1 253.6 251.9 250.5 250 249.7 251 252.7 255.1 257.7 260.3 263.3 266.9 269.8 273.4 276.6 279.7 281.8 282.2 281.9 279 275 268.4 260.9 254.8 249.6 245.6 242.4 240.1 238.2 236.3 234.7 232.7 230.7 228.7 227 225.7 226.6 226.9 228 229.1 229.1 229.1 228.5 227.8 226.6 224.9 223.7 221.2 219.2 217.3 214.5 211.9 208.7 202.9 196.1 188.3 182.6 179.2 174 169.3 173.3 180.5 184.3 185.7 185.3 183.6 183.3 183.1 182 179.8
230.4 232.5 233.4 235.3 236.2 237.6 235.4 232 231.9 231.8 231.6 229 227 224.9 221.4 217.6 217.5 221.3 224.5 226.2 227.9 232.9 235 238.1 243 249 255.5 261.4 264.7 267.8 268.6 268.6 265.5 261.5 257.2 251.8 245.8 242.1 240.2 238.2 233.4 227 222.9 220.6 218.2 217.7 218 219.1 220.2 220.6 222 224.9 229.3 234.8 243 253.1 262.6 269.7 272.3 273.8 270.9 268.9 266.5 265.7 271.9 277 281.4 286.9 293.2 298.1 302.5 308.3 319.8 318.4 321.4 321.7 318.4 310 298.2 292.6 289 285.7 281.9 278.8 271.3 267.8 267.2 266.7 267 268.5 269.7 270.1 271 273.1 275.3 276.9 278.5 280.6 280.8 282.9 285.5 288.7 292.7 297.8 301.8 305.9 310.5 313.7 316.9 319.6 320.2 319.7 319.2 317.5 314.9 312.2 307.3 304.1 300.5 295.9 291.7 287.2 282.9 278.5 274.5 270.6 266.7 264.2 260.4 256.7 254.2 252.7 251.4 251.3 251.6 252.5 254 256.7 259.2 261.9 265.7 269.7 272.7 275.9 278.7 281.3 283.9 285.1 284.4 281.6 277.4 271 263.9 257.1 251.9 247.2 244.8 241.8 239.7 237.8 235.6 233.6 231.6 229.5 227.6 225.9 224.8 224 225.6 226.8 227.5 227.7 227.8 227.3 226.4 225.6 224.8 224.5 223.3 221.3 220 218.1 215.3 213.7 211.3 208.2 204 198.1 184 180.1 174.9 169.9 167.2 167.7 170.7 177 176.3 171.4 171.2 167.8
244.3 246 246.8 248.5 248.7 249.4 247.5 247 245.1 244.8 242.9 240.2 238 235.4 231.7 228.4 227.1 228.3 232.5 235.2 236.7 239.2 242.6 245.4 252.2 257.8 263.8 269.9 274 274.9 277 276.3 273 270.1 264.7 259.7 252.5 248.2 244.1 240.4 234.6 230.2 226 224.3 222.8 221 222.2 223.1 224.1 224.5 225.9 229.5 233.4 242.2 253.7 266.4 277.5 289.7 290.8 285.8 283 282 279.3 275.5 285 288.1 292.2 295.4 300.6 305.3 311.2 316.8 324.6 331.7 327.4 326.6 323.9 317.6 307 299.9 295.5 293.3 291 287.8 284.2 281.1 280.2 279.8 278 278.4 278.7 279.7 280.4 281.7 283.6 285.6 288 290.5 291.2 292.6 295 296.8 302.2 305.5 309.8 313.1 316.7 321.1 323.5 323.4 322.8 322.2 320.6 318.9 316.5 313.5 309.6 305.8 301.9 298.1 293.9 288.5 284.1 279.8 275.8 271.8 268.1 264.9 260.5 256.7 254.5 253 251.7 252 252.5 253.8 255.3 258.2 260.8 264.1 268.1 272.1 275.5 278.5 281.4 284.2 286.2 287.3 286.7 283.8 279.9 272.9 266.9 260.5 254.4 249.9 246.9 243.9 241.2 239.1 236.8 234.7 232.7 230.3 228.6 226.9 225 223.4 223.7 224.7 225.6 225.8 226 226.6 225.9 225.1 224.7 224.9 224.2 223.8 222.3 221.9 221.1 220.4 219.2 216.8 212.8 205.6 205 199.1 192.5 187.4 184.1 182.4 177.1 169.7 165.3 165.5 160.4 158.2
259.5 261.8 264.4 262.9 261.9 261.2 261.3 262.4 258 256.4 255.8 253.9 251.2 248 244.6 240.6 239.1 237.2 241.7 242.5 244.8 247.3 250.7 254 258.7 268 273.4 278 280.9 282.8 283.7 282.8 279.6 278.2 273.9 267.5 263.6 256.1 249.9 245.1 240 234.8 230.7 227.8 226.6 225.5 225.7 227 228.7 230.3 232.5 235.8 240 249.3 261.2 273 283.1 291.9 295.8 294.7 294.3 295.6 295.7 294.2 299.1 301.5 304.8 308.1 311.8 315.3 318.4 323.5 328.1 332.7 331 328.3 324.7 319.6 312.5 306.8 301.8 300.3 298.9 298.6 296.8 293.4 290.4 289.2 287.5 288.2 288.8 289.4 290.1 291.8 293.5 295.1 297 299.9 301.5 303.3 305.1 307 310 314 317.4 320.8 324.8 326.2 327.2 326.7 325.5 324.6 322.7 320.8 318.3 315.4 312.1 308.6 304.2 300.1 295.6 290.1 285.5 280.9 276.5 272.4 268.1 264.3 259.6 255.6 253.8 252.4 251.8 252.1 253.8 255.3 256.8 259.8 262.6 266.6 270.6 274.5 278.5 281.6 284.6 287.5 288.5 289.5 288.9 285.8 281.6 275.5 269.9 263.6 258.2 253.2 249.4 246.4 243 240.7 238.3 235.9 233.2 231 229.1 227.2 225.4 223.6 222.2 222.4 223.3 224 224.7 225.4 225.3 224.6 224.5 224.8 224.6 223.8 223.3 223 222.9 223 222.3 220.8 219.4 216.6 216.4 215.1 212 208.2 203.8 200.1 196.2 190.1 184.3 179.6 179.5 180.7
273.7 276.7 278.5 279.7 275.8 275 274.6 275 273.2 272.2 270.9 267.2 264.6 261.4 258.4 255.1 252.9 249.9 252.5 251.3 253 255.4 257.9 261.5 267.6 276.4 281.8 284.8 287.8 289.9 290.9 289.5 286.8 283.5 280.9 274.9 268.9 263.2 256.6 252 246.9 241.3 235.8 232 230.2 228.1 229.4 231.3 233.5 237.6 241.5 245.1 250.1 258.8 270 281.5 291.3 298.2 303.2 306.4 308.6 309.8 310.4 311.6 312.1 313.8 315.3 317.1 318.8 321.9 325.1 327 328.9 331.7 331.4 329.2 326.2 322.4 316.3 312.4 308.5 306.4 305.8 306.6 308.1 307.9 305.5 298.8 297.3 298 298.4 299 301 303.5 304 303.7 307.2 309.6 310.1 311.4 312.7 315.9 320.5 325.9 329.5 330.1 330 330.2 330.7 329.5 328.3 327.2 325.3 322.9 320.6 317.9 314.8 311.1 306.5 302.1 297.5 292 286.1 280.9 276.5 271.8 267.5 262.7 258.1 254.6 253.1 251.8 251.8 252.4 254.4 256.7 258.4 261.9 264.8 268.6 273.3 277.5 281.7 285.5 288.6 290.8 291.7 292 290.9 288 283.7 278.9 273.4 267.7 262.4 257.5 253.4 249 245.1 242.6 239.9 237.2 234 231.4 229.5 227.6 225.7 223.8 222.4 221.1 220.7 222.7 223.5 224.2 224.8 224.1 224.4 224.5 224.4 224 223.7 223.4 223.7 223.7 223.3 221.4 220.5 220.7 221.4 220.1 218.2 216.5 213.6 210 205.9 202 198.1 193.1 189.4 185.5
288.6 290.1 292.2 292.6 289.5 289.7 288.7 289.5 290.4 288.8 284.7 281.6 278.8 276.9 273.5 268.6 265.6 263.1 261.7 261.2 260.6 262.5 265.1 269.4 275.5 284.4 289.9 292.7 294.8 296.3 296.9 296.5 293.9 290.8 288 281.9 276.5 270.7 264.8 260 254.9 247.3 241.4 236.2 234.4 232.5 233.5 235.9 238.8 243.3 249.3 256.1 261.6 269.9 280.5 291.2 300.5 308.6 315.3 319.7 322.2 323.5 324.1 324.6 324.8 325.7 325.9 326.2 327.5 327.3 328.6 329.5 330.4 331 330.5 328.2 325.8 323 319.1 315.2 312.8 311.2 311.3 312.5 314.3 315.5 314.8 310.1 307.4 308 310.3 310.9 314.5 314.6 314.1 315.6 317.4 317.6 317.5 318.1 321.5 324.6 332.4 335.7 336 335.6 334.9 334.4 333.3 332.2 331.2 329.7 327.4 325 322.6 320.3 317.3 313.7 309.1 304.3 299 292.3 285.8 280.4 275.5 271.1 265.5 259.6 256.5 253.5 252.3 251.2 251.7 253 254.8 257.3 260.1 263.6 267.2 271.7 276.6 280.7 284.9 289.2 292.5 294.1 295.2 294.6 293.6 290.7 286.7 282.3 277.3 271.9 266.5 261.5 256.3 251.9 247.1 243.8 241.1 238.4 235.2 232.1 229.9 228 226.1 224.1 222.6 221.2 220 221.4 222.7 223.5 223.7 223.9 224 224.1 223.7 223.2 222.9 223.4 223.4 223.3 223.3 222 221.7 223.4 223.6 222.6 221.3 219.4 217.3 214.8 211.7 208.4 204.1 199.3 194.2 188.9
302.7 303.3 302.1 301.9 301.9 303.6 304.6 304.3 307.4 304.2 300.5 297.3 294.8 292 287.1 282.9 278.4 276 272.5 271.1 269.4 269.9 271.9 277.6 284.1 291.1 296.2 299.9 301.7 303.3 304 303.5 300.7 298.6 295.9 291.2 286.9 281.5 275.9 269.6 262.1 253.6 245 240.9 238.9 236.9 238.1 241.4 244.6 249.8 257 264.8 273.1 281.4 291.1 302.1 313.3 322.4 329.5 334.3 336.8 337.8 337.5 337.1 335.8 335 334.9 335.4 334.6 333.3 331.2 331 331 330.5 328.6 327 324.8 323 320.5 318.4 316.1 315.4 315.8 317.3 319.5 321.3 321.7 318.7 315.4 315.7 317.7 320.4 322.4 323.4 324.3 328 325.1 324.2 324.9 328 329.3 334.4 337.1 339 338.1 337.6 337 336.1 335.2 334.2 333 331.4 329.4 327 324.6 322 318.9 315.7 310.9 306.5 299.4 292.4 285.2 279.4 275 268.9 262.5 257.5 254.2 251.9 250.8 250.4 251.2 253.1 255.4 258.4 261.9 265.8 270.8 275.7 280 284.3 288.4 292.5 296.4 298 298.7 298 296.8 293.9 290 285.9 280.8 275.9 270.6 264.2 258.8 253.9 249.1 245 242.3 239.6 236.4 233.2 230.3 228.4 226.5 224.5 222.8 221.3 219.9 219.2 221.3 222.9 223.7 223.6 223.5 223.5 223.1 222.5 221.7 221.7 222.3 222.8 222.9 222.8 223.1 223.3 223.3 222.4 221.8 220.2 218.5 216.7 214 210.9 206.4 202.1 197.2 191.8
316.4 315.9 314.6 315.6 317.4 317.4 318.3 319.5 319.8 319.3 316.6 313.3 309.6 305.3 299.7 294.9 290.2 287.5 283.7 280.2 278.1 278.2 281.2 282.3 289.4 296.3 302.1 306.1 309.1 311.2 312.6 311.8 309.6 307.9 305.1 301.2 296.7 291.2 285.7 279.3 270.4 260.8 251.7 246.1 243.6 242.4 243.3 246.3 250.8 257.6 263.9 272.9 283.1 291.3 301.2 312.4 323.8 335 342.9 347.8 349.7 349.2 348.6 347.8 345.3 344.3 343.8 342.2 340.3 338 334.7 332 330.6 328.5 326.5 324.7 322.2 320.6 319.5 318.6 317.9 318.2 319.1 322.1 327.2 329.7 329 326.3 321.6 322.3 323.9 326.1 327.5 328.3 330.1 331.4 331 330.5 330.6 331.3 334.2 337 338.6 340 340.2 339.2 338.1 337.2 336.8 335.4 334.1 332.5 331.1 328.7 325.8 322.9 319.7 316.2 312.5 307.6 300.3 291 283 277.9 273.3 265.2 259.3 254.8 252.6 250 248.8 249.7 251.1 253.5 255.8 259.6 263.9 269 273.7 278.5 283.3 287.7 291.9 296.1 299.7 301.6 302.2 301.8 300.8 297.9 294.9 290.9 284.8 279.4 273.3 266.8 261.6 256.3 251.1 246.9 243.7 240.8 237.6 234.4 231.1 228.6 226.5 224.4 222.9 221.4 220 218.5 217.8 219.6 221.5 221.9 222.4 222.8 222.5 221.6 220.5 220.1 220.8 221.4 221.9 221.8 221.9 222.1 222.3 221.8 221.3 219.6 218.1 216.3 213.8 211 206.8 201.4 195.1 188
329.2 329.2 328.3 327.6 331.1 332.3 333 335 335.1 334.4 332.4 330.3 325.7 319.3 314.4 309.3 302.9 297.4 294 290.2 288.5 287.2 289.8 291.3 295.4 302.6 308 312 316.4 319.3 321.2 320.8 319 318.3 316.3 312.6 307.7 301.2 294.8 288.6 279.3 269.4 259.3 253 249.8 249.2 251 252.5 258.5 264.9 273.3 280 288.9 298 307.2 318.3 330.5 342.9 351.8 357.5 360.3 359.1 356.6 354.8 350.8 347.2 345.9 344.6 342.8 339.4 336 332.1 328.5 326.4 324.1 321.8 319.5 318 317 317.3 318.4 319.4 322.3 326.9 332.5 334.6 335.6 334.7 329.6 329.8 329.5 330.8 332.3 332.1 333 334.1 333.5 333.2 333.2 333.8 336 337.2 338.7 340.8 340.7 340.1 339.2 338.1 337.2 336.6 335.4 333.3 331.4 329.2 326.5 323.1 320 316.5 312.9 308.1 297.5 287.1 280.3 275.4 270.1 261.5 256.2 252.1 250.1 248.5 247.8 249 251.5 253.9 256.3 260.5 265.8 271.3 276 280.7 285.6 290.4 295.3 299.5 302.5 304.6 305.6 305.5 305.1 303.2 300.1 295.8 289.9 282.9 276.6 269.4 263.1 257.6 252.1 247.8 245.1 241.5 238.1 234.8 231.4 229.1 226.4 224.5 223 221.6 220.1 218.7 217.2 217.2 218.5 219.6 221 221.7 221.4 220.3 219.2 218.5 219.5 220.1 220.8 220.6 220.6 220.8 220.6 219.9 219.3 218.2 216.9 214.9 212.2 209.2 205.1 198.3 189.3 177.2
342.8 344.6 345.2 345.3 344.8 345.6 346.8 349.4 350.4 349.5 349.6 346.7 340.7 333.7 326.3 320.1 313.5 309.2 303.9 300.1 298.1 295.9 296.3 299.6 303 308.3 313.9 318.3 323.6 327.9 329.2 329 328.9 327.3 325.5 322.8 318 311.7 303.6 297.4 289.1 278.6 267.7 259.3 256.2 256.2 257.8 258.6 265.5 273.4 281.8 291.1 296.3 303.6 313.6 324.1 334.5 347.7 356.8 363.3 365.6 364.1 360.8 357.4 353.5 348.8 345.5 343.4 342.6 339.8 335.6 331 326.3 323.2 319.8 317.4 315.5 315 314.8 315.9 317.2 320 324.1 330.3 338 339 340.1 341.6 339.7 336.2 336.1 336.5 338.2 338.9 337.7 337.4 336.5 335.5 333.5 334.4 335.9 337.1 338.8 340.7 340.7 340.6 339.1 337.1 335.6 336.6 336.4 332.7 330.2 327.5 324.7 322 319.3 315 310.5 302.2 290.7 282.6 277.2 272 264.4 257.6 253.4 249.4 247.4 246.2 247.4 248.6 250.8 253.8 257.2 261.7 267.8 273.4 278.3 283 287.8 292.7 297.8 301.7 304.7 307.7 309.1 308.7 307.8 306.2 302.7 298.6 292.5 285.8 278.8 270.7 264.7 258.7 253.2 249.9 245.8 242 238.4 235.1 231.7 229.5 227.2 224.6 223.2 221.7 220.2 218.8 217.4 216.2 216.1 216.9 218.3 219.6 219.9 219 217.9 216.9 218.2 218.9 219.5 219.8 219.3 219.1 218.8 218 217.1 216.2 215.2 212.9 210.2 206.8 201.9 193.7 179.7 181.7
357.9 359.5 360.3 360.2 360 362 363 364.2 366.5 366.4 364.4 360.7 354.5 346.5 340 334 326.9 320.5 315.5 310.7 308.6 306.6 306.6 307.5 310 314.9 320.2 325.4 330.2 334.6 337.7 338.3 337.9 336.1 335.1 331.3 325.6 319.9 314 306.9 298.7 287.3 276.8 265.5 262.3 262.3 263.8 269.5 276.6 285.1 294.4 301 306.5 313.6 321.6 331.2 341.3 351.4 360 365.3 366.9 365.4 361.9 357.2 352.8 348.1 344.4 342.2 339.8 336.7 332 327.8 323.4 319.2 314.6 311.6 310.9 310.8 312.5 314.1 316.6 320.7 324 332.2 337.9 341.1 344.5 346.1 347.1 344.2 344.1 344.4 344.6 345.1 344.8 342.1 338.4 335.3 333.4 333.9 335.4 336.3 337.8 339.1 340 339.4 336.9 334.8 333.5 334.2 334 332 329.4 325.8 323.2 320.5 316.4 311.1 307 296.6 286.6 279.3 273.5 268.4 259.5 254.2 250.1 246.9 245.5 244.5 245.8 247.2 250.7 253.7 257.7 262.5 267.6 273.3 279 284.8 290.1 295.1 300 304.5 307.9 310.8 311.4 310.9 310.3 308.6 305.4 301.5 294.9 287.5 278.9 271.4 265.2 260.5 254.3 250.5 246.5 242.6 239 235.4 232 229.8 227.4 225 223.3 221.8 220.4 218.9 217.5 216.4 215.8 215.3 215.9 216.9 217.3 217.3 216.7 215.9 216.9 218 218.5 219 218.7 217.8 216.9 216.4 215.5 214.1 212.3 211 207.8 204.6 196.2 186.5 194.1 187.1
373.6 376.2 376.6 376 375.1 375.5 376.6 379.1 380.1 379.5 377.4 373.5 368 360.5 352.6 344.5 336.7 330.6 325.4 320.6 319 316.1 316.2 316.5 319 322.8 327.3 332 337.9 340.7 346 347.3 345.8 345.4 343 339.8 335.9 328.8 322.4 314.7 305.5 297.2 287.7 278.3 270.8 273 278.6 286.7 290.7 299 306.4 312.4 318.3 325.4 331.9 340.4 349.4 357.6 363.9 367.6 368.4 367.4 364.2 356.8 351.6 345.6 340.9 336.2 333.1 330.3 327.2 322.8 317.3 313.9 310.7 308 307.6 307.6 309.6 312.1 315.2 320 325.6 334.1 339.4 346.1 350 351.1 351.8 352.3 351.4 350.6 350.7 352.3 347.4 344.1 338.9 334.5 331.9 330.5 330.6 331.8 333.1 335.6 336.3 335.5 334.5 332.4 330 329.9 329.7 329.3 327.4 324.4 321 315.5 309.2 303.3 296 286 279 274.7 269.8 261.9 255.4 250.8 247 244.9 244.4 243.6 244.2 247 250.5 253.7 258.1 262.9 267.8 273.2 279.1 285.1 291.6 297.2 302.2 306.6 310 312.6 313.8 313.2 312.6 310.8 307.8 303.4 297.1 288.4 278.6 271.2 265.6 260.5 255.5 251.3 247.1 243.1 239.5 235.9 232.4 229.8 227.3 225.4 223.4 221.9 220.5 219.1 217.7 216.6 215.9 214.2 214.7 214.5 214.8 214.9 215 215 215.2 216.6 217.9 218.2 218.1 217.7 217.1 217.3 217.3 216 212.9 211 210.1 207.7 204.8 206 200.3 188.5
389.3 392 392.2 391.7 390.6 390.2 390.4 391.6 392.8 391.9 389.9 385.5 379.8 372.4 363.6 354.4 346 339.2 335.1 330.4 328.2 326.8 326.6 326 328.4 330.5 334.5 338.9 343.5 347.6 350.9 352 352.5 352.9 352.7 349.7 345.2 336.7 330.8 322.2 314.1 307.3 300.5 294 287.2 292.3 295.4 299.9 305.2 311.3 317.6 323.7 330.2 336.6 342.1 350.1 358.1 364.5 369.8 370.1 369.9 368.3 364.8 359.9 349.4 343 337.5 332.3 326.8 322.1 319.5 316.1 312.5 307.7 304.8 303.8 304 304.4 305.7 308.8 313.9 320.2 326.3 333.9 342.9 352 354.8 355 355.3 355 354.6 354.3 352.8 359.1 347 342.8 335.9 329 325 324.7 325.4 326.8 328.9 328.9 327.2 326.6 324.7 323.3 322.5 323.7 324.2 326.1 322.9 320 314.3 307.3 300.2 291.6 282 277.3 272.4 268.6 260.3 255 250.4 246.9 245 243.1 242.6 242.4 243.3 246.8 250.3 254 258.4 263 268 273.1 278.9 285.2 293.2 298.8 304.3 308.4 311.4 313.9 315.4 315.5 314 311.2 307.9 303.6 295.9 288.3 277.9 271.6 266 260.4 255.9 251.6 247.3 243.3 240.1 236.8 233.5 230.5 227.4 225.5 223.6 222 220.6 219.2 217.9 216.8 215.9 214.1 213.6 213.1 212.5 212.3 212.2 213 213 213.9 215.1 217.1 216.9 217.3 217.7 217.5 217.5 217.3 217.6 217.6 216.5 216 214.2 212 201.8 207.9
403.9 406.3 407.5 407 405.6 404.8 404.4 404.6 405 402.6 400.4 395.9 390 382.5 373.3 363.6 355.4 347.8 343.1 339.3 336.8 336.6 337.1 336.1 337.1 338.8 341.4 345.8 349.8 353.7 357 359.8 361.1 362.2 362.4 361.5 355.6 346.7 339 332.2 325.4 319 313.5 307.7 303.9 306.5 308.3 312 318.2 324.2 331.5 336.9 341.2 348.8 356.6 363.7 370.2 374.2 374 374 372.2 369.6 365.9 360.7 350.6 340.5 334.3 329 322.4 317.6 314 310.5 306.8 302.8 301.2 300.3 300.4 300.6 302.1 305.5 312.7 318.9 327.6 338.8 349 354 356.9 358 357.5 356.9 356.7 354.9 352.1 349.5 341.8 335.4 326.6 322.4 319.3 317.8 318.3 318.7 318 316.9 317.1 316.6 313.9 314.6 314.5 315.6 318.4 321.9 316.5 312.3 304.2 297.5 288.7 279.6 272.9 269.7 266.3 259.8 254.1 250.3 246.7 243.4 242.5 241.3 240.3 240.5 243.6 246.7 250.1 253.7 258.1 262.4 267.4 272.7 278.8 285.1 293.4 300 305.5 309.4 312.3 314.8 316.8 316.7 314.6 311 307.1 301.7 292.8 285.4 278.5 271.9 266 260.5 255.6 251.3 247.1 243.4 240.1 236.8 233.6 231 227.9 226 224.2 222.3 220.9 219.7 218.4 217 216.1 214.8 214 213.4 213 212.3 211.7 212.2 212.3 212.2 212.2 213.9 214.7 215.2 215.6 215.9 215.8 216.6 217.1 217.5 216.8 216.9 215.6 212.7 210.6 215.1
415.8 419.8 421.4 421.6 420.6 419.2 418.7 418.2 415.9 413 409.1 404.4 398.7 391.3 381.8 371.4 363.8 357.2 351.5 348.1 346 345.5 345.7 345.5 346.3 347.9 350.8 354.9 358.2 361.1 363.5 367.5 368.6 369 368.9 367.5 363.2 353.2 347.2 341.5 335.6 328.2 322.4 317.7 314.4 315.8 319.3 322.5 328.1 334.9 342.5 346 351.9 360.1 366.7 373.5 379.2 381.1 381.2 378.5 373.7 370.7 365.8 360.4 350.7 341.9 332.1 325.1 318.1 314.2 310.4 306.9 303.3 299.2 297.4 296.2 295.7 297.1 299 301.7 310.8 316.2 330.9 345.3 351.7 356.1 358.7 360.7 359.6 357.9 357.3 356.8 349.3 344.1 333.5 326.2 321.1 317.3 313.9 312.2 310.8 309.1 306 305.1 304.6 305.2 305.5 306.5 307.2 308.6 311.1 312.8 305.2 299.6 292.9 284 274.6 269.2 265.4 261.7 256.8 252.6 248.9 245.8 243.3 240.3 239.8 238.7 238.3 240.3 243.3 246.1 249.3 253.3 257.6 261.7 266.8 272.3 278.7 285.7 293.3 300 306.3 310.2 313.4 315.7 317.6 317.1 315 310.6 305.1 299.6 292.1 285.2 278.3 271.8 265.7 260.6 255.6 251 247.2 243.1 239.9 236.6 233.6 231.1 228.5 226.7 224.9 223.1 221.8 220.4 218.9 217.4 216.3 215.4 214.4 213.9 213.6 213 212.1 211.8 211.7 211.7 211.6 211.8 212.3 212.6 212.9 213.1 214.3 215.4 216.1 216.7 217.3 217 216.9 216.3 216.6 217.7
425.2 430.6 433.8 434.3 432.8 430.7 430.3 429 426.2 422.7 418.5 412.4 405.7 398.4 388.5 378.7 372.7 367.4 362.9 358.7 355.1 353.2 354 355.7 356.8 358.4 359.2 361 364 365.8 367.3 370.1 371.8 371.8 371.2 369.4 365.6 359.3 354 347.9 342.4 334.2 328.9 324.6 323.2 324.1 327.9 332.2 338 346.2 351.7 356 363.3 369.6 375.2 380.6 385.4 386.8 386.1 380.4 373.5 369.2 364.2 359 349.5 343.8 333.2 323.2 314.7 309.9 305.5 302.6 299.5 296 294.4 292.9 292.6 294.1 296.6 302.1 308 313.8 324.2 334.1 343.6 352.7 359 362.3 361.8 358.4 354.6 349.3 339 334 327.1 320.7 316.1 312.5 308.5 305.2 303.4 300 297.9 296.4 295.9 297.1 298.6 299.1 300.1 301.5 302.8 299.9 293.5 287.3 279.3 270.2 265.5 261.6 258.2 254.8 251.2 247.7 244.4 241.1 239.2 237.4 237 236.6 237.7 239.5 242.3 245.3 248.5 252.4 256.9 261.2 266.4 271.9 278.9 285.9 293.6 300.2 306.7 311.1 314.5 316.6 317.4 316.9 313.6 308.9 303.3 297.8 291.8 285.2 278.7 272.2 265.9 260.5 255.4 250.3 245.9 242.4 239 236 233.1 230.3 228.4 226.9 225.3 223.6 222.2 220.8 219.3 217.8 216.5 215.6 214.9 214.5 214.2 213.7 212.8 212 211.3 211.2 211.1 210.8 211.3 211.2 210.8 210.3 211.5 213.1 214.4 215.5 216.6 217 217.4 218.1 218.5 219
433.8 438.8 442.7 444.3 444.8 442.8 440.3 437.8 434.9 430.9 426 419.2 412.1 404.2 394.6 387.1 380.5 375.6 372.2 368.2 363.3 362.5 361.8 362.9 365.7 367.8 368.8 368.6 368.8 369.1 370.9 372.6 373 372.9 372 370 364.7 361.6 358 350.9 344.1 338.2 333.9 331.2 330.3 331.5 335.7 340.4 349.4 356.7 362.5 368.3 374.6 379.5 383.1 385.4 387.4 387.6 385.6 381.8 374.2 368.4 361.8 355.7 348.6 342.7 335 321.1 313.6 308.4 302.5 299.1 295.9 293.1 291 287.5 289.3 291 294.6 299 306.7 313.2 319.5 325.9 334.1 344.6 359 363.5 362.2 358.1 345.9 338.8 331.8 328.5 321.9 315.9 310.4 306.4 302.5 298.9 297 294 291.4 290.4 290 291.1 292.3 293.5 293.7 293.5 291.5 287.4 281 274 268.5 263.1 258.6 254.9 252.1 249.2 245.9 243 240.4 237 235.4 234.8 234.6 236.1 237.2 238.7 241.3 244 247.5 251.4 255.9 260.8 266.1 272.1 278.9 286.4 294.5 301.1 307.1 311.6 315 317.6 317.3 315.8 311.6 307.6 302.6 297.1 291.3 285.4 278.9 272.4 266.2 260.3 255.2 249.6 245.3 241.8 238.4 235.5 232.5 230.1 228 226.3 224.7 222.8 221.5 220.5 219.1 218 217.6 217 216.7 215.9 214.7 214.3 213.5 212.7 212 211.3 210.6 210.4 210.5 210.3 209.7 209.1 209.1 211 212.9 214.2 215.5 216.8 217.7 218.3 218.9 219.4
440.5 444.8 448.5 450.8 455.7 453 448.9 444.8 440.8 436.8 430.5 423.9 415.4 407.5 400 394.5 387.9 384.1 383 379.2 375.2 372.5 369.9 369.4 370.6 371.7 372 372.1 372.1 371.9 372.6 372.9 372.6 372.9 371.6 368.9 362.5 359.1 354.3 348.3 344.2 340.8 338 336.6 336.4 338.6 342.5 348.5 355.4 362.9 371.1 377.2 383.5 386.8 388.4 388.5 388 385.3 382.7 380.1 374.2 367 360.3 353.8 347.4 341.1 333.3 322.2 313.5 306.6 300.6 295.7 292 289.9 287.1 283.5 287.3 288.5 291.8 296 304 311.1 316.1 320.6 329.5 333.9 340.1 347.8 343.2 340.2 334.3 330.2 326.5 322.6 315.9 309 304.3 300.1 297 294 290.3 288.2 286 284.8 284.4 284.9 286.1 287.5 287.1 286.5 283.1 277.9 270.4 265.1 260.2 255.8 252.2 249.3 246.6 243.9 241.2 238.6 235.9 233.8 232.8 232.4 232.9 234.6 236.6 237.9 240.5 243.5 247.3 251.2 255.7 260.6 266 272.4 279.4 286.8 295.2 302 307.3 311.9 315.3 317.4 317 314.4 310.8 306.9 302.3 296.9 291.3 285.5 279.1 272.6 266.5 260.3 255.2 249.1 244.8 241.3 237.9 234.9 232.1 229.7 227.4 225.8 223.9 222.5 221.2 220.2 219.7 219.3 218.9 218.4 218.2 217.9 216.8 215.9 214.9 214.1 212.8 212.1 211.3 210.6 210.2 209.7 209.2 208.7 208.3 209.6 211.6 213.4 214.7 216.1 217.6 218.4 219 218.8
446.4 449.5 453.3 458 462.7 459.2 452.8 446.6 443 438.7 430.7 424.6 416.9 410 404.5 399.9 394.9 392.5 392.2 390.6 385.9 380.5 377.3 374.6 374 373.8 373.8 373.9 372.8 372.8 372.4 371.7 370.3 368.7 366.2 362.4 357.8 353.5 350.4 347 343.3 341.7 339.9 339.2 340.2 343.3 347.3 352.6 359.1 368.3 378 385.1 388.6 390.2 391.2 391 389.8 387.4 384.3 380.9 374.4 366.8 358.9 353.4 346.2 339.1 330.3 321.3 313.1 305.6 298.8 293.7 289.1 285.9 284.6 281.1 284.4 286.7 289 293 300.6 308.4 313.3 316.3 321.7 326.8 331.8 332.8 332.7 330.5 327.6 325.6 322 314.1 307.8 303.3 298.7 295.1 292.1 289.3 285.5 283.1 281 279.4 278.8 279.1 279.9 280.6 280.3 278.4 275.2 268.3 262.7 258 253.6 249.5 246.3 243.6 240.9 239 237 234.7 233 231.4 230.6 230.3 230.8 232.2 234.5 237 240.3 243.4 247 250.9 255.6 260.5 266.1 272.8 279.8 287.2 295.8 302.3 307.6 311.8 315.1 316.8 316.2 313.6 310.5 306.5 302 297 291.4 285.7 279.2 272.8 266.3 260.3 254.8 249.2 244.4 240.7 237.5 234.3 231.5 229.3 227.3 225.5 224.1 222.7 221.4 221.4 221.1 220.7 220.3 219.8 219.7 220 219.2 218.5 217.3 216.2 214.6 213 212 210.9 210.4 209.9 209.3 208.8 208.3 209.1 210.7 212.6 214 215.4 217.1 218 218.2 217.8
450.6 452.1 455.3 458.4 460.6 455.7 447.5 440.8 436.9 433 428.5 422.2 415.1 412.1 409.1 405.8 402.2 399.7 398.2 397 392.2 385.9 381.7 378.5 376.6 374.8 374.1 372.9 371.5 371.3 370.3 367.2 365.9 363.6 360.5 356.9 352.9 349.8 347.3 344.3 342.1 340.8 340.1 340 342.4 346.3 351.4 357.6 365 373.1 382.4 387.9 391.1 392.9 393.7 393.2 391.4 389 385.6 381 374 368.1 360.5 353.1 345.5 337.5 329.1 320.9 312.1 303.5 296.7 291.1 286.6 284 281.4 279.5 281.1 283.1 285.7 289.2 295.1 302.4 307.9 311.9 316.3 320.7 323.9 326 326.1 324.6 322.3 318.5 313.1 307.8 302 297.7 294.1 290.4 287.3 284 281.3 277.6 275.3 274.2 273.4 273.3 273.6 273.1 272 269.7 265 258.1 253.8 250.8 246.9 243.1 240.8 238.2 236.2 234.8 233.8 232 230.4 229.5 229.1 229.1 229.5 231.3 232.9 235.8 239.2 242.6 246.5 250.4 255.5 260.7 266.2 273 279.8 287.1 295 301.5 306.5 311.3 314 315.4 315.1 312.8 309.5 306.1 301.6 296.8 291.2 286 280 273.4 267 260.7 253.7 249.3 244.8 240.9 237.6 234.9 232.2 229.4 227.5 225.9 224.7 223.6 223.1 223.7 223.3 223.1 222.8 222.3 221.8 222.1 222 221.4 220.3 218.9 216.6 214.6 212.7 211.5 210.6 210.1 209.5 208.9 208.4 208.9 209.5 210.8 212.5 214.1 215.7 216.7 217.1 216.9
451.5 451.3 451 450.4 447.5 442.7 435.7 431.7 425.7 422.1 418.8 414 413.5 415.4 415.2 410.9 405.3 403.8 401.6 400 396 389.9 384.9 380.8 377.3 374.8 372.5 370.6 368.7 366.4 363.3 359.8 357.8 355.8 352.1 348.3 346.9 345.7 344 341.4 340 339 338.4 338.5 342.1 347.5 352.6 359.5 367.8 375.5 383.9 390 393.4 395.1 395.9 396 393.7 390.6 385.4 380.7 374.8 369.2 362.6 354.1 345.1 336.6 329 320 310.8 299.4 294.8 288.3 283.3 280.6 278.1 275 278 279.5 281.6 285.8 290.4 296.7 301.8 306.4 311.3 315.8 318.9 320.7 320.6 319 316.4 311.6 307.4 302.8 297.5 293.2 289.5 285.9 282.6 276.9 276.5 273.4 270.9 268.6 268.2 266.9 266.5 265.6 261.2 257.9 254.1 250.2 247 244.2 239.9 237.9 235.5 233.8 232.3 231.3 230.2 229.1 227.6 227.8 227.7 228 228.6 230.6 231.8 234.5 237.8 241.6 245.2 249.2 254.7 260.4 265.6 272.5 278.6 286 293.5 299.2 304.7 309.3 311.9 313.7 313.2 311.5 308.4 305.1 301 296.5 291.2 286.2 281 274.1 267.7 261.6 256.4 251.7 246 242.3 238.7 235.3 232.7 229.8 227.7 226.9 226.4 225.5 225.5 226 225.4 225.2 224.9 224.6 224.7 224.7 224.8 224.3 223.4 221.6 219.2 216.3 213.7 212.3 210.7 210.2 209.7 209.1 208.4 208 209 210.1 211.3 212.4 214 215.8 216.7 215.8
449.4 446.3 443.5 440.5 436.7 431.9 427.3 423.2 417.9 410.5 405 405.4 408.2 413.4 416.5 411.4 406.9 405 403.1 400.1 395.9 390.4 384.3 379.9 376.1 372.4 368.6 366.9 364.5 360.6 356.9 351.8 350.6 347 344.1 341.4 339.9 339.5 338.7 337.5 335.4 332.7 329.8 330.9 337.4 344.9 351.6 359.1 368 376 384.4 391.1 394.9 396.6 398 398.1 396.4 390.9 385.5 380.8 376.1 370.6 363.4 354.6 343.6 334.4 325.6 318.4 302.8 294.6 289.9 284.3 280.2 276.9 275.5 272.8 275.2 276.1 278.2 281.5 285.8 290.9 296.3 300.9 306.9 310.9 314.7 315.6 314.8 311.9 309.2 306.2 302.2 298.2 293.5 289.1 285.1 281.2 277.4 274.5 271.9 269.1 265.7 261.9 262.2 261.2 259.4 257.4 254.4 251.2 248.1 244.8 241.4 238.5 235.1 232.8 231.2 229.8 228.9 227.8 227 226.3 225.7 226.2 226.5 227.2 228 229.4 231.1 233.5 236.6 240.1 243.7 247.9 253.5 259.3 265.4 271.8 277.4 284.3 291.1 296.8 302.1 306.5 309.5 311.2 311 309.3 307.1 304 300.3 296.4 291.4 286.7 281.9 275.9 269.7 264.1 259.7 254.4 248 243.6 239.9 236.6 233.1 230.5 229.2 228.7 228.4 228 227.8 228.2 227.6 227.3 227 226.9 227 227.4 227.2 226.9 226.1 224.2 221.5 218.3 215.1 213.3 211 210.4 209.9 208.8 207.4 207.3 208.5 209.6 210.6 211.7 213.2 215 216 215.2
445.8 441.1 436.6 432.3 428.6 424.5 419 414.5 407.6 400.1 394.8 395 399.7 405.2 408.1 406 403.1 403.1 401.2 398.1 393.4 387.5 381.3 376.1 372.1 367.6 364.2 359.5 355.8 351.8 347.1 343.7 341.2 338.2 334.5 332.9 332.9 332.4 330.2 327.9 325.4 320.7 319.9 322.5 328.3 336.6 344.5 354.9 364.2 375.1 383 389.6 395.6 397.8 399.7 400.1 397.6 390.3 385.6 380.8 375.8 370.4 362.9 353.1 341.3 330.6 319 307.7 296.7 289.7 284.4 279.8 276.1 273.2 271.6 270 271 272.9 274.8 277.8 281.2 284.6 289.3 293.7 298.1 303 305.8 306.7 306.9 305.7 304.8 303 299.5 294.4 289.4 285 281.2 277.1 273.2 269.3 266.6 264.1 261.7 258.6 257 255.5 253.2 250.7 248.2 245.5 242.4 239.3 236 233.3 231.2 229.8 228 226.8 226.5 225.9 225.1 224.3 223.7 225.1 225.7 226.4 227.6 228.8 230.2 232.6 235.4 238.5 242.1 246.6 251.7 257 263 269.2 275.3 283.2 288.7 294.4 299.6 304 307.2 308.7 308.4 307.7 305.6 303.1 300.4 296.6 292.3 287.7 282.8 277.1 271.5 265.8 261.4 255.8 249.7 245.8 242.1 238.8 234.9 232.2 231.6 231.4 231.3 230.7 230.3 230.4 229.8 229.4 229.2 229.2 228.9 228.4 228.2 227.9 227.3 225.4 223 220.1 216.7 214.2 211.4 210.7 210.4 208.2 207.1 206.8 207.9 208.9 210 211 212.4 214.8 215.4 214.5
441.8 436 429.3 424.5 419.7 414.2 409.5 402.5 394.8 386.5 380.4 382.1 385.6 390.2 394.1 395 395 395.3 394.2 391.6 387.2 381.3 375.6 370.4 364.9 359.9 354.7 350.9 346.2 342.5 340 336.4 333.4 329.2 326.3 324.6 323.1 318.8 316.4 313.8 311.2 310.6 312.4 317.3 322.9 330.2 338.8 349.4 360.3 372.4 381.1 386.8 393.8 398.4 400.4 400.5 397.6 390.2 385 380.2 375.3 369.6 360.4 350.3 337.6 325.6 311.8 299.5 290.6 284.8 279.4 275.4 272.2 270.1 268.6 267.3 267.6 268.8 270.5 273.6 277.3 279.8 282.4 286.1 289 292.5 295.6 300.2 300.7 301.7 301.3 299.7 297.1 292 287.2 281.4 277.6 273.1 269.2 266.2 263.2 260.2 257.4 254.5 250.7 249.4 248.4 245.9 242.9 240 237.1 234.2 231.5 229.2 227.5 226.4 225.1 224.2 224.1 223.9 223.5 222.8 223.7 224.4 225 226 227.2 228.4 229.6 231.8 234.7 237.6 240.5 244.5 248.8 254.6 259.6 265.8 272.3 278.7 285.5 291.7 297.7 302.1 304.7 305.9 306.2 306 304.6 302.6 300.5 297 293.2 288.7 283.6 277.8 272.4 267.1 262.9 257.9 251.8 248.2 244.4 240.5 236.2 234.2 234.4 234.3 234.1 233.6 233.1 232.6 232 231.5 231.2 230.5 229.3 228.2 228.5 228.5 227.6 226 223.5 220.3 217.2 214 210.9 209.4 208.4 207.9 207 206.6 207.5 208.6 209.6 210.6 212.7 214.2 214.6 214.1
434.4 426.7 416.2 409.5 405.6 401.1 395.6 388.6 379.7 368.3 360.8 367.4 368.4 371.7 376.1 379.5 382.5 384.5 383.9 382.3 378.2 372.4 366 359.9 355.3 350.5 345.8 342 337.9 334.2 333 329.5 324.3 317.3 313.9 310.7 306.4 304.2 302.8 301.8 303.1 301.5 308.2 312.4 320.1 326.7 335.5 346.4 357.7 369 379 384.8 390.8 397.9 399.9 400 396 388.9 383.9 379.3 374.3 367.3 356.6 344.3 332 317.4 305 293.3 286.2 280.3 275.1 271.4 268.7 267.1 265.5 264.3 264.4 265.4 266.6 269.4 273 275.3 278.3 281.2 285.2 288.3 291.5 295.2 297.2 298.4 298.8 296.8 294.7 290 285.3 279 273.5 269.3 265.9 262.7 259 255.5 252.7 250.3 247.2 244.4 243.6 241 238.1 235.6 232.7 230 228.2 225.7 224.4 223.2 222.3 222.1 221.9 221.8 222.2 222.4 223.6 224.1 224.7 225.5 226.7 228 229.2 231 233.8 236.7 239.6 243.2 247.5 252.5 257.1 262.2 267.9 273.2 279.4 286 293.7 298.9 301.9 303.6 304.7 304.7 304.2 302.2 300.3 297.5 293.8 289.5 284 278.2 272.7 268 263.8 259.7 254.7 251.2 247.3 242.4 237.7 237.5 238 237.5 237 236.7 236.5 236.2 235.1 233.1 231.7 231 229.6 228.3 228.3 227.7 226.6 224.5 221.8 219.1 216.2 213 210.5 208.9 207.7 207.4 207 206.6 207.2 208.2 209.1 210.8 212.6 213.6 214.1 213.4
423.5 413.9 398.9 388.2 386.6 384.6 379.8 372.5 362.8 354.2 348.4 352.3 352.9 354.8 357.2 361.6 366.1 369.5 370.4 368.8 365.2 359.8 352.7 346.7 342.5 338.1 334 329.9 326.3 323.9 321.1 316.7 311.5 306.7 304.2 302.1 299.5 297.7 296.4 296.4 297.5 299.8 303.2 307.3 313.4 319.9 329.4 340.4 353.2 365.1 375.2 382.3 389.3 397.2 398.7 397.9 395.1 389.1 383.4 377.8 371.5 363.6 351.7 339.3 325.7 312.4 298.9 289.5 282.8 276.2 271.2 267.9 265.5 263.7 261.8 260.8 261.3 262.1 263.2 266.1 268.9 271.6 274.3 277.6 281.7 284.7 288.4 292.3 294.5 296 296.3 295 292.8 288.9 283.5 277.9 271.6 265.5 261.9 258.5 254.7 251 248.6 246.3 243.8 239.5 239 236.5 233.7 231.1 228.6 226.6 225.2 223.2 222.1 221.6 221.1 221 220.9 221.2 222.1 222.5 223.4 223.9 224.4 225.1 226.3 227.6 228.9 230.8 232.9 235.8 238.8 242.1 246.2 251.2 255 260.1 264.5 269.5 274.7 280.1 286.6 294.9 299.1 301.9 302.8 303.7 303.7 302.4 300.3 297.7 293.9 289.8 283.6 277.7 273 268.1 264.7 261.4 256.7 252.6 249 244.2 240.8 241.6 242.1 241.4 240.2 239.9 238.3 237.7 235.7 233.3 232 230.4 228.8 228 226.7 225.4 223.5 221.5 219.6 217 214.2 211.5 209.6 207.7 207 206.8 206.5 206.6 207 207.3 208.9 210.6 212 213 213.1 212.4
409.7 398 381.2 369.9 368.2 367.6 363 354.6 348.3 341.6 338.3 339.9 339.6 340.7 342 345.6 348.6 351.4 352 351.5 349 343.8 336.9 331.3 328.2 324.7 322.2 320.6 318.4 316.2 312.7 308.3 304.5 300.6 297.3 295.4 294.2 292.2 291.1 290.9 291.5 294.8 298.1 301.6 307.4 313.7 323.2 334.9 347.7 360.5 371.3 378.2 387.3 395.3 397 396.6 393.5 388.5 382.6 375.6 369.2 359.4 347.7 335.1 323.9 308.7 294.8 286.3 279.1 272.9 267.6 264.1 261.9 260.5 259.2 258.4 258.2 259 260.4 262.9 265.6 268.2 270.7 273.8 277.8 282.1 285.8 290.1 293.1 294.4 294.6 292.9 290.7 287.5 282.4 276.3 269.3 262.5 258 254.3 250.6 247.7 244.8 242.1 239.4 236 235.3 233.1 230.7 228.1 225.3 223.2 222.3 220.9 220.5 220.4 219.9 219.9 219.8 220.7 221.7 222.6 223.2 223.8 224.2 224.6 225.9 227.2 228.5 230.5 232.5 234.9 238 241.3 244.9 249.4 253.2 257.4 261.7 266.6 271.6 277.1 283.3 291.3 296.8 300 301.8 303.1 303.1 302.5 300.5 297.6 293.9 288.8 282.8 277.7 272.6 268.4 265 261.5 258.1 254 249.9 245.5 245.5 246.1 245.2 243.9 242.4 240.6 239.5 237.8 235.5 233.4 231 228.3 227.1 225.3 223.8 222.5 220.4 218.6 216.8 214.8 212.3 210.3 208.3 207.1 206.8 206.8 206.6 206.9 207.2 207.8 209.1 210 211.3 212.4 212 210.8
389 378.2 364.4 353.3 350.7 349.8 345.7 339.6 334.2 329.6 324.2 327.6 327.5 328.6 331 333.1 336 338.6 339.3 338.2 336.4 332.6 329.8 325.4 321.7 318.6 316.1 314 312 310 307.1 303.3 299.1 295.3 293.2 290.7 288.3 286.7 286 286.1 286.3 290.5 293.8 298 304 310.4 318.6 330.3 342.8 355.9 367.2 374.2 383 391.7 394 394.1 391.3 385.6 379.7 373 366.3 356.2 345.9 332.9 321.2 307.4 295 282.2 274.1 267.7 264.1 260.8 258.4 257.2 255.9 255.6 255 255.7 257.6 259.7 262.3 264.8 268 271.8 276.1 280.4 285.1 288.9 291.7 292.9 292.6 290.6 288.5 285.6 280.5 274.7 266.4 259.3 254.7 250.2 245.9 244.2 240.6 237.7 235.6 233.4 230.8 229.2 226.9 224.5 222.1 220.8 219.9 219 218.9 218.8 218.7 218.8 219.2 220.2 221.3 222.4 223 223.6 224 224.9 226 227.2 228.4 230.3 232.3 234.5 237.3 240.6 243.9 247.7 251.7 255.6 259.7 263.8 268.6 273.9 280.1 288.6 294.4 298.5 300.7 302.4 302.5 301.6 299.4 296.4 292.7 288.2 282.5 278.2 272.8 268.6 265.1 261.7 258.1 254.6 251 248 248.3 247.8 246.8 245.3 243.3 241.4 239.9 237.6 235.4 233.1 230.2 227 224.2 222.4 220.9 219.3 217.5 215.7 213.9 212.1 210.3 208.8 207.5 206.5 206.3 206.5 206.6 207 207.5 208.5 209.7 210.7 211.2 211.6 211.3 209.2
366.4 359.7 349.4 339.2 335.7 332.6 329.3 324.5 319.8 316.2 311.7 314.4 314.7 316.9 319.8 322.4 325.5 327.2 330.2 330.1 328.7 326.2 323.2 319.5 315.9 313.3 310.8 307.9 306.4 304.5 301.7 298.1 294 290.4 287.1 284.5 283 281.6 280.8 280.3 282.5 285.2 288.9 294.2 300.2 307.4 314.4 324.5 337.5 350 361.5 370.1 379.3 386.5 390.3 390.6 388 383.6 378.5 373.3 366.9 357.6 347.1 334.3 321.8 309.5 295.8 280.8 269.7 264.2 260.6 257.6 255.1 254.1 253.4 252.4 252.2 253.1 254.6 256.6 259.3 262.1 266.1 270.6 275.1 280.1 284.8 288.6 290.9 291.4 290.4 289 286.5 282.9 277.8 270.5 263.7 256.4 250.7 246.1 242.5 240 236.9 234.4 231.7 229.3 227.2 225.3 223.3 221.5 220.1 219.1 218 217.4 217.3 217.4 217.9 218 219 220 220.9 222 223 223.5 224.5 225.7 226.8 227.9 229.1 230.7 232.8 234.9 237.1 240.3 243.1 246 250.1 254 257.6 261.7 266.2 270.9 278.4 286.5 293.2 297.4 299.9 301.3 301 300.6 298.4 295.7 291.5 287.6 282.2 277.8 273.6 268.7 265.1 261.5 258 254.5 251.8 250.6 250.1 249.1 248 246.3 244.2 242.2 240.2 238.1 236 233.7 230.9 227.5 223.7 220.6 218.3 216.8 215.1 213.3 211.5 210 208.4 206.8 206.1 205.5 205.9 206.1 206.6 207.6 208.2 209.1 210.6 211.9 211.7 211.4 210.4 208.5
340.1 339.4 333.2 325.2 323 317.2 313.6 310.4 307.4 304.2 304.8 304.1 303.4 304.5 307 309.5 313.1 316.2 319.6 320.5 320.3 318.4 315.4 312.5 309.3 307.2 304.2 301.8 300.4 298.6 296.2 292.6 289.1 285.8 282.5 279.3 278.1 277 276.5 275.8 278.2 282.1 286.1 291.4 296.9 303.6 310.5 320.1 332 344.6 356.5 364.8 374.6 382 386.2 386.2 384.3 382.7 378.7 373.7 368.2 360.3 348.1 334.7 321 309.1 294 278.4 265.6 260.5 257.8 254.3 252.5 251.1 250.4 248.9 249.5 250.4 251.8 254.1 256.7 260.3 264.3 269.5 274.5 279.8 284.5 287.7 289.7 289.8 289.2 287.3 284.1 280.2 273.8 266.4 260.5 253.1 247.2 243.1 238.6 236.3 233.4 231.2 228.3 226.2 224.6 223 221.2 219.7 218.5 217.5 216.9 216.3 216.1 216.5 217.1 217.9 219 219.9 220.9 221.8 222.7 224 225.3 226.4 227.6 228.7 229.8 231.2 233.5 235.4 237.3 239.8 242.4 245 249 252.3 255.4 259.8 264.9 269.4 276.3 285.4 292.3 296.3 299.3 300.5 300.8 299.4 297.5 294.9 290.7 286.5 281.8 277.4 273.7 269 265.1 261.6 258.9 255.9 253.5 251.9 249.8 249.3 248.7 247.2 245.3 243.5 241.5 239.2 236.8 234.4 231.7 228.2 224.4 220 217.4 214.8 213 211.4 209.9 208.3 206.7 205.5 204.7 204.4 205.5 206.9 207.8 209.1 210 210.6 211.7 213.1 213.1 212.7 211.5 209.3
327.4 318.1 317.3 312.3 310 306.6 301.9 299.2 297.9 295.3 296.6 292.7 295 295.1 295.7 297.3 299.1 303.1 306.6 308.3 308.3 307.1 305.3 303.7 301.8 298.1 296.8 295.3 294.9 293.1 291.4 289.3 284.4 280.4 277.8 274.1 274 273.2 272.6 272.3 276.1 279.4 282.7 287.5 293.4 299.7 305.8 315.3 327.3 337 350.9 361.1 371.6 378.1 382.5 382.4 381.5 380.5 377.9 373.7 368.5 360.2 346.3 334.1 318.7 304.4 288.6 273.5 261.4 255.8 253.3 251.1 249.6 248.3 247.6 246.7 247.1 247.8 249.1 251.8 254.7 258.6 263 268.2 274.5 279.4 283.3 286.5 288.3 288.2 288 285.7 281.6 276.4 269.8 262.4 255.8 248.9 244.5 239.8 234.7 231.4 229.6 227.3 224.8 223.4 222.2 220.9 219.3 218.1 216.9 216.3 215.7 215.2 215.3 215.9 216.7 217.8 218.9 219.8 220.8 222.6 223.7 224.8 226.1 227.2 228.4 229.5 230.7 232.2 234.2 236.2 238 240.5 243.5 246.1 249.3 251.6 254.3 258.4 262.8 268.1 275.7 285.9 292.8 297.6 300.5 302 302 300.4 297.7 294.4 290.2 285.9 281.7 277.7 273.8 269.2 266.3 263.4 260.5 257.4 254.3 252.2 250.1 248.8 247.8 246.3 245.2 242.8 241.4 239.6 237.6 235 232.5 228.7 224.2 219.9 216.6 214 212 209.9 208.2 206.7 205.1 204.4 204.1 205 205.7 207.6 208.9 210.3 211.5 212.6 213.5 214.2 214.4 214.1 213.3 210.8
319.5 306.3 304.7 300.9 300.6 299 295.3 293 291.5 289.4 289.5 289.8 287.5 287.2 288.3 288.7 289 290.1 292.6 294.5 295.7 296.3 295.4 293.9 292.4 291 289.9 289.6 289.3 288.4 286.8 284.9 281 274.8 272.7 270.2 270 269.4 269.3 268.3 273.4 276.6 280 284.2 289.1 296 303.2 312.4 323.8 333.6 345.6 357.6 370.1 376.6 380.6 381.5 380.9 379.8 376.8 372.7 367.4 356.9 343.4 327.1 312.5 297.9 282.5 268.3 257.6 251.2 249.5 247.8 246.2 245.5 244.9 244.4 244.5 245.2 247.3 250.1 252.9 257.2 261.8 267.3 273.2 278.3 282.1 285.1 287.1 287.7 286.5 283.7 279.5 272.6 263.8 257.1 250.6 245.9 241.3 236.8 232 228.3 225.6 223.5 222 220.7 219.5 218.5 217.7 216.4 215.6 215.1 214.6 214.2 214.9 215.5 216.7 217.8 218.9 220.7 222.4 223.7 224.6 225.7 226.9 228 229.2 230.5 231.8 233.4 235.2 237 239.1 241.4 244 246.6 249.4 252.5 255.5 258.2 262.5 268.3 274.7 285.8 293.9 300.2 303.3 305 305.2 302.5 299.1 294.9 291.4 286.5 283.2 279.4 275.1 271.4 268 265 262.1 259 255.6 252.4 250.2 246.4 245 243.9 242.6 241.8 240.7 239 236.8 234.8 232.7 228.1 223.9 219.7 216.4 213.7 211.6 209.4 207.2 205.6 204.6 204 203.7 205.5 207.2 208.6 210.1 212 213.6 214.7 215.7 216.2 216 215.7 215.3 212.8
317.6 305.8 298.8 295.7 294.6 292.2 289.8 286.5 283.4 283 284.1 284.9 283.2 282.8 282.8 282 282.1 281.9 282.6 284.8 286.8 288.1 288.1 287.4 286.5 284.8 284.5 284.3 283.9 283.5 281.8 279.8 276.2 270.6 267.3 266.6 265.5 265.9 266.1 267.2 270.2 274 278.1 281.6 286.7 293.1 300.4 309.9 320.5 331.8 344.4 358.9 369.3 376.2 379.3 380.7 380.3 378.2 375.3 371.3 363.1 350 337.6 321.2 304.7 289 275.3 263.5 256.1 248.6 246.1 244.5 242.9 242.7 242.3 241.2 241.1 243 245.3 247.5 251.4 256 260.6 266.1 272 277.6 280.6 283.4 285.8 286.9 284.9 281 273.8 263.4 256.7 251.2 246.7 241.9 237.6 233.3 229.5 226.1 223.1 220.6 219.2 218 217.1 216.2 215.5 215 214.4 213.9 213.8 214.2 214.5 215.4 216.7 218.5 220.3 222 223.8 225.3 226 226.7 227.7 229 230.2 231.5 232.8 234.7 236.6 238.6 240.7 242.8 245.1 247.8 250.8 254.2 257.4 260.3 264.7 269.4 276.1 285.1 295.2 302.5 305.9 307.8 308.2 306.8 302.8 298 292.9 288.7 284.5 280.7 276.9 273.6 270.2 266.9 263.5 259.8 256.1 252.3 249 245.7 243.1 241 239.5 238.7 237.9 237 235.6 233.7 230.8 227.4 223.8 219.6 216.5 213.5 210.7 208.5 206.7 205.2 204.1 203.5 203.6 206 208 210 211.6 213.6 215.8 217.3 218.3 218.3 218.6 217.4 217 215.9
321.3 306.4 297 293.3 290 288.1 285.3 284.7 282.8 277.8 279.2 280 279.5 278.1 277.7 276.9 276.1 276.4 275.6 276.8 278.5 279.8 280.6 280.5 280 279.2 279.2 279 278.4 277.1 276.2 274.6 269.6 267 264.7 261.4 262.6 262.6 263.4 264.1 268 270.8 275.1 279.2 284.3 290.6 300 311 324.5 336.8 349.9 361.9 370.4 375.8 378.5 379.4 378.3 376 373.6 368.2 356.9 345.8 331.2 315.3 295 279.8 268.9 259 252 246.6 243.3 241.3 240.1 240 239.1 238.7 238.9 240.9 242.5 245.1 250 254.9 259.5 264.4 270.6 276.1 278.6 280.9 282.9 283 278 271.6 261.6 256.1 251.2 247.1 242.9 238 233.8 230.5 227.1 223.3 220.4 218.3 216.4 215.6 214.8 214.1 213.9 214 213.2 213.6 213.9 214.2 214.5 216.3 217.8 219.9 221.7 223.4 225.1 226.8 227.5 228.3 229.7 230.7 231.8 233.1 234.9 236.6 238.4 240.4 242.4 244.5 247.1 249.8 252.6 255.8 259.5 263.1 266 271.2 279.4 288.9 297 304.8 310.5 311.9 312.3 311.1 306.9 301.2 295.8 291.4 287.3 283.6 279.7 276.1 273 269.9 266.5 262.2 257.8 253.5 250.3 246.5 243.2 240.7 237.6 235.6 235 234.7 233 231.1 228.8 225.8 223.3 219.4 216 213.4 210.5 207.7 206.3 204.8 203.6 202.8 203.4 206.7 209.2 211.5 213.8 215.9 218 219.9 220.9 220.9 221 221.4 220.2 219.1
323.7 306.8 295.4 292.3 289.8 288 287.4 288 286.9 282.5 276.2 275.3 275.6 273.5 273.3 272.2 271.2 270.3 268.9 269 268.6 270.5 271.5 273.1 273.3 272.8 273.3 273.3 273.1 271.9 271.2 268.8 265.7 263.4 261.6 258.9 259.5 259.8 259.7 262.1 264.9 268 271.6 276.8 282.7 289.9 302 315.6 329.6 343.2 353.7 363.9 370.7 374.7 376.4 376.8 375.5 373.2 370.3 363.5 353 339.3 324.3 305.3 286.7 272.2 263.2 255.6 249 245.6 242.4 239.1 237 237.4 236.8 236.1 236.8 238 240.1 244.2 248.6 253.6 258.4 263.2 268.8 273.3 276.1 277.3 276.2 274.1 268 259.4 254.6 249.6 246 242.4 238.4 234.5 230.4 227 223.4 220.2 217.9 215.8 214.4 213.5 212.7 212.7 212.8 212.9 212.5 212.9 213.5 214.9 215.5 217.7 219.6 221.3 223 224.7 226.4 228.2 229 230.3 231.7 232.9 234 235.4 237 238.7 240.5 242.2 244.3 246.9 249.5 252.1 255.5 259 262.7 266.8 270.2 274.7 284.5 293.3 301.3 308.5 313.7 316.9 316.5 314.8 311 304 299.3 295 290.9 286.5 283.1 279.3 276.3 273.2 269.8 265.9 261.5 256 252.6 248.7 245.2 241.4 238.1 234.8 232.4 231.5 230.2 228.4 226.1 224.5 222.4 219.3 215.5 212.5 209.4 207.2 205.7 204.3 202.4 201.9 202.8 207.6 211.1 214.1 216.4 218.4 220.4 222.4 224.3 224.7 225 225.2 224.5 225
320.4 303.6 295.2 291.4 289.5 289.3 289.5 292.9 291.2 284.6 278 273.4 271.6 269.4 269.1 267.2 266.2 264.7 263.9 263.3 262.7 264 265 266.1 266.3 267 267.4 267.6 267.8 267.4 266.6 264.9 261.9 259.6 257.8 256.1 256.7 257.1 256.7 259.6 262.1 265.7 269.5 274.5 281.3 291.4 302.5 317.9 332 346.2 357.2 363.4 369.3 372.3 373.5 373.4 372.1 369 366.2 359.1 347.6 331.9 315.3 295.8 279.8 266.7 258.4 251.8 246.7 243.2 239.9 236.7 234.5 234.2 234.3 232.4 234.3 235.3 238.6 243.2 247.7 252.2 256.8 261.5 266 270.1 272.5 272.8 270.3 265.2 258.7 253.6 249.4 245.3 242 238.2 234.1 231 227.3 223.5 220.3 217.1 214.8 213.3 212.2 211.5 211.6 211.6 211.7 211.7 211.8 211.5 213 215 216.6 218.3 220.3 222.5 224.4 226.1 227.8 229.5 230.9 232.3 233.7 235.1 236.2 238.2 240.3 241.9 243.6 245.1 247.1 249.6 252.5 255.9 259.6 262.8 268 271.7 276.4 280.6 288.4 299.6 306.6 312.7 318.7 321 321 317.8 314.5 308.1 303 297.9 293.2 289.2 286.1 283 279.6 276.5 273 269.3 265 261.7 255.2 251.9 248 243.3 239.4 235.9 231.8 228 226.5 225.3 224 222.7 220.8 218.8 214.9 211.4 209 206.8 204.9 203.7 202 200.5 201.9 208.5 212.7 216.2 219.7 221.8 224.1 226.2 227.8 228.6 229.1 230.5 230 231.9
316 303.1 296.8 294.3 293.1 289.7 292.1 295.8 291.9 284.6 278.9 272.9 268.9 266.8 265.2 263.6 262.2 261.2 259.1 259.4 258.5 258.9 259.8 260 261 261.7 262.1 262.5 262.8 262.9 262 260.4 258.2 255.7 255 253 253.6 254.4 253.9 257.3 259.5 262.9 266.9 273.1 281.6 290.7 305.1 318.9 333.8 348.4 357.8 363.8 367 368.8 370.1 368.6 367.2 363.8 359.6 351.8 336.9 322.1 307.3 287 271.3 261.9 255.7 249.8 244.4 240.4 237.2 234.9 232.5 231.9 232.1 231.7 231.6 232.7 237 241.3 245.5 249.9 254.8 259.2 263.5 266.8 268 265.9 263.2 258.6 253.5 248.8 245.2 240.4 236.7 233.4 230.6 227.5 224.1 220.9 216.8 214.1 211.8 210.5 210.1 210.4 210.4 210.4 210.5 210.6 210.8 211.6 213.8 216 217.4 218.8 221 223.3 225.4 227.4 229.2 230.9 233.1 234.5 235.9 237.8 239.2 240.8 243.2 245.1 246.7 248.4 250.8 253.6 257.1 260.5 264.5 269.5 275.6 280.1 285.9 293.2 299.6 306.7 313.9 319.1 322.8 324.4 323.6 319.5 315.9 310.4 305.5 300.6 295.7 291.9 288.5 285.5 282.7 279.8 276.2 272.6 269.3 265.1 258.8 253.8 250.3 245.9 241.9 237.6 232.3 228.5 226.1 223.4 221.5 220.2 219.6 217.7 214.7 211.6 209.1 206.6 204.3 202.9 201.4 199.8 202 209.8 214.1 218.8 222.1 226.1 228.7 230.2 231.8 233.3 234.6 236.2 237 240
315.7 308.4 311.2 308.3 302.3 297.5 296.6 296.2 291.8 285.8 280.7 278.8 277.2 275 271.5 267.7 265.4 263.1 260.3 256.3 254.9 254.9 254.6 255.2 256.1 256.7 257.2 257.6 257.9 257.8 256.8 256.2 254.7 252.3 251.6 249.9 250.7 251.4 252.1 254.9 256.9 260.1 264.5 271.3 279.8 290.4 305.1 320.4 334.7 348.3 358.6 362.6 364.7 365.3 364.6 363.7 361.5 355.3 349.2 339.1 325.7 310.4 294 277.9 267.3 259.2 252.5 246.8 241.8 237.9 235.1 232.7 230.3 229.7 229.6 229.1 228.5 230.2 234.3 238.5 242.6 246.9 251.1 255.5 259.2 260.8 260.8 257.7 254.5 251 248.5 244.2 239.7 235.2 232.2 229 226 223 220 217.6 213.8 211 209 207.9 208.3 208.8 209.1 209.2 209.4 209.5 211.1 212.7 214.3 215.9 217.8 219.7 221.8 224.1 226.3 228.3 230.3 232.3 234.5 236.6 238.1 240.5 242.2 243.7 245.9 248.6 250 252.9 256.4 260.4 264 267.7 272 278 285.3 293.1 298.8 303.8 309.6 315.7 321.3 325.6 326.7 327.1 325.8 322.3 317.8 311.1 306.5 302.1 297.6 293.9 291 287.9 285.2 282 279.2 274.1 270 266.7 260.2 257.7 253.6 248.6 244.5 240.4 234.6 230.6 227.2 224 220.8 217.7 216.9 216.2 214.5 211.7 209.2 206.6 204.4 201.4 199 198.2 205.4 212.2 216.4 221.3 225.1 228.8 232.1 234.3 236.9 238.9 240.7 242.4 244.5 246.4
317.4 319.7 318.7 314.6 309.6 304.4 301.4 297.5 294.2 289.9 285.6 283.2 280.9 279 276 272.7 268.8 264.7 261.2 257.9 253.9 249.8 251.4 251.3 251.8 252.3 252.7 252.9 252.7 252.9 252.5 252 250.5 248.3 248.6 247.2 248.4 248.3 250.8 252.2 254.5 258.7 263.5 270.1 278.8 290.4 303.7 319.7 334.8 345.5 358.4 360.4 362.5 361.8 359.6 355.7 350.5 344.2 334.3 326.1 312.9 296.8 282.2 272.9 263.2 255.6 249.4 243.9 239.3 235.6 232.8 230.5 228.2 227.1 227.6 227.1 226.4 227.9 231.5 235.3 239.7 243.9 247.1 250 253.6 254.4 253.9 250.8 247.6 246.5 242.4 238.2 234 230.2 227.8 224.7 221.7 219.2 217 214.3 211.8 208.1 206 206 206.4 207.3 207.6 208.6 208.6 209 211.2 213.2 214.7 216.8 218.7 220.6 222.6 224.9 227.2 229.2 231.2 233.3 236 238.5 240.8 243.2 245.3 247.2 250 252.6 254.6 257.9 262.7 267.5 272.4 277.2 282.1 291.4 298.3 303.4 308.2 314.8 319.5 324.3 328.8 330.8 330.1 328.8 326.4 323.3 318.6 312.3 307.1 303.3 299.5 296 292.4 288.5 285.5 282.4 279.7 277.5 273.6 268.6 263.7 259.3 256.1 250.7 247 242.8 238.2 232.8 229.3 224.3 220.7 217.6 214.8 212.1 210.2 208.7 207 205.6 203.8 201.7 198 196.8 207 214.9 219.5 223.6 227.5 231.3 235.4 238 241.7 244.2 246.6 249.1 250.7 251.9
324.7 327.1 324.9 319.2 313.3 308.2 304.6 300 297.6 294.1 290.2 287.1 284.9 282.9 279.6 275.4 270.7 266.4 262 258.2 254.3 251 248 248.4 248.7 249.2 249.2 249.5 249.4 249.1 248.9 247.6 246.6 244.5 245 245.6 245.9 247.2 248.7 250.3 252.6 257 263.1 269.4 277.7 288.3 300.9 318.3 330.4 342.1 355.9 359.6 359.5 357.5 353.8 348.6 342.3 335.8 327 315.6 299.2 284.1 276.4 268.4 259.1 252.7 246.7 241.7 237.3 233.3 230.6 228.3 226 224.5 225.3 224.5 223.8 224.9 228.2 231.6 235.9 239.5 242.6 245.2 247.1 247.2 245.7 242.9 241.2 237.4 234.3 230.5 228.4 226 223.4 220.7 218.5 216.3 214.1 211.6 207.9 205.1 203.4 204.4 205.2 206.1 206.2 207.3 208.7 209.9 211.6 213.5 215.3 217.8 219.6 221.5 223.3 225.7 228 230.1 232.1 234.9 237.8 240.3 243.8 246.5 249.3 252.8 254.8 257 259.7 262.9 270.4 276.2 283.1 291 298.2 305.3 309.8 315.2 318.7 324.5 329.3 333.6 334.5 334.3 332.8 329.7 326.5 323.7 318.4 312.4 306.4 302.6 299.3 296.1 292.2 288.3 285.5 282.8 280.5 277.9 274.2 269.9 265.7 261.2 257.4 252.5 249 244.1 240.3 235.3 230.5 225.3 220.4 217.2 215 213 210 206.6 204 202.7 201.5 199 197.1 195.9 208.5 216.7 222.1 225.8 229.7 233.7 237.8 241 244.1 247.2 250.1 252.7 254.9 256.3
335.2 332.5 328.8 321.7 316.6 311.5 307.2 303.1 300.2 297.8 294.5 293 290.1 286.2 282.3 277.5 273.1 267.3 262 257.8 254 251.8 248.2 245.9 246.2 245.5 245.7 246 246.1 245.6 244.3 243 242.2 241.3 241.9 242.6 242.5 243.9 246.2 248.5 250.9 255.9 261.7 267.9 274.7 284.2 296.7 311.4 324.8 336.6 351.2 356.1 355.3 352.7 347.6 342.7 334.3 324.6 313.9 301.4 288 278.8 271.4 263.9 256.1 249.8 244.3 239.5 234.9 231.6 228.5 226.3 224.2 222.9 222.3 221.8 221.1 221.7 224.9 228.2 231.6 234.6 237.2 238.7 239.2 237.4 234 232.5 231.7 229.2 227.6 226.2 223.8 221.7 219.8 217.5 215.3 213.3 211.1 207.8 205.6 202.6 201.9 203.7 205 204.4 206.4 208.4 209.7 210.9 212.5 214.2 216.2 218.7 220.6 222.4 224.3 226.4 228.8 231 233.7 236.6 239.4 242.4 245.8 249.3 252.7 256.2 258.5 261.5 265.3 271.2 280.2 288 296.4 303.3 309.7 314.7 320.8 326.6 330.7 337.4 338.9 342.8 341.6 337.6 334 330.6 326 321.8 316.9 310.3 305.1 301.2 298.3 294.9 290.8 287.2 284.7 282.1 279.8 277.3 274.4 270.2 266.5 262.5 258.6 253.5 249.1 245.2 241.9 237 231.2 225.7 220.1 217.7 215.5 213.2 209.5 207.1 204.6 201.9 199.3 197.4 195.6 193.6 206.3 218.4 224 228.3 233 236.5 239.8 242.9 246.3 249.5 252.3 255.1 257.4 258.8
342.7 337.4 331.3 324.5 318.6 314.4 310.7 307.3 304.7 301.9 299.6 297.2 294 289.6 285 279.9 274.4 269 262.5 258.1 254.9 252.4 248.3 244.8 242.7 243 243.2 243.4 242.9 241.7 240.9 240.5 239.9 239.1 238.7 239.6 240.7 241.5 242.7 245.2 249.2 254 260.1 266.3 272.3 280 290 302.3 315.6 328.8 342.6 348.9 347.6 344.8 341.3 334.6 323.7 313.6 301.9 289.1 279.6 273 266.4 259.7 252.9 247.1 242.4 237.7 233.2 229.7 226.6 224.2 222.1 220.3 219.5 219.8 218.7 218.1 220.9 223.8 226.6 228.7 230.5 230.8 229.4 227.9 226.7 226.4 225.3 224.6 223.6 222.6 220.5 218.5 216.7 214.3 211.9 209.6 207.7 206 202.4 200.1 201.9 203.5 203.3 204 207 208.8 210.3 211.7 213.5 215.6 217.7 219.7 221.4 223.2 224.9 226.8 229.5 231.9 235.4 238.3 241.1 244.4 247.7 251.2 255.7 259.4 263.4 267.5 273.2 282 291.5 300.1 306.8 313.8 320.5 325.3 330.4 335.4 340.8 346.2 353 354.1 348.6 342.6 336 329.8 325.1 319.3 313.6 307.5 303 299.4 295.9 292.2 288.2 284.9 282.3 281.2 278.9 276.3 273.1 269.6 266.3 262.7 258.7 253.3 248.2 244.2 241.6 237.6 231 225.4 220.7 217.4 214.7 212.1 209.7 207.4 205.1 202.5 200.1 197.5 194.7 192.8 207.1 218.7 225.2 231.3 235.8 239.4 242.8 245.7 248.8 252.2 255.2 258 259.4 260.4
348.4 340.5 333.7 327.8 321.5 318.7 314.5 311.6 309.3 306.6 303.6 300.6 297.2 292.9 287.7 281 275.5 268.9 264.4 260.8 256.2 252.2 247.7 244 240.7 240.8 241.1 240.4 239.8 238.7 237.9 237.2 236.9 237 236.5 236.7 237 239.1 240.1 243.5 247.7 252.2 258.2 263.8 269.3 275.4 283.6 292.8 303.8 315.1 326.1 329.5 330.9 329.9 326.9 319.1 309 298.4 289.1 280.9 274.1 268 261.3 255.3 249.9 244.8 240.2 236.5 232 227.8 224.5 222.1 220 218.5 217.3 217.7 217 215.8 216.2 219.1 221.4 221.9 222.9 222 221.8 221.7 221.8 221.3 221.1 220.8 219.8 218.9 217.3 215.3 213.7 211.4 208.8 206.4 204.4 203.3 199.3 200.2 201.4 203.4 203.5 205.3 206.7 208.6 210.5 212.3 214.1 216.2 218.2 220 221.7 223.4 225.1 226.8 229.2 232.2 235.9 239.5 242.9 246.2 250.6 255 260.1 265.1 270 275.8 283.2 292.7 302.6 310.6 316 324.5 329.4 334.5 340.5 343.5 348.1 352.7 359 357.7 351.1 345.1 336.6 330.1 323.1 317.1 311.2 305.4 300.8 297 293.1 289.4 285.5 282 279.8 278 276.4 274.4 271.8 269.1 265.7 261.6 257.4 252.1 246.8 241.6 237.7 235 228.9 224.3 220.4 217.1 214.4 212 209.6 207.4 204.9 202.9 200.3 197.6 194.2 192.2 206.5 220.1 226.7 233 239.1 243 246.8 249.9 252.5 254.9 258.3 260.9 261.1 261.2
357.5 346.2 337.9 331.9 326.8 323.4 319.1 315.7 312.6 309.8 306.8 303.9 300.2 295 289.2 282.5 277.7 271.9 268.2 264.3 258.7 252.7 247.5 243 240.1 238.9 237.9 237.3 236.7 235.8 235.1 234.3 233.6 234 234.2 234.4 233.8 236.2 238.2 241.8 246.6 250.3 255.8 260.9 265.3 269.9 275.9 284 291.7 298.7 305.4 309.4 310.4 310.4 307.7 301.7 294.7 287.3 280.2 273.8 268.9 263 257.4 252.1 246.5 241.9 237.7 234.1 230.4 226.1 223 220 218.1 216.6 215.2 215.3 214.7 213.9 213.7 214.9 215.8 216.7 217.1 216.9 216.9 217 217 217 216.9 216.9 216 215.1 214 212.3 210.6 208.4 205.6 203.3 201 199.4 199.5 200.4 201.6 202.7 204.2 205.7 206.9 208.5 210.4 212.8 214.6 216.7 218.8 220.4 222 223.7 225.6 227.8 230.2 233 236.3 239.9 243.9 248.5 254.1 260.9 266.6 271.9 278.2 284.9 292.3 302.1 313.8 320.5 326.5 334.6 339.8 345 348.2 349.9 352.3 355.8 359.4 356.3 351.5 344.7 337 328.7 321.2 314.9 309.8 303.9 299.2 294.5 290.4 286.5 282.7 279.2 277.2 274.6 273.2 271.6 269.8 268.1 264.3 260 254.2 248.4 241.1 235.7 233.6 230.7 226.3 223.2 220.1 216.8 214.3 211.9 209.5 207.3 205.1 202.6 200 196.4 192.7 190.3 210.7 220.7 228.4 236.2 241.9 246.4 250.4 253.5 256.1 258.3 260.2 261.1 261.4 261.5
368.4 355.3 345.1 337.9 332.7 327.7 324.7 321.1 317.7 314.5 311.5 308 302.5 296.4 292.1 285.3 280.8 277.8 274.2 270.6 265.4 259.4 251.5 245.5 239.9 236.2 234.9 235.2 234 233.4 232.8 232.2 231.7 232 231.5 231.9 232.2 234.2 236.3 239.9 244.3 248.7 253.2 257.5 261.2 265.1 269.9 275.5 281.5 286.7 291.9 294.9 296.3 296 293.2 290.2 285.3 279.4 272.9 267.4 263.2 258.6 252.9 248.1 243 239 235.6 232.1 228.1 224.5 221.3 218.6 216.4 215 214 213.7 213.1 212.2 211.2 211.6 212.4 212.9 213.2 212.8 212.7 213.1 213.2 213.1 213.2 213.3 212.6 211.6 210.7 209.3 207.6 205.5 202.6 200.7 198.6 199.2 199.5 200.6 201.7 202.9 204.3 205.7 207.2 209.1 211.2 212.6 215.1 217.2 219.1 220.7 222.4 224.4 226.9 229.2 232.3 235.1 238.2 241.9 247.3 253.6 260.5 268.1 273.5 279.5 286.3 293.1 300.2 311.3 322.6 328.7 335.4 342.1 346.2 350.1 352.3 353.8 355.5 356.7 357 354.3 350.6 341 334.7 325.7 319.2 313.2 308 302.5 298 293.5 288.8 284.3 280.3 275.6 272.2 270.4 269.4 268.2 266.8 265.6 261 256.1 249.2 242.5 235 232.2 229.9 228.1 225.5 222.5 219.4 216.6 214.3 212.1 209.8 207.9 205.4 201.9 199.6 195.2 191 188.8 211 220.7 228.6 235.7 243 247.7 252.1 255.5 257.7 259.8 261.1 261.8 261.8 261.2
377.8 363.8 352.8 345.1 338.7 334.6 330.5 326.9 322.7 319 315.5 311.5 306.3 300.6 295.6 289.6 287.8 284.4 280.6 276.7 271.9 265.8 257.2 250.5 242 237.4 233.4 233.1 232.2 231.3 230.8 230.3 230.1 229.6 229 229.1 230.4 232.3 234.3 238.3 242.2 246.2 250.5 254.1 257.4 260.6 264.5 268.9 273.2 277.1 280.8 283.7 284.4 285 283.8 281.1 276.2 270.7 266.1 261.7 257.9 254 249.1 244.3 240.4 236.5 233.1 230 226.7 223.1 219.8 217.3 214.9 213.6 212.9 212.2 211.6 210.9 209.8 210.2 209.8 209.4 209.2 209.3 208.9 209.2 209.3 209.8 210.1 210.4 209.3 208.4 207.6 206.4 204.8 202.7 200 197.7 197.7 198.3 199.5 200.7 201.8 203.1 204.6 206.1 207.6 209.4 211.5 213.8 215.3 217.8 220.2 221.5 223.6 226.3 228.3 231.1 234.4 237.5 240.7 245.6 252.6 260.1 267.1 275.4 281.3 287.8 293.2 299.9 308.8 321.3 330.9 336 342.6 347.2 351 353.5 355.5 356.9 357 356.3 355 351.6 345.4 338.1 331.6 324.3 317.9 311.9 306.2 301 296.2 291.8 287.5 281.8 276.5 271.7 268.3 265.6 264.6 263.7 262.9 260.5 257 251.5 243.5 236.1 231.5 228.8 227.2 225.6 224.5 221.9 218.9 217.2 215.1 212.9 210.8 208.1 205.3 202.5 199 191.5 188.2 186.9 208.3 220 228.1 235.3 242.1 248 252.4 255.4 257.6 259.5 260.6 261 260.9 260.5
383.1 368.8 358.5 350.9 346.6 340.2 335.1 331.1 327.2 323.4 318.9 314.8 310.7 305.5 299.4 297.1 293.5 290.3 286.8 281.9 277.3 270.4 262.6 255.7 245.6 236.9 233.4 231 229.8 229.4 228.8 228.7 228.6 227.6 226.8 227.5 228.2 230 232.6 236.5 240.4 244.2 247.2 249.8 253 256.3 259.2 262.3 265.7 269.3 272.4 274.9 275.4 275.5 274 272 267.7 264 260.7 257.3 253.9 250.1 245.6 241.6 237.7 234 230.8 227.6 224.9 221.4 218.2 216.1 214 212.3 211.4 210.7 210 209.1 208.5 208.1 207.7 206.9 206.7 206.5 206.2 206.2 206.7 207.2 207.6 207.4 207.1 206.2 205.3 204.3 202.5 199.7 197.3 196.5 197.2 198.4 199.5 200.7 202 203.2 204.9 206.5 208 209.7 211.7 214.2 216.3 218.8 221.4 223.1 225.7 228 230.2 233.1 236.8 240.4 245.1 251.8 259.1 266.8 274.4 282 288.3 294.2 300 306.7 316.6 327.7 334.5 341.3 345.8 349.2 352.4 354.7 356.7 357.1 357 355.6 352.4 348.2 342.3 335.6 328.5 322.2 316.4 310.4 304.5 298.6 293.9 289.4 285.2 280.2 272.5 266.8 263 260.4 259.3 258.4 258.5 255.8 251.4 243 234.5 230.3 228 226 224.5 223 221.9 220.9 219.5 217.7 215.6 213.5 211.3 208.1 205.5 202.4 198.1 186.1 186.6 185.6 208 219.2 226.6 234.8 241.4 247.3 251.9 255.1 256.8 258.6 259.7 259.8 259.1 258.3
389 375.8 364.4 358.8 353.2 345.4 339.4 335.2 330.6 326.3 321.8 318 313.9 308.9 305.8 301.7 298.3 295.2 290.9 286.2 280.2 274.5 268.8 261 250.7 239 233.3 231.1 228.4 227.2 227.4 227.3 226.8 225.6 224.9 225.6 226.2 228.2 231.2 234.6 238.5 241.5 244.3 247 249.4 251.5 254.3 257 260 263.4 265.5 266.5 265.9 265.2 264.4 262.9 260.7 258.6 256.9 253.8 250.5 246.7 242.7 238.8 235.3 231.9 228.7 225.7 222.9 219.7 217.4 215.2 213.2 211.7 210.4 209.2 208.4 207.7 207.1 206.7 206.2 205.2 204.6 204.2 203.8 203.7 204.1 204.6 205.2 205.6 205.4 204.7 204 202.4 200.6 197.9 195.8 196.2 197.4 198.6 199.8 200.9 202.2 203.5 205.1 206.8 208.6 210.3 212.5 214.8 217.2 219.8 222.3 224.9 227 229.5 232.6 236.2 240.7 245.5 252 260.6 267.2 273.7 282.1 288.5 294.5 300.1 305.5 312.2 321 330.3 335.9 341.2 346.4 349.1 352.3 354.1 355.8 356 355.5 353.1 350 345.9 340.2 331.1 325.6 319.6 313.9 308.1 302.2 296.4 291.4 286.5 281.6 276 268.1 262.8 258.1 254.6 253.5 252.7 251.4 249.1 242.4 233 228.7 226.4 224.7 223.5 222 220.9 220.3 219.7 219.2 218.1 216.2 214.1 211.8 209 205.2 201.5 195.6 183.2 183.8 187.4 209.8 218.4 226.7 233.8 241 246.3 251.4 254.1 255.9 257.4 258.7 258.3 257.5 256.8
393 382.1 374 366.7 357.4 350.6 346.6 340.9 334.5 329.3 325.3 320.7 315.5 312.5 308.5 304.5 300.3 295.2 292.1 288.2 281.6 277.1 270.7 262.5 252.7 242.8 233.7 230.9 228.5 225.5 225.8 225.6 224.1 223.2 223.3 223.4 224 226.2 230 233.1 236 238.3 241.3 243.9 245.9 247.7 249.4 251.3 254.1 255.9 257.2 257.5 257.3 256.6 256.9 256.1 254.9 253.6 252.4 250.2 247.7 244.1 240.1 236.7 233.3 229.9 226.7 223.8 221 218.6 216.6 214.5 212.5 210.6 209.3 208.2 207 206.3 205.8 205.4 204.5 203.7 203 202.4 202 201.6 202.2 202.9 204.4 204.6 204.3 203.6 202.1 200.2 198.1 195.3 195.8 196.6 197.9 199.1 200.2 201.3 202.4 203.7 205.2 207 209.1 211.1 213.4 215.9 218.1 220.8 223.8 226.8 229.4 232.7 236.3 240.4 246 253.2 260.7 268.1 274.9 281.2 287.6 293.7 299.8 305.4 311.3 316.8 323.4 330.6 335.9 340.3 344.3 347.8 350.6 352.5 353.7 353.7 352.1 350.1 347.3 342 334.5 328.7 323.4 317.4 311.7 305.7 299.8 293.9 288.4 283.3 278.6 271.5 265.1 258.7 253.8 250.4 248.1 246.4 244.4 239.8 234.4 228.6 224.8 222.8 221.5 220.6 219.8 219 218.3 217.7 218.6 217.7 216.6 214.8 212.2 209.2 205.6 201.8 190.1 181.3 183.1 195.2 211 218.4 227.5 233.7 241 246.8 251 253.3 254.9 256.3 257.6 257.5 257 254.9
395 388.1 383.4 377.4 370.7 362.9 355.9 348.8 341.3 334.4 328.5 322.8 318.4 313.5 309.3 303.9 298.9 294.9 291.1 284.8 282 277.8 270.4 261.6 252.8 244.4 234.9 230.5 227.7 225.4 223.7 223.2 221.9 221.3 221.9 221.6 222 224.3 227.9 230.7 233.2 235.2 237.8 239.6 241.2 242.9 244.6 246.3 248 248.8 249 249.7 250 250.5 251 250.2 250.8 250.2 249 247.6 245.2 241.6 238.3 234.7 231.2 227.8 224.8 222 220 217.9 215.9 213.8 211.8 209.8 208.3 207.2 206 204.8 204.4 203.8 203 202.2 201.5 200.7 200.3 200 201.1 202.3 203.5 203.6 203 201.9 199.8 197.8 195.6 195.8 196.5 197.1 198.3 199.5 200.6 201.7 202.9 204.5 206.1 208.3 210.1 211.8 214.3 217.3 220.2 223.2 226.2 229.3 232.4 236.5 240.8 246.1 252.8 261 268.2 275.3 282.4 287.5 292.3 298.2 304.3 309.1 314.6 319.3 324.5 329.9 334.4 338.4 341.8 345 348 349.8 350.7 350.3 348.7 346.8 342.4 337.7 331.3 326 320.8 315.2 309.3 303.3 297.5 291.1 285 280 274.1 267.3 260.7 254.5 249.8 245.5 242.9 240 236.1 231.4 227.7 224.3 221.2 219.6 218.7 217.8 217.3 216.6 215.8 215.8 217 217 216.3 215 212.2 209.3 205.1 199.9 179.1 181.4 191 203.3 212.7 220.8 227.1 232 241 246.8 249.8 252.3 253.7 254.9 256.3 256.7 255.9 254.1
397.5 392.3 388.7 383.6 377 371 364 356.4 347.9 339.9 332 325.3 319.2 313.6 307.7 301.2 293.8 287.6 284.2 281.5 278.7 274.5 267.6 259 250.2 243.3 235.4 231 227.5 225.1 223.4 222.1 220.4 219.8 220.4 220.3 220.7 222.8 225.6 228.1 230.3 232.1 234.1 235.8 236.6 238 239.7 241.3 242.5 243.3 243.9 244.6 244.7 245 245.1 246.1 246.5 246.6 246.2 244.8 242.8 239.5 236.5 232.9 229.3 225.8 223.4 221.3 219.2 217.1 215.3 213.3 211.3 209.3 207.7 206.3 205 203.8 203.2 202.3 201.5 200.7 200 199.2 198.6 198.3 199.7 201.3 202 202 201.3 199.6 197.3 196 195.5 195.4 196.9 197.6 198.7 199.9 201.1 202.5 204 205.9 207.5 209.6 211.6 213.5 215.8 219 222.3 225.5 228.5 232.7 236.9 241.4 246.9 253.8 260.4 268.6 275.9 283.4 288.7 293.3 298.4 303.1 308 312.8 316.9 321.2 325.1 328.9 332.6 336.1 338.9 341.7 344.1 345.4 346.3 346.2 343.2 340.9 337.4 333.1 327.9 323.3 318.3 313 306.9 300.9 295.3 288.4 281.7 275.8 269.1 263.3 256.2 251.1 246.6 242.2 238.6 235.3 231.9 228.2 224.5 221.1 218.6 217.1 215.9 215 214.7 214.1 213.3 213.8 215.1 215.9 215.4 214.4 212.3 208.8 204.3 195.2 177.5 180.9 195 205.4 214.7 221.4 226.8 231.9 237.7 246 248.9 250.4 251.7 252.9 254.9 255.5 254.8 252.7
398.2 394.8 391.9 387.9 382.9 377.2 370.1 362.6 352.7 344.2 337.1 327.7 321 312.7 306.3 298.8 288.8 281.1 278.1 275.4 272.3 266.1 260.4 254.4 247 240.9 234.7 231.4 227.8 224.9 223.2 221.9 220.3 218.5 218.2 218.4 218.6 219.6 223.1 225.4 227.4 229.1 230.9 232 232.7 233.5 234.7 236 237.2 237.9 238.3 239.6 240.6 240.8 240.9 241.2 242.7 243.2 243.1 241.7 239.8 237.5 234.5 230.9 227.2 224.4 222.2 220.1 217.8 215.8 214.5 212.8 210.8 208.8 207.4 206 204.3 203.4 202.5 201.2 200.4 199.6 198.7 197.9 197.3 197 197.4 199.3 199.6 199.1 197 196.2 195.5 194.8 194.4 194.9 196.8 198.1 199.3 200.7 202 203.4 205.2 207.2 208.9 211 213.1 215.6 218.1 221.1 224.4 227.9 232 236.6 242.6 248 253.8 261.3 267.8 275.4 283.4 290.2 295.7 300.2 304.3 307.5 312.3 315.5 319.1 321.8 325 327.8 330.4 332.7 335.1 337.5 338.2 338.8 338.9 338.4 336.6 335.1 333.3 329.2 325.9 321.9 316.8 310.9 305.1 299.4 293 286.1 279.4 272.7 266.5 260.9 254 248.5 243.6 238.8 234.9 231.5 228.1 224.8 221.6 218.3 216.1 214.7 213.4 212.2 212 211.7 210.8 211.9 213.1 214.2 214.1 213.1 211.5 207.9 204 189.7 176.6 182.2 195.8 206.1 215.6 221 226 230.9 235.4 242.6 247.3 247.9 248.8 251 253.4 253.6 253.5 251.2
398.3 396.5 394.2 391.1 386.6 380.7 374.4 366.6 356.9 350 341.3 331.2 322.8 314.5 304.6 294.1 282.1 277.2 272.1 268.2 262.6 258.9 254.3 248.6 242.9 238 234.1 230.9 227.8 224.6 222 220.2 219.3 216.8 216.1 216.2 216.3 216.6 219.8 222.1 223.8 225.5 226.6 227.3 228.7 229.3 230.2 231.4 232.6 233.4 234.2 235 236.1 236.8 237 237.9 239.2 239.8 239.8 238.3 236.4 234.6 232.3 228.8 226 223.2 220.9 218.6 216.3 214.6 213.1 211.9 210.4 208.4 207 205.3 204 202.9 201.7 199.9 199.3 198.5 197.8 197.1 196.7 196.3 195.8 196.3 195.7 195.3 195.2 194.5 194 193.6 194.1 195.6 197.5 199 200.3 201.6 203 204.5 206.5 208.4 210.4 212.6 215 217.9 220.4 223.3 227 231.2 236.8 243.6 249.3 254.9 260.7 267.4 273.4 281.7 289.2 296.8 302.3 307 310.6 313.5 316.3 318.7 320 322.3 323.9 325.6 327.3 329.2 330.6 331.9 331.8 332.2 332.4 332.6 331.6 330.6 329.6 326.6 323.9 320.7 315.4 309.8 303.8 297.9 291.5 285.7 278.1 269.9 264.2 257.7 252.2 246.8 241.6 237 233.1 229.2 225.6 222.3 219.1 215.9 213.7 212.1 210.7 209.5 209 209.1 208.7 209.7 210.8 212.2 212.4 211.9 210.8 207.5 201.8 186.6 176.9 183 198.5 207.2 213.5 220.2 224.5 229 233.6 240 244 244.7 245.7 248.2 250.4 251.2 250.6 248.4
398.6 397.6 395.5 393.5 389.4 384.2 378.3 371.2 363.3 356.1 346 339 329.8 318.8 307.2 295.7 286.1 276.8 269.1 264.4 259 254.5 250 244.7 241.5 236.8 234.3 230.1 226.9 223.9 221.5 219.5 218.3 216.2 214.5 214.6 214.8 215.2 216.3 217.9 219.6 221.5 223.2 224 224.1 225.1 226.1 227 228 229 230.3 230.8 231.7 232.6 233.6 234.6 235.6 236.2 236.1 235.2 233.3 231.4 229.5 227.3 224.6 221.8 219.4 216.9 215 213.4 212.1 210.7 209.4 208 206.3 204.7 203.2 202 201 199.4 198.3 197.7 197 196.4 196 195.5 194.9 194.2 194 193.5 193.3 192.9 192.6 193.3 194.7 196.3 198.1 199.2 201.2 203 204.4 205.6 207.4 209.2 212.1 214.4 216.8 219.9 222.7 226.7 230.4 234.9 242.7 249.6 254.6 260.8 267.1 272.9 279.6 288.6 295.8 302.6 307.9 312.6 316.1 318.3 319.7 320.7 321.2 321.4 322.2 323.4 324.1 324.5 325.3 325.8 326.1 327 327.5 327.8 327.7 326.9 326.3 325.6 322.6 319.4 315.5 310.5 305.6 300.2 293.6 286.2 278.3 270.5 263 256.6 251.3 245.4 240.2 235.5 231.2 227.2 223.9 220.6 217.3 214.3 212 210 208.3 207.1 206.4 205.7 205.3 207.2 208.9 209.9 210.3 210.3 208.8 206 199.1 189.9 174.7 182.2 198.3 206.8 212 217.8 222.6 227 231.7 236 239.9 241.2 242 244.5 246.2 247.2 246.6 244.6
397.8 397.3 396.2 394.7 392.2 388.1 382.5 375.9 368.9 361.9 355 347.2 337.4 326.2 314 300.4 289.7 278.5 270.3 262.5 257 253.2 248.7 245.4 241.8 238.4 234.1 229.5 226.2 224 221 218.7 217.4 216 214.3 212.9 212.6 212.8 213.5 214.7 216.1 218 218.5 219.2 220.4 221.7 222.6 223.7 224.7 225.8 226.8 227.7 228.7 229.6 230 231 231.9 232.1 232 231.8 230.2 228.3 226.9 224.8 222.3 220.3 218 215.8 214.4 213 211.6 210.3 209 207.8 206.2 204.4 203.1 201.7 200.6 199.3 198 196.9 196.3 195.8 195.3 194.7 194.1 193.3 192.6 192.2 192 192.5 192.7 193.5 194.5 196.7 198.9 200.8 203 205 206 207.7 209.7 211.7 213.9 216.4 219.2 222.1 225.9 229.5 233.9 240.4 247.8 253.7 260.2 267.7 273.6 278.7 285.4 295 302 307.4 312.1 316.1 319.6 321.3 321.5 321.4 321.4 320.2 319.7 319.5 320 320.3 320.5 320.7 321.1 322.2 322.6 323.6 324.2 323.6 323.7 322.7 322.2 319.3 316.1 311.9 307.4 302.4 295.6 287.9 280.1 272 263.9 256.1 249.7 244 238.9 234.1 230.1 226.1 222.6 219.1 215.6 212.8 210.5 208.4 206.4 205 203.9 203.1 202.5 204.8 206.8 207.6 208.2 208.1 207 204 195.9 183.9 172.2 179.2 198 205.6 210.3 215.5 220.5 225.1 230.2 233 236.2 237.5 238.3 238.7 239.3 239.4 239.1 236.5
