ncols 200
nrows 83
xllcorner 230000
yllcorner 244750
cellsize 50
148.9 146.4 147.7 150.2 151.8 152.3 151.3 151.3 148.4 132.6 129.8 131.8 137.6 140.1 140 139.5 137.9 135.5 132.9 129.2 117 112.2 108 109.2 111.6 113.9 116.1 119.1 121.6 124 126.3 127.6 129.8 132.2 134.2 136.4 139.6 142.6 146.1 149.4 152.6 155.5 158.4 161.3 164.5 167.6 170.2 172.9 175.6 178.2 180.2 183.7 187 188.7 190.2 191.6 192.8 193 192 190.5 188.8 185.5 181.5 180.9 181 182.7 187.1 191.7 193.1 194.8 196.2 196.9 197.8 199 199.7 199.7 198.7 196.8 194.1 190.9 187.1 182.9 177.6 170.7 162.9 156.2 148.5 143.9 135.8 123.9 113.6 114.1 118.4 122.7 125.4 128.1 130.8 133.7 137.6 142.7 146.6 151.8 157 161.2 165.2 169.3 173.3 176.8 180.5 185.3 189.6 194.3 199.3 203.1 207.2 211.2 214.9 218.4 221.9 224.2 227.8 231.3 236 243.5 250.6 260.3 267.6 270.6 272.6 274.4 276.7 280.2 283.6 287 289.9 291.8 293.8 295.8 297.5 299 299.7 298.8 297.4 295.9 294.1 292.3 290 287.4 284.3 282 279.6 276.9 273.1 269.2 262.5 253.1 243.6 237.4 236.1 235.2 233.3 230.8 226.6 222.6 220.4 219.3 218.2 216.9 215.3 213.4 212 210.5 207.8 206.2 201.7 191.9 202.1 230 242.3 246 248.5 251.6 253.3 255.2 258.9 260.2 260.2 259.8 260.3 261.2 263.6 267.3 270.9 274.1 275.9 277.5 278.1 278.3 279 278.7
148 144.2 142.9 146 146.6 147.4 146.6 144.6 133.6 128.7 127.6 129 132 134.9 135.3 135.4 133.5 131 127.4 119.1 113.5 109.9 107.2 109.3 110.8 112.9 115 117.4 120 122.6 124 127.1 129.1 130.9 132.7 134.9 137.7 140.6 144.2 147.1 150.3 153.4 156.3 158.8 162.5 165.6 168.6 171.1 173.5 176 177.1 181 185.3 187 188.5 189.8 190.9 190.9 189.7 188.2 187 183.8 179 178.1 178.2 180.2 182.1 185.1 188.1 191 192.8 194.4 195.6 196.7 197.9 197.8 197 195.4 193.1 190.2 187.4 183.7 178.6 173.3 166.4 159.6 154.8 150.6 144 126.4 120.1 113.1 115.4 119.8 123.1 126.8 129.3 132.2 138.8 145.4 150.8 156 160.3 164.3 168 171.7 175.5 179.1 182.4 186.4 190.4 195.2 199.1 202.4 206.5 210.4 213.9 217.3 220.1 222.7 226.2 229.8 234.1 239.3 246 253.8 262.3 267.5 270.4 271.3 274.5 277.9 281.3 284.6 287.4 289.7 291.7 293.6 295.4 296.8 297.4 296.2 295 293.5 291.9 289.2 286.2 283.3 280.8 278.6 276.4 274.1 271.1 267.2 261.4 252.7 247.7 244.3 243.7 240.7 237.5 233.8 229.8 224.7 225.1 223.7 222.3 220.3 218.2 217.1 216.8 215.9 214.1 213.8 207.6 197.7 192 219.8 238.8 243.3 245.1 247.7 249.8 250.9 250.7 249.3 249.7 248.7 251.5 258.5 264.9 269.1 272.9 275.7 278 279.8 280.8 281.2 280.7 280.4
155 144.4 139.9 138 137.7 136.4 134 132.1 128.8 126.4 125.7 126.2 127.8 130.3 131.1 131 130.7 127.4 119 112.8 109.6 106.6 107.9 109.8 111.7 113.5 115.6 116.8 117.7 119.3 121.8 124.7 127.1 129.1 131.1 133.3 135.8 138.7 141.2 144.2 147.7 151.2 153.4 156.5 160.2 163.6 166.6 169.2 171.6 174 176 179.4 182.7 185.3 186.8 187.9 189 189.1 188.4 187.3 186.2 183.1 178.1 175.7 175.7 177.5 179.1 180.9 183.2 186.2 189.5 191.8 193.1 194.3 195.6 195.9 195.1 193.7 191.6 189.3 186.8 183.4 179.7 174 168.9 164.5 161.1 157.7 154.1 133.7 122.8 112.9 114 117.7 121.3 125.2 127.5 130.2 137 146.4 154 158.9 162.8 166.5 170.2 173.9 177.6 181.3 184.4 187.6 191.2 195 198.4 201.8 205.8 209.3 212.3 215.3 218.2 221.6 225.1 227.7 231.6 236 241.5 247.6 254.8 260.3 265 267.8 271.4 275 278.4 281.8 284.5 286.9 289.2 291.5 293.3 294.7 294.7 293.9 292.6 290.8 288.1 285.3 282.4 280 278.2 276.4 274.3 271.6 268.8 265.5 260.3 256.5 252.1 249.8 247.4 243.8 240.2 236.6 233.1 229.5 229.3 228.2 227 224 221.6 222.1 221.6 220.5 219.6 219.2 215.4 204.8 189.7 209.5 228.6 234.7 238.6 235.8 234.2 233.4 232 231.4 235.1 243.5 253.4 261.2 267.1 271.2 274.6 276.8 279.1 281.1 282.5 282.9 282.4 282.1
159.5 151.9 140.6 136.1 131.9 131.3 129.6 128.3 126.6 124.4 123 123.2 124.6 126.4 126.7 127 127.6 123.3 115.1 109.9 106 106.2 109.2 110.8 112.7 115.2 117.9 118.7 119.2 120.3 121.2 122.9 124.4 127.2 129.5 131.8 134.1 135.8 138.4 142.3 146.2 149.8 152.1 154.9 157.8 161.7 164.6 167.4 169.7 172.1 174.5 177.5 179.5 182.5 185.2 186.2 187.3 187.9 187.5 186.5 185.3 182.8 178.1 173.9 172.7 174 176 177.9 179.6 182.9 186.3 189 190.6 191.9 193.3 193.8 192.7 191.6 190.2 187.9 185.7 182.6 178.9 175 171.5 167.3 166 163.5 159.6 144.9 125.4 112.7 112.4 115.7 119.2 122.7 125.5 128.2 133.8 145.2 153.4 159.7 164.2 168.2 171.5 175.2 178.9 182.6 185.5 188.6 191 194.3 197.7 201.1 204.1 207.4 210.4 213 216 220.7 223.9 226.2 229.4 233.6 238.1 243.2 249.7 254.4 259.3 264.1 267.9 272 275.4 279.2 282.7 285.1 287.3 289.6 291 291.9 291.8 291.1 289.7 287 284.2 281.5 279.2 277.3 275.3 273.3 271.3 269.3 266.5 263.5 260.4 257.8 254.9 252.1 249.5 245.5 242.3 239.2 236 234 233.4 231.9 230.4 228.4 226.7 226.8 226.2 225.2 225 224.1 221.5 208.3 189.1 202.7 217.3 218.8 213.2 210.3 212.2 217.1 223.4 237.2 245.3 252.4 258.4 264.2 268.9 272.6 275.6 277.8 280.1 282 283.2 284.2 284 283.6
159.5 153.4 144.3 136.9 133 129.3 126.7 125.1 123.6 120.7 120.1 120.5 121.9 123.3 124.5 125.4 124.1 118.6 112.2 106.9 105.3 107.6 110 112.7 114.3 117.1 119.7 120 120.6 121.7 122.5 123.5 125.8 126.8 128.3 130.5 132.3 134.2 136.9 140.4 144.3 147.8 151.5 153.1 155.9 159.9 162.6 165.5 167.8 170.2 172.8 175.2 178 180.8 183.5 184.9 186 186.9 186.2 185.9 184.6 182.6 178.5 173.5 170.6 170.7 173.5 174.7 177 179.3 183 185.9 188 189.5 190.8 191.3 190.8 189.6 188.4 186.8 184.6 181.6 178.2 175 171.9 169.6 167.8 166.1 163 154.7 133.9 118.1 111.7 115.4 118.2 121 124 127 131.5 140.5 150.3 157.7 165.2 168.3 171.7 175.5 179.2 182.8 185.6 188.1 190.2 193.4 196.8 200.2 203 205.8 208.2 210.8 213.9 218.5 222.2 224.2 226.7 230.1 233.9 239.2 243.6 248 253.1 258.4 263.7 269 272.9 276.7 280.2 283.6 286 287.3 288.5 288.6 288.2 287.1 285.8 284 281.2 277.9 275.9 273.8 271.7 269.8 267.9 266.1 264.2 261.2 259 257.2 255.1 252.2 249.8 247.5 243.4 240.5 238.3 237.6 236.6 235.3 233.8 232.2 231.3 231.3 231.1 230.7 229.6 228.6 224.7 204 189 195.4 194.6 199.5 209 216.2 222.4 228.3 235.7 241.5 248.4 256.1 262.1 267 270.6 274 276.6 278.8 281.1 283 283.9 285.1 285 284.7
157.4 151.7 145.7 138.9 134.5 130.7 126.4 124.8 121.8 118.9 116.6 117.9 119.2 120.9 122.1 123.6 121.2 113.2 108.9 104.4 106.8 109.2 111.2 112.9 115.2 118.5 121.6 122.6 122.7 123.1 123.9 125 126.3 127.6 128.6 129.7 131.6 133.1 135.9 138.7 142.3 145.8 147.9 153 155.1 158 160.8 163.5 166.2 169 170.8 173.7 176.5 179.1 181.9 183.5 184.7 185.7 185.5 185.2 183.9 183.4 178.7 174.5 170.7 169 170.1 172.1 174.6 177.6 181.1 184 186 187.6 188.4 189 188.9 187.9 187 185.5 183.3 180.2 176.8 174.1 171.4 169.1 167.7 165.9 163.8 158.3 143.4 123.7 111.1 114.7 117 120.2 123.2 125.8 128.8 133.3 142.8 150 158.4 163.3 168.4 172.9 178 182.3 185.2 187.2 189.4 192.5 195.2 197.5 200.1 202.7 205.2 208.2 211.4 215.4 219.7 222.5 224.6 227.3 230.6 235.3 238.6 243.1 247.7 252.6 259.5 266.2 270.5 274.2 278 281.5 283.6 284.6 285.5 285.1 284.6 283.6 281.7 280.2 277.4 274.6 272.3 270.2 268.2 266.3 264.5 262.6 260.9 259.1 256.9 255.3 253.8 252.2 250.2 248.4 245.3 242.3 241.5 240.7 239.8 238.5 237.3 236.1 235.2 235.2 235.3 235 234 231.8 221.9 199.2 188.6 190.8 196.4 204.1 212.5 220.2 227 233.6 239.6 244.8 252.6 258.9 263.5 268.1 272 275 277.5 279.8 282.1 283.6 284.8 285.9 285.9 285.7
154.6 150.1 144.8 138.7 134.5 130.5 127.5 123.8 121.5 118.7 115.4 115.2 116.4 118.5 119.9 121.8 118 111.1 105.5 104.5 108 109.9 111.3 112.6 115.7 119.3 122.2 123.3 123.6 124.1 124.9 125.8 126.8 128.1 129.4 130.8 132.9 134.2 135.7 138.5 141.2 145.3 147.5 150.7 154.1 157.6 160.4 163.1 165.5 167.6 169.3 172.2 175 177.6 180.3 181.8 183.4 184.1 184.7 184.9 184.7 183.9 180.7 173.5 170.9 168.8 166.5 168.5 171.6 175.4 179.1 182.3 184.2 185.5 186.2 186.7 186.6 186 185 183.2 180.9 178 174.9 171.6 168.9 165.3 164.3 163.3 161.4 149.1 133.2 119.7 110.5 113.8 116.1 118.4 121.5 124.5 127.4 130.1 134.2 139.2 143.5 150.2 157.8 166.2 173.7 179 182.9 184.9 187.9 190.1 192.6 194.4 197 199.5 202.3 205.8 209.5 213.2 216.5 219.9 222.2 224.4 227.4 230.5 234.3 237.2 239.8 250.2 256.7 263.3 267.8 272.3 276.4 279.3 281.2 282.4 282.3 282.3 281.4 280.3 277.7 275.4 273.1 271.1 268.6 266.7 264.8 262.9 261 259.1 257.2 255.5 254.5 252.9 251.7 251 249.9 248.2 246.6 245.3 244.4 243.4 242.1 241 240.4 240 239 239.1 239.2 238.5 236.4 232 214.1 193 188.8 196.7 196.2 200.3 210.9 220.5 228.4 236.3 242.8 249.6 255.3 260.3 264.8 269.3 272.5 275.5 278.4 280.8 282.8 284.3 285.6 286.8 286.9 286.8
151.6 147.1 143.4 137.1 133.4 130.5 127.4 124.3 120.3 116.9 115.6 111.1 112.7 115.6 117.2 119.1 115.4 109.7 106 104.6 106.3 108.9 111.6 113.7 116.4 119.5 122.1 123.8 124.5 125 125.7 126.5 127.2 128.8 130.4 131.8 134.2 137.1 140.1 143 145.7 147.2 148.8 151.2 154.8 157.9 160.4 162.6 165.1 167.2 168.9 170.8 173.4 176.1 178.6 180.1 181.4 182.3 183.5 184 184.1 183.4 181.8 179.8 174.2 172.4 164.4 163.5 167 172.7 176.6 180.5 181.4 183.2 183.9 184.4 184.4 183.5 182.5 180.3 177.9 175 172.1 169.2 166.2 161 157.8 156.8 148.5 132.9 124.1 114.2 110.1 112.9 115.8 118.5 121.1 123.5 125.9 128.4 132.1 135.7 139.8 141.8 145.1 153.7 163.2 170.8 176.2 180.7 183.3 186.8 188.9 191.2 194.5 197.6 201.3 204.5 207.8 211.1 213.7 216.9 219.4 221.1 223.7 226.9 227.2 234 241.6 248.3 254.6 260.9 265.8 270.3 274.2 277 278.7 279.8 279.5 279.3 278 276.4 274.3 271.7 269.8 267.4 265.5 264 261.9 259.9 257.8 255.1 252.9 252 251 250.3 249.4 248.8 247.6 247.4 247.2 246.9 245.8 244.7 243.7 242.8 242.2 242 242.4 242.9 242.8 240.3 236.7 231.4 206.9 188.6 190 200.9 201.4 201.5 207.6 219.4 229 236.5 243.4 250.3 256.1 261 265.4 269.4 272.8 276 278.8 280.9 282.8 284.6 286 287.3 287.9 287.5
147.6 141.4 138.7 135.4 132.4 129.6 127.9 125.4 123.1 120.2 117.6 114.8 112.3 110.6 111 112.9 114.4 108.3 106.1 103.5 106.2 108.6 111 113.4 115.8 118.6 121.5 123.6 124.9 125.9 126.5 126.8 126.9 128.6 132.2 134.3 137.1 140.2 142.3 145 147.4 149.6 150.5 152.2 155.5 157.9 160 161.9 164.5 166.6 168.5 169.6 172.2 174.9 176.4 177.8 179.2 180.5 181.8 182.6 182.9 182.6 181.4 180.4 178 173 165.7 160.4 162.3 168.3 173.7 177.2 179.4 180.8 181.7 182 180.7 179.4 178.7 177.1 174.8 172 169 166.5 163.4 157.1 147.8 145.7 132.3 124.7 119 110.7 109.5 112.6 116.5 118.6 120.8 122.8 125.1 127.9 131.4 134.6 136.6 139.6 144.1 145.8 152 158 164.9 170.9 177 182.4 184.6 189.4 192.8 196.6 200.1 202.4 206.1 208.7 211.3 213.9 216.3 218 219.7 219.3 226.6 233 239.7 246.2 252.4 258.6 263.8 268.7 272.1 274.7 276.5 276.8 276.5 275.7 273.9 272.3 270.6 268.6 266.4 264.3 263.1 261.5 260.1 258.3 256.1 253.4 249 244.6 246.7 247.1 246.9 246.5 247.2 247.1 246.9 246.7 246.5 246.1 245.3 244.5 244.3 244.5 244.9 245.7 244.6 241.5 237.4 225.1 201 186 191 203.2 207.1 207.7 206.8 216.8 229.1 236 241.8 249.4 255.8 260.5 265 268.9 272.6 275.5 277.8 280 282.3 284.5 286 286.7 287.8 287.9
145.5 141.9 139.6 136.7 134.1 131.3 129 126.4 124.6 121.6 118.7 115.9 112.4 111.1 109.5 108.1 108.3 106 105.4 103.6 104.4 107.5 110.4 112.9 115.3 117.9 120.9 122.5 124 124.6 123.9 124.5 126.5 129.6 133.4 136.1 139 141 143.1 145.8 148.5 149.9 150.8 152.9 155.5 157.6 159.7 161.5 163.1 166 167.8 169 171.3 172.6 173.8 175.1 176.5 178.1 179.8 181 181.4 182 182.1 181.3 179.2 176.1 168.2 160.1 156.7 161.4 169 173.7 177 178.5 179 177.9 176.7 175.1 173.8 172.3 171.4 170 167.5 165 162.4 156.9 139.9 129.6 124.8 120.5 111.7 108.3 111.4 113.3 116.4 118.5 120.4 123.1 125.6 128.5 131.4 134.5 138 142 145.2 147.8 150.2 152.6 156.1 160.6 169.5 176 181.4 187.8 192.1 196.1 198.9 201.2 203.2 206.1 208.6 211 212.6 213.7 211.6 219.2 225.5 231.7 237.1 243.5 250.5 256.3 261.3 266.9 270 272.5 273.8 273.8 272.9 271.9 269.8 268.1 266.5 264.9 263.1 261.4 260.6 259.3 257.5 256.2 253.8 250.8 247.1 242.1 240.5 243.8 243.9 244.2 244.8 245.6 246.4 246.4 246.2 246.5 246 245.9 246.3 247 247.3 247.3 245.2 242.1 237.4 215.2 192.5 183.9 194.1 207.7 213.4 215.7 217 211.7 224 233.7 240.1 247.3 253.8 258.5 263 267.1 271 273.8 276.2 278.6 280.9 283.2 285.3 286 287.4 287.9
150.2 147.3 142.5 138.8 135.6 133.6 131.8 130.3 128.2 124.1 120.4 116.7 114.1 111.3 109.7 108.3 106.8 106.2 104.7 103.1 102.7 105.6 108.6 111.5 113.8 116.3 119.1 121.1 122.2 123.2 122.7 124.2 127.6 131 134 136.5 139.1 140.8 142.7 145.1 147.6 149.2 150.5 151.9 154.5 157.2 159.9 161.7 162.9 164.5 167.1 168.1 168.8 169.8 171.1 172.4 173.8 175.5 178.1 179.5 180.3 181.5 181.8 182 179.9 177.7 174 160.4 156.4 153.7 162.1 168.1 171.4 172.6 172.4 171.7 171 170.2 169.1 168.2 168.1 167.5 165.8 163.3 160.2 157.5 145.9 126.2 121.4 117 108.6 110.5 115 117 118.4 120 122.1 124.2 126.5 129.4 132.3 136.7 141.4 146.1 151.1 155.2 158.6 161.4 163 167.1 170.5 173.6 180.3 186.6 191.2 194.2 197.4 199.9 201.2 203.8 206.4 208.1 209.6 207.1 210.5 218 223.4 228.5 235.6 240.7 247.4 254.6 259.7 264.9 267.7 270 271.1 270.2 269.1 268.1 265.8 264 262.4 260.9 259.9 258.4 258.1 257.2 255.2 253.5 251.1 248.2 245.2 241.4 236.2 239.9 240.5 241.7 242.5 243.2 244 244.8 245.6 246 246 246.7 247.7 248.2 248.5 247.5 244.5 240.9 233 207.8 187 183.8 198.6 213.6 219.1 222.6 225.5 224.8 220.5 228.3 237.7 245.2 251.6 255.8 260.2 264.5 268.2 271.8 274.5 277.2 279.5 282 284.3 285.6 287.1 288
154.6 152.9 147.5 144.5 143.1 139.7 136.7 134.7 132.1 128 122.7 119 115.3 112.5 110.1 108.5 107.2 106.3 104.4 104.9 102.5 103.9 106.8 109.8 111.6 113.9 116.5 119.2 119.5 120.4 122.1 124.9 127.9 131 133.5 135.8 137.9 139.7 141.4 144 145.9 147.9 149.5 150.8 154 157 159.5 161.5 163 164.4 165.5 166.6 167.4 167.2 168.4 169.7 171.1 172.6 173.9 177.2 179.2 180.8 181.4 181.2 179.3 178.2 176.4 167.4 157 151.3 152.7 159.2 162.2 163.3 163.8 164.4 164 163.8 164.4 164.5 164.7 164.2 163.2 161.4 158.5 156.1 150.9 132.5 121.4 114.1 107 111.4 114.8 117.2 118.7 120.9 122.6 124.4 126.6 129.1 132.4 138.1 143.5 148.1 153.1 159 163.3 168.1 170.8 175.1 178.3 181 182.9 187 190 192.5 195.4 197.7 199.3 201.3 204 205.8 205 199.2 208.5 216.7 221.5 227.3 234.2 239.8 245.4 251.8 258.2 262.5 265.6 267.2 267.6 266.5 265.3 264.2 261.8 259.8 257.1 255.7 254.5 255.5 255.5 255 253.1 250.6 248.6 246.1 243 239.6 234.4 231.8 236.2 238.3 239.9 240.8 241.6 242.7 243.8 244.8 246.2 247.1 248.1 248.7 248.4 246.1 242.7 238.4 224.3 203 184 184.2 203.3 220 223.2 227.6 229.8 231.3 229.7 227.9 234.9 242.6 248.4 253.3 257.4 261.9 265.5 269.1 272.5 275.8 278.7 281.5 284 285.8 287.4 288.3
158.9 155.8 152.4 148.4 144.3 142.1 139.4 136.5 133.7 129.5 126.4 122.3 116.8 113.4 110.3 108.8 107.6 106.4 105.5 104.8 101.8 103 107.2 109.2 110.8 113.1 115.3 117.8 118.5 120.1 121.8 125 127.9 130.2 132.4 134.5 136.7 138.4 140.6 142.6 144.7 147.1 149 150.6 154.3 156.2 158.7 160.7 162.7 163.2 163.8 165 165.4 164.6 165.7 166.7 167.5 168.3 170.9 173.4 176.5 178.4 180 179.5 178.3 177.5 176.4 172.7 158.9 152.1 147.3 148.7 151.9 154.5 154.8 154.9 156.1 158.1 158.7 160.1 161 160.8 159.9 158.7 156.7 154.2 150.5 141.3 122.4 106.7 106.6 112.5 115.4 117.3 119.5 121.4 123.1 124.6 126.6 128.9 132.3 138.1 144.2 149.6 155 161.4 165.6 170.9 175.4 179.6 182.6 185.2 186.9 189.2 190.8 193.1 194.4 196 197.9 200.2 201.9 202.6 191.8 198.4 208.4 215.8 220.7 226.6 233.5 239.1 243.9 249.6 256.5 260 262.9 263.6 263.3 262.8 261.5 259.5 255.7 252.3 249 248.2 250.4 252.2 253 252.6 251 249.4 246.8 243.7 240.8 237.3 233.4 228 230.8 233.9 235.9 237.9 240 241.2 242.8 244.5 246.2 247.2 248 248 246.6 242.6 238.7 231.9 215.8 196.7 183.3 187 206.7 221.6 226.4 230.8 233.3 234.6 235.2 236.4 237.5 242.6 247.4 252.6 256.3 261 265.3 268.7 272.3 275.9 279.2 281.6 284.2 286.6 288.4 289.3
161 157.6 154.2 149.3 144.5 141.6 138.5 135.7 132.9 130.1 126.8 123.1 117.7 114.2 110.8 109.1 108.1 107 106.6 106.1 103 101.5 105.8 107.8 110.2 112.8 114.8 116.8 118.6 120.4 122.2 124.2 126.5 128.5 130.7 133.5 136.3 138.6 140.6 142.5 144.3 147.2 148.5 150.4 153.3 155.5 157.5 159.6 161.4 162.2 162.5 162.6 162.8 160.2 161.9 162.6 162.9 163.5 167.4 170.9 172.8 174.7 176.7 176.5 175.8 176 175.4 172.9 161.9 154.2 148.6 144.5 146.3 148.9 148.2 147.8 149.7 151.2 154.2 155.7 156.5 157.3 156.7 155.6 154.1 152.1 148.1 139.3 117 106.7 108.2 113.3 116.1 117.3 119.3 121.4 123 124.6 126.2 128.2 131.4 137.4 143.8 150.2 156.5 162.5 167.4 173.2 177.9 182.6 185.8 187.7 189.1 189.9 191.1 192.3 193.6 195.2 195.9 197.6 199.3 198.4 187.3 199.3 208.8 214.6 219.7 225.8 232.6 238 242.7 246.8 252.4 256 258.4 259.2 259.5 258.5 256.9 253.6 250.4 247.1 242.4 241.7 246 249.2 250.3 249.5 248.1 246.8 244.7 241.3 238.5 235.3 231.1 225.6 226 229.9 233 235.1 238.4 240.4 242 244.4 246.1 247.5 247.4 246.1 243 237.9 232.9 222.1 202.8 198.6 183.7 186.5 205 223.4 228.4 233 235.8 238.2 239.2 240.2 242.9 246 249.9 253.6 257.5 262.2 266.3 269.9 273.7 277.3 280.1 282.1 284.7 286.7 287.9 288.3
162.8 159.5 155.1 148.6 142.7 139.9 136.2 133.5 130.8 128.1 125.1 121.4 117.3 114.5 111.5 109.2 108.2 107.5 107.3 106.5 103.4 101.1 101.7 107.7 109.9 112.4 114.4 116.9 119 121.3 123.1 125 126.9 129 131.5 134.3 136.6 138.5 140.3 142 143.8 145.5 147.3 149.1 151.3 153.7 155.7 158.1 160 160.9 160.5 159.9 159.8 156.6 152.9 154.2 155.5 157.5 162.4 167.1 169.2 171.2 173.2 173 171.7 171.5 171.2 167.9 163.7 157.2 150.9 142.7 140.6 141.7 141.9 141.5 143.4 145 149 151.2 152.1 152.9 153.3 152.5 151.5 149.8 145.4 136.1 113.7 107 109 113.7 116.3 117.6 119 120.7 122.5 124.3 126.1 128 131.1 136.4 144.1 151.5 157.1 162.3 169.4 174.4 178.8 183.6 187.8 188.7 189.5 189.9 190.6 191.6 192.8 193.9 194.6 195.4 196 186.7 187 199.6 206 212.3 218 224.4 230.9 236 240.9 245.1 248.9 251.8 254.4 255.4 255.7 254.1 252 248.5 245.5 242.7 236.5 238.5 242.7 245.7 247.2 247 245.7 244.3 242.2 239.5 236.6 233 228.5 223.7 223.4 226.3 229.5 232.7 236 239.3 241.2 243.7 246 247 246 243.7 241 234 228.6 213.7 211.5 206.7 185.4 180.2 199.8 222.7 230.3 235.1 238 239.9 241.3 242.9 244.8 247.7 251.3 255.1 258.8 263.2 267.4 271.3 275.2 278.7 281.1 283 284.7 285.9 286.8 286.8
163.4 159.4 155.5 149.8 142.4 136.8 133.1 130.2 127.6 124.6 122.2 119.2 116.7 113.7 110.8 108.9 108 107.8 107.7 107.3 106.5 102.2 100 106.8 109.5 112.1 115 117.5 119.3 121.6 124 125.8 127.8 130.1 132.3 134 135.8 137.7 139.4 140.3 141.1 142.8 143.9 147.1 149.5 151.7 153.4 155.9 158.1 159.2 158.4 157.1 156.3 154.8 144.9 146.2 148.8 153.9 157.8 160.8 163.4 166.6 169.7 168.7 167.6 166.8 165.8 163.4 161 158.2 152.5 145.7 140.5 136.6 137.5 139.6 139.6 139.3 143 146.8 147.6 148.5 149.3 148.7 147.7 145.1 140.8 130.9 108.7 105.2 108.8 113.1 115.7 117.4 118.7 120.6 122.4 124.2 126 127.8 130.5 135 142.6 150.3 156 161.8 169.1 175 179.5 182.5 185.4 187.8 187.9 188.7 189 190.3 192.1 192.9 193.5 194.1 192.3 175.9 187.4 196.6 202.5 208.7 215.9 222.7 228.7 233.7 238.2 241.8 245.4 248.4 250.5 251.6 250.7 248.8 246.4 243.2 237.1 231.9 229.9 236.3 239.8 242.6 244 243.8 243.3 241.7 239.6 237.3 234.8 231.7 228 222.3 220.5 225.9 228.5 231.5 234.6 237.6 240.4 243 244.8 245.8 243.6 241.3 238.3 232.4 225.9 223.5 223.8 212.9 191.6 179.4 194.6 218.3 232.4 235.6 237.4 239 241.2 243 245.4 248.9 253 256.7 260.5 264.1 268.7 272.7 276.6 279.8 282.1 283.9 284.3 284.7 285.3 285.6
163.3 160 155.6 150.3 141.8 135.3 130.2 126.6 125 122.5 119.5 117.8 115.9 112.6 109.8 108 107.2 107.5 107.6 106.9 107.1 104.3 98.6 106.4 109 111.6 115.3 117.8 119.5 121.9 124.2 126.6 128.5 130.3 132.1 133.5 135.3 136.3 136.2 136.6 138.1 139 142.5 144.3 146.9 149.2 151.2 152.8 154.2 155.1 155.2 153.7 152.6 151.1 144.7 139.5 141.3 147.2 151.7 153.9 157.3 161.2 164.7 162.7 161.9 162.1 161.4 159.8 158.1 156.3 153 148.2 142.8 136.1 131.7 133.1 133.7 134.4 137.7 141.2 141.9 141.8 142.5 142.8 141.8 139.5 135.9 127.6 109.2 104.1 108 112 114.2 117 118.5 120.4 122.2 124 125.9 127.7 129.7 134 138.3 144.6 152.6 158.9 166.1 171.8 175.6 178.8 182.2 184.5 184.7 184.4 187.3 189.6 192.4 192.9 193.2 192.4 182.7 172.2 183.8 192.2 197.4 204.7 212.3 219.9 227.6 231.6 233.8 237.1 241.6 244.9 247.3 247.7 245.9 243.3 241 232.6 226.7 224.9 229.4 235.3 238.1 240.1 240.9 240.6 240.3 238.9 236.6 234.4 232.5 229.9 226.5 218.8 219.8 226 228.2 231 233.9 236.8 239.6 241.3 242.4 242 242 240.1 238.2 234.7 234.5 234.4 230.1 220.1 198.3 178.8 189 211.4 226.9 232.8 234 235.5 237.6 239.6 244.5 250.2 254.6 259 262.7 266.3 269.5 273.8 277.8 280.7 282.2 283.1 282.9 283.2 283.5 283.8
162.8 159.2 154.9 149.2 140.5 133.4 129.1 125.7 123.3 120.3 118.4 117 114.7 111.7 108.9 107.3 106.7 107.2 107.5 106.2 105.4 105.1 100.9 102.8 108.4 111 114.4 117.1 119.5 121.8 123.9 126 128.4 130.4 131.6 132.8 133.4 133.6 133.9 133.7 133.3 135.3 138.9 140.9 142.6 144.3 146.3 148.4 149.9 150.7 150.6 149.5 149.4 148.5 146.6 134.8 133.1 137 141.8 145.5 149.5 153.3 155.2 156.5 157.3 157.3 157.5 157.3 156.2 154.4 153.4 149.8 144.3 138.8 133.5 128.6 128.4 129.3 129.9 132.3 134.5 135.8 136.5 137.4 138.2 136.4 133.5 126.2 111 103.7 107.2 110.7 113.9 116.7 118.3 120.2 122.1 123.9 125.7 128 130 133.4 137.1 142.4 148.8 155.2 161.7 166.7 170.4 173.8 176.6 179.3 178 183.2 187.1 189.6 192.6 193.2 194.2 193.7 177 167.5 177.2 185.6 191.4 198.1 206.6 214.1 221.7 226.5 229 233 237.9 242.1 244.5 245 243.1 238.7 230.1 223.6 220.5 225.5 230.1 233.7 235.7 237.5 237.8 237.5 236.8 235.4 233.5 231.4 229.5 227.2 223.6 213.4 222 225.8 227.9 230.4 233.1 235.3 236.5 238.4 239.3 239.6 240.7 240.9 241.1 241 240.4 238.7 234.9 230.1 212.7 190 178.1 195.1 214.1 224 226 225.5 229.5 240.5 246.8 252.5 256.5 260.6 264.9 268.5 271.7 275 277.7 279.7 280.9 281 280.9 280.9 281.2 281.5
161.5 158 153 146.6 139 133.7 129.1 126.3 123.2 120.6 118.6 116.1 113.4 111.9 109.8 107.4 106.2 106.2 106.9 105.2 105.4 105.6 103.4 96.1 105.1 109.3 112.3 115.3 117.7 120.2 122.6 125.1 127.2 128.1 129.3 130.4 130.9 131.3 131.7 130.5 129.6 131.3 133.8 135.9 137.7 139.1 140.9 143 145.1 146.2 146.3 146.1 147.7 146.7 144.8 136.6 129.7 128.4 129.4 134.3 139.6 143.5 147 149.2 151.6 153.3 153.5 154.5 154.4 154 152.7 149.7 146.6 142.1 136.4 131.1 126.5 123.5 124.7 126.7 129 131.6 133.2 134.8 135.6 134.8 132 123.5 109.1 104.2 106.4 109.8 113.8 116.3 118.1 120 121.9 123.8 125.6 128.2 130.6 133.3 135.8 139.5 144 149.8 156.4 160.4 163.5 166.3 170.1 175.1 179.2 182.6 186.6 189.9 193.6 196 196.6 195 176.5 165.7 171.1 179.7 185.7 192 199.1 205.1 211.8 217.6 223.6 228.3 235.6 242.2 242.5 242.2 238.7 232.8 223.6 217.9 220.5 224.8 229 231.5 233.4 234.6 234.7 233.9 233.2 231.8 230.2 228.8 226.8 224.9 222.1 214.1 222.1 225.2 227.2 229.6 231.3 232.1 233.4 234.9 237.9 240.2 241.7 243.2 244.1 243.8 243 241.4 238.4 234.6 226.8 206.6 183 179.3 201.1 208.4 207.9 217.2 233.1 243.7 249.5 254.7 258.8 262.9 266.9 270.6 273.4 275.9 277.1 278.4 278.6 278.7 278.7 278.5 278.5 280.1
159.8 156.7 151.5 143.8 140.8 136.9 132.7 127.9 124.4 120.3 118.7 116.1 113.4 111.6 109.6 107.6 105.7 105.4 106.2 104.9 104.4 105.1 103.1 94.4 97 105.5 109.8 112.5 114.7 116.7 119.1 121.5 123.7 124.6 125.3 126.3 127.4 128.3 128.9 129 124 126.1 128.1 129.6 131.7 134 135.6 137.6 139.7 141.9 143.2 144.3 145.1 144.3 142.6 139.5 131.3 125.1 124.4 124.9 128.6 133.6 137.9 141 146.4 148.3 150.4 151.6 152.5 152.7 151.8 149.9 147.2 145.3 140.8 135.3 130.4 122.6 120.8 122.2 124.7 128.4 130.4 132.1 133.4 134.5 130.8 120.3 105.1 103.4 106 110 113.3 115.7 117.7 119.7 121.7 123.6 126.1 129.7 134.9 138.4 140.8 142.3 144.3 146.9 151.2 157.3 162.1 166.7 170.3 174.6 178.4 181.5 184.6 189.1 193.8 197.9 197.6 194.1 179.9 160.4 165.3 173.8 180.5 186.7 192.3 198 202.4 207.9 215.7 224.2 233 238.5 240 238.4 234.3 226.9 220.1 214.8 219.9 223.5 227.2 229.5 231.2 231.6 231.2 230.4 229.6 228.5 227.4 226.3 224.4 223.4 220.5 209.5 220.2 223.9 226.3 226.9 227.5 228.6 230.3 232.7 237.1 242.1 244 246 246.3 245.9 245.1 244 241.3 237.6 231 217 196.3 174.7 182.3 192.6 210.2 226.7 240 246.4 251.8 256.7 261.1 265.1 268.9 272.4 274.9 275.7 276.7 277.2 277.5 277.1 276.2 276 276.5 279.4
159.5 155.4 151.6 147.8 145.6 142.3 138.6 134.9 129.7 123.3 118.8 115.8 113.4 111.3 109.3 107.3 105.4 104.1 105.1 104.8 104.2 103.6 101.8 96.9 88 96.9 104.4 108.7 111.4 113.3 114.8 116.4 117.5 118.4 119.8 121.5 122.3 123.3 123.8 124.5 122.9 120.6 123.2 124.2 126.1 128.2 130.3 133.3 136.3 138.4 140.5 142.6 143.6 143.1 141.4 139.3 133.9 126.1 121.2 120.5 121.6 125.9 130.1 134.9 140.2 143.6 146.6 148.7 150.3 150.5 150.2 149.9 147.9 145.9 144 140.3 133.1 126 116.5 117.9 120.8 124.4 126.5 128.9 131.7 133.1 129.2 114.3 102.5 103.2 106.4 110.4 113.1 114.9 116.9 119 121 124.3 129.2 135.6 142.1 145.7 148.3 149.6 150.2 152.5 156.9 161.5 164.8 167 170.6 173.7 177.1 179.8 182.7 186.7 191.7 194.7 193.8 190.1 184.7 158.1 159.6 167.2 174.4 179.2 184.1 190.3 190.4 199.8 211 220.7 229.3 235.2 236.6 235.1 230.3 225.5 217 213.2 218.6 222 225 226.8 227.9 228.1 228.1 227.8 227.2 225.8 224.1 223.2 221.9 220 218.1 206.6 216.9 221.2 222.7 223 223.5 225.7 228.9 232.9 238.7 243.3 246.2 247 247.8 247.6 247.1 245.8 243.3 239.5 226.4 206.7 184.5 173.3 185.2 204.1 221 236.1 242.7 248.9 254.3 259 263.6 267 270.9 274 274.8 275.5 276.3 276.6 275.6 274.6 273.6 272.4 274.4 277.5
159.3 157.3 154.9 152.2 149.3 145.4 140.5 136.4 131.9 126 119.7 115.7 113.6 111.2 109.2 107.2 105.1 103.1 103.5 104.8 105.1 103.7 103 99.8 95.1 88.9 97.1 103.4 107.8 109.4 110.5 111 111.2 111.7 112.3 113.4 115.3 116.6 118.3 118.9 119.1 117.1 119 120.4 121.9 124 126.9 130.3 133.7 136.8 138.7 140.7 141.1 141.5 141.2 139.2 134.8 130.3 120.5 117.9 117.9 121.3 125.2 129.6 135 138.5 141.8 144.5 146.3 147 148.3 148.8 148.3 146.4 144.8 141.9 137.5 127.9 119.8 112.3 114.7 119.3 122.6 125.9 129.4 128.4 120 104.2 101.9 105.5 108.5 111.1 114 114.3 116.2 118.2 120.7 125.1 132.9 140 147.3 150.9 153.8 155.8 156.6 158.9 161.1 163.7 165.8 168 170.8 173.7 176.1 178.7 181.2 183.6 186.9 189.2 188.1 180.3 168.1 154.4 155.3 160.1 165.5 169.6 175.1 173.2 176.1 192.4 206 217.5 227.9 231.3 232.7 230.3 227 222.9 211.3 209.9 216.4 219.4 222 223.7 224.8 225 225.3 225.3 225.1 223.9 221.8 220.1 218.2 217 216.2 211.9 206 215.3 216.6 219.3 222.3 227.6 232.2 237.3 241.8 244.9 246.7 248 248.9 249 248.4 246.9 242.4 229.4 210.4 189.3 174 171.2 191.7 214 230.6 238.2 244.7 251.4 256.4 260.7 266.4 270.1 273.3 274.3 275.1 276 275.6 274.6 273.6 272.5 270.5 268.9 272.3 275.4
159.9 158.8 156.4 153.6 150 146.3 141.8 136.9 131.7 126.9 121.8 116.9 114 111.6 109.4 107.4 105.4 102.7 101.5 103.2 105 104.1 102 99.8 97 85.9 92.8 100.2 104.8 107.2 107.9 108.5 108.3 107.7 106.7 106.2 107.3 108.2 109.9 111.5 113.6 114.3 115.9 118.2 120.7 123.2 125.9 128.6 132.2 135.6 137.1 138.6 139.2 139.3 139 136.1 132.3 125.9 119.5 116.4 115 117.4 120.7 124.9 129 134.2 137.2 140.2 142.2 144.1 145.5 147.8 147.5 146.7 145.1 142.6 138.2 131.8 121.4 115 109.6 114.5 117.4 119.7 123.4 121.3 104.7 103.1 103.1 106.4 109.3 110.9 113 113.3 115.4 117.8 120.9 125.6 134.9 143 150.9 155.1 157.6 159.1 160.4 162.3 164.1 165.5 167.1 169.2 171.2 173.1 175.3 178 179 180.8 181.2 182 174.1 158.3 151 149.3 151.1 152.9 156.2 155.6 158.1 161.5 167.4 178.7 192.4 210.1 222.7 227.9 227.8 225.1 222.4 213.9 199.6 206.6 213.8 215.9 218.1 220.6 221.6 221.9 222.2 223.1 222.9 222.1 219.6 217.4 215.1 214 213.8 213 201.5 207.8 209.9 216 224 229.9 235.9 240.1 243 245.4 247.2 248.9 249.7 249.9 248.9 246.4 229.5 212.7 192.5 174.7 169.7 175.9 201.8 221.1 234.7 241.2 247.6 253.7 259.2 263.8 268.8 273 274.9 275.7 276 275.4 273.7 272.5 271.4 269.7 267.7 265.8 269.5 273.1
160.5 158.8 156.2 153.1 150.8 146.5 142.1 136.7 131.7 127.1 122.8 119.1 115.1 112.1 109.3 107.7 105.5 103.4 101.4 101.4 103.4 104.1 102.1 99.4 98.2 89.8 89.5 98 101.5 104 104.9 105.5 104.6 104.5 103.4 103.2 103.8 104.7 106.1 108 110.4 113.8 116.9 119.2 121.7 125 128.5 130.4 133.3 135.3 137.2 137.4 137.7 137 136.5 135.3 132.3 128.3 123.3 116.5 113.7 113.3 115.6 119.2 123.1 127.4 132 134.8 138.9 141.2 143.4 145.5 146 145.7 144.6 143.1 139.5 135 123 115.3 108.1 109.5 113.1 114.7 115.6 104 100.5 103.7 104.8 107.2 109.6 110.2 111.7 111.9 114 116.8 120.2 125.6 135.5 144 151.2 156.2 158.9 161.2 162.4 163.8 165.3 166.9 168.6 170.4 172.2 173 174.5 175.8 177 177.8 178 172.8 154.8 148.1 147.5 148.6 151.6 155.1 158.4 159.6 161.5 162.1 161.8 165.7 174.4 192.6 210.8 220.1 221.7 219.9 214.4 202.1 197.9 200.5 207.8 211.7 214.4 217.1 218.5 219.6 220.8 221.5 221 220.6 219 215.5 212 209.6 212 210.4 203.2 201.1 210.1 218.7 226.4 232.6 237.7 240.7 243.3 245.7 247.9 249.4 250.1 250 248.5 237.6 216.6 196.7 177.5 168.2 167.9 192.2 217 229.2 237.3 243.7 249.8 255.7 260.7 267 271.3 274.9 276.4 277.2 276.6 274.5 273 270.9 268.8 267 264.5 262.9 266.7 270.3
159.9 158.4 156.4 154 151.1 147 142.2 136.5 131.8 127.2 123.2 119.1 115.6 112 109.9 108.7 106.5 104.1 101.8 98.8 101.6 102.5 102.1 99.6 97.1 91.5 88.7 95.8 98.1 100.3 101.1 101.7 101.3 101.2 100.8 101.6 102.7 103.5 104.9 107.5 110.4 113.7 117 120.3 123.2 126.7 130.3 133.3 135 136.3 136.7 136.7 136.2 135.7 135.1 134.2 132.8 130 126.7 120.7 113.7 110.8 111.3 113.2 115.9 119.9 125.8 130.8 135.7 138.9 141.6 143.5 144.2 144.6 144.1 142.7 140.1 135.7 126.6 114.9 108.9 104.1 107.4 106.9 100.7 100.5 99.7 104.1 106.2 108.4 109.6 109.7 110.2 110.4 112.3 115.2 118.5 123.9 133.9 143.1 152.2 156.9 159.9 161.6 163.2 164.8 166.5 168.1 169.7 171.3 173.1 173.8 174.7 174.9 175.3 175.6 170.5 155.6 145.9 144.8 147.8 152.9 158.6 161.9 165.1 166.9 168.4 169.4 166.9 165.8 167.1 174.6 192.8 207.2 211.5 207.8 198.3 189.5 191.6 195.2 201.9 207.5 210.8 215 217.5 219.1 220.1 220.1 219.5 219.3 217.8 214.4 211 205.4 207.5 206.7 198.7 199.3 212.6 221.4 228.2 233.2 237 240.7 243.3 245.8 247.7 249 249.6 248.9 247.3 229.2 205.5 183.2 167.2 166.2 183 207 221.8 231.7 239.7 247 251.9 256.9 262.4 267.7 272.1 275.9 277.7 277.9 276.4 274.3 272 268.7 266.4 264 260.6 258.8 262.6 266.5
158.8 157.6 155.3 152.6 150.7 147 142.2 137 131.1 126.4 122.4 118.8 115.3 112.4 110.6 108.5 106.3 104.1 101.5 97.3 97.9 99.2 98.7 97 94.5 89.7 87.4 93.6 96.5 97.7 99.3 99.3 99.6 99.8 100.4 100.9 101.5 103.1 105.4 108.4 110.7 114 117.4 120.7 123.7 127.4 131.1 133.8 135.9 136.3 136.3 136.2 134.8 134.3 133.7 133.3 132.8 130.9 128.7 124 116.2 110.4 107.9 109.2 111.6 115.7 121.9 126.5 130.8 134.4 137.3 140 141.8 142.9 142.7 141.7 138.4 134.8 126.9 113.1 108.8 101.3 100.9 99.8 99 99.6 104.7 106.1 108.2 109.2 109.6 110.3 110.5 110.7 111.3 114.1 116.2 120.2 129.9 139.2 148 154.1 157.8 161.8 164 165.6 168.1 169.8 171.2 172.3 174 174.6 175.6 175.2 174.6 168.2 156.2 144.4 143 146.4 153.8 160.1 166.8 170.1 172.3 175.4 177.6 179.5 180.2 178.4 174.2 169.7 176.1 189.6 193.8 188.9 184.2 192.4 201.3 205.6 208.6 211.6 213.9 217 217.8 219.1 219.3 218.9 218.2 217.4 215.5 212.4 208.7 204.3 198.4 199.3 193.9 202.5 214.7 221.4 227.7 232.4 236.3 239.9 242.9 244.4 246.9 248.1 247.5 247.4 242.6 220.3 195.4 174 164.9 175.8 194.9 213.9 225.5 233.9 241.3 247.9 252.8 257.9 262.8 267.3 271.7 276.4 277.8 277.3 275.9 274 270.7 267.5 264.3 261.4 257.2 254.3 259.1 263.7
157.7 156.6 155.1 152.4 149.9 146.5 140.9 134.7 129.3 124.6 120.3 117.2 114.8 112.5 110.5 108.2 106 103.6 100.9 98.1 93.4 94.6 94.6 94 92 86.8 84.2 91.9 94.3 95.3 96.3 97.9 98.3 99.3 100 100.5 101.9 104 106.5 109 111.6 114.2 117.7 121.8 125 128.3 131.8 134.1 136 136.1 136 135.6 133.9 132.8 131.7 132.1 132 130.8 128.7 126 118.8 111.4 106.4 105.3 108.2 112 116 120.3 125.1 129.8 133.7 136.7 138.6 140.6 140.6 140.3 137.7 133.7 122 110.5 106.5 98.4 98.1 98.9 99.3 105 106.6 107.9 108.3 109.1 109.6 110.6 111.7 112.1 112.7 112.6 113.7 117.2 121.7 130.5 139.4 149.1 157.1 161 164.4 166.8 169.9 171.9 173 173.1 173.9 174.2 174.5 174.3 163.7 152.1 143.3 140.8 144.9 152.2 161.3 169.1 175.6 180.1 182 184.1 187.8 190.8 191.8 192.4 189.9 183.4 175 175.2 178.4 181.9 192.2 200.1 206 210.4 213.4 215.8 217.8 219.3 220 220.4 220 219.2 217 213.7 211.9 209.6 205.8 199.8 194.4 192.3 192.2 203.5 214.6 220.3 225.7 230.8 235.9 239.6 241.8 243.2 244.6 245.3 244.8 244.2 233.4 210.4 186 166.8 167.7 187 204.1 217.7 227.6 236.3 243.2 249.3 254.5 259.2 262.7 266.8 271.3 274.9 275.8 276.2 275.2 273.2 270 266.8 263.7 260.8 256.5 249.2 256.5 262.4
156.7 155.7 154.7 152.2 149.1 145.9 140.3 135.1 129.8 124.5 120 117.4 115.4 114.2 112.5 109.6 105.7 102.5 99.9 96.9 93.6 90.4 89.6 90.3 87.8 83.9 86.6 90 91.8 94.7 96.4 98.1 98.5 98.9 99.7 101 102.8 104.6 107.5 110.6 113.6 116.9 120.9 124.2 126.9 129.6 132.1 133.8 135.2 135.5 135.6 134.8 133.1 129.7 128.8 130.9 131 129.4 126.7 123 118.1 110.8 104.2 102.3 105.3 108.5 112.3 115.4 120.3 124.9 129.6 134.1 136.9 138.2 139 139.4 137.5 133.7 117 106.6 102 97 98.5 100.7 103.1 106.5 107.8 108.9 108.7 108.8 110 111.3 112.5 112.8 113 113 112.7 114.3 117.3 122.9 131.1 144.6 154.1 161.2 164.6 168.6 171.8 174.1 173.7 172.8 172.5 172.1 168.5 158.5 148.2 140.3 138.4 142.5 149.4 159.5 168.8 177.3 183.1 188.2 190.7 193.2 195.5 197 198.7 200.5 198.9 196.8 189 181.8 187.5 195.1 201.6 207.2 211.3 214.9 217.9 220.2 221.8 221.9 222.3 222.3 220.9 220.1 217.8 214.3 208.3 204.8 199.9 198.4 197.6 195.6 189.8 196 211.1 219.1 225.7 230.2 234.9 238.7 240.7 242.1 242.5 241.1 240.1 239 223.4 200.8 177.2 162.3 171.3 189.6 205.6 219.5 229.3 238.8 246.3 251.1 256.3 259.9 263.5 267 270.8 273.3 274.2 274.8 274 272.3 269.4 266.1 263 259.6 255.7 248.3 251.7 259.9
156.1 155.1 154.2 152.5 149.8 147.4 142.7 138.1 132.2 126.6 122.9 121 119.3 116.7 114.5 111.3 107.3 103.4 100.1 96.8 94.4 91.2 87.6 85.6 84.3 85.1 91.8 94.8 94.7 95.2 96.6 98.3 98.9 100 101 102.4 104.1 107.3 110.5 113.7 116.7 120.4 123.1 125.2 127.8 130.1 131.5 132.9 133.9 134.6 134.8 134.1 131.5 123 119.7 126.1 126.2 125 122.1 118.1 111.9 105.7 100.3 100.2 103.7 106.6 109.8 112.2 117.4 122.2 127.1 131.9 134.9 136.1 137.3 138.4 137.3 133.8 116.8 104.7 96.9 96.3 98.7 103.3 105.4 106.7 108.1 108.9 108.7 109.1 110.7 111.8 112.5 113 113.4 113.1 113.3 112.7 114.5 118.3 124.3 135.2 149.5 159.1 164.3 167.1 170.4 170.7 170.7 169.7 167.6 160.7 150.4 141.9 137.1 135.7 140.3 145.7 156.9 167.2 176.8 183.5 189.9 194.2 197.7 199.9 201.3 202.6 203.9 204.9 204.7 204 199 188.8 196.5 202.2 207.1 212.4 216.1 219.3 221.5 222.9 224.2 225.2 225.1 224.7 222.9 221.1 217.4 212.5 205.3 202.4 205.4 209.2 210.8 207 194.8 191 202.3 217 226.6 231.3 235.3 237.6 238.7 239.2 238.4 236.8 235.3 231.8 214.2 190 167.5 160.6 172.3 188.8 204.7 220.2 232.1 242.5 248.3 253.1 257.2 260.7 264.2 267.7 270.6 272.4 273.2 273.2 272.4 271.2 268.7 265.6 262.3 257.8 252.5 245.3 241.9 251.6
154.6 154.9 153.7 153.2 151 149.4 146.4 142 134.7 130.1 127.4 126.8 124 119.1 115.9 112.5 109 104.9 101.2 98.1 94.9 91.2 86.1 82.3 83.9 89.9 94.7 96.2 97.2 97.4 98 99.2 101.2 102 102.9 104.7 106.6 110 113.6 116.7 119.6 121.9 124.1 126 128.3 129.4 130.8 131.8 132.2 132.5 132.8 132.5 130.7 119.1 112 111.2 115.9 118 115.9 112.7 106.7 100.1 96.6 98.7 102.1 105.2 107.8 111.5 116.4 121 125.9 129.9 133.1 135.1 136.5 137.1 136.7 134.3 120.1 101.2 95.7 95.3 100.4 104.8 106.6 107.1 107.9 108.4 108.7 109.6 111.1 111.3 111.9 112.2 111 110.1 110.5 110.7 112.6 115.6 120.5 126.1 138.2 145.4 152.6 158.7 161.3 163.4 164.3 164.4 162.4 147.7 137.6 135 133 139.1 145.5 153.8 167.1 175.7 182.7 189.2 194.2 200.6 202.9 204.5 205.3 206.7 208 209 209.7 209.6 206.4 202.2 199.9 206.6 211.9 216.9 220.3 223 225.2 225.9 226.7 228.2 227.5 227.2 225.3 222.3 215.6 209 209.8 215.1 219.6 222.3 223.1 218.6 204.5 187.9 194.2 211.9 225 230.7 233.4 235 235.8 235.3 234.1 232.6 230.6 226.4 209.5 183.1 160.6 159.5 171.9 188 204.2 220.6 234.6 245.1 249.6 253.9 258 261.3 264.8 267.9 270.1 271.6 272.1 271.5 270.7 269.6 268 265.4 261 255.7 242.7 236.9 241.5 251.2
153.2 153.8 154 153.5 152.2 150.7 148.4 145.4 140.9 138.2 135.3 131.6 128.4 123.3 118.1 113.8 110 106.3 102.6 98.7 94.9 90.7 83.6 81.7 87.7 92.4 94.1 97.1 98.7 99.7 100.2 101.9 103.4 104.4 105.5 108 110.4 112.5 115.8 118.5 120.4 123.1 124.9 126.4 127.9 128.8 129.4 129.7 129.9 130.2 130.6 130.3 128.4 120.4 108.7 105.1 103 106 107.4 105.5 102.1 97.3 92 96.8 100.3 104 105.8 108.8 114 119.5 123.3 127.1 131.1 133.3 135.8 136.3 136.5 135.2 123.6 100.9 94 94.6 102.3 104.1 105.8 106.7 106.5 106.7 106.8 108.6 109.2 109.7 108.9 107.6 107.3 109.5 108.7 109.6 111.3 114 116.8 120.8 125.5 133.8 142.8 150.6 155 158.8 161 160.8 157.5 140.8 130.7 131.6 138.2 145.9 153.3 164.9 173.3 181.3 188.5 194.3 200.8 205.1 207.5 208.9 209.7 210.7 212 213.1 213.9 214.1 213 212.8 210.9 210.2 216 221.2 224.3 226.7 228.1 229.2 230.5 231.9 231.2 230.2 227.6 223.9 217.7 215.5 220 226.2 230.2 231.9 230.7 226.7 212.4 191.3 186.1 202.2 216.1 226.7 229.3 231.2 231.9 231.3 230.2 228.1 224.5 220.6 207.7 181.4 159.3 159 171.5 187.4 204.7 220.7 235.7 245.3 249.8 254.8 258.9 262.2 265 267.2 268.8 269.6 269.7 269.3 268.6 267.5 266.3 262.3 257.5 248 232.4 231.9 254.5 260
152.3 153.3 153.7 153.4 152 151 149.1 146.8 144.4 141.3 137.7 134.2 130.6 126.3 121.2 116.3 112.1 108 103.7 97.9 93.6 90.2 83.9 81 85.5 90.9 93.1 96.3 99.7 101.2 102.2 104.2 106 107.3 108.1 111.1 113.8 115.7 117.5 119.4 121.3 123.2 123.7 124.9 126.5 127.2 126.9 127.5 127.8 128 128.1 127.3 125.4 121.3 109.6 100.3 95.9 96.1 99.4 99.2 94.9 89.6 89.8 93.1 97.8 102.2 103.9 105.6 109.3 114.4 119.7 123.5 128 132 134.1 135.4 135.3 134 126.3 103.3 94 94.6 101.8 103.5 105.4 104.8 104 103.7 102.8 105.3 104.5 103.3 104.8 106.9 108.6 110.3 111.4 111.9 112.4 111.7 114 117.8 121.6 126.1 133.6 143.3 149 153.4 154.4 154.2 150.9 131.8 130.8 135 143 150.8 161.6 170.2 178.6 186.9 194.2 200.1 205.2 208.9 211.3 212.6 213.7 214.9 216.4 217.5 218.2 219 219.4 220.3 220.9 220.4 223.3 226.2 228.3 230.7 232.6 234.5 235.6 235.5 234.9 233.1 230.6 226.8 223 221.5 227.6 233.6 235.7 235.7 235.1 232.8 221 197.9 182.7 187.1 197.4 208.3 215.9 222.3 223.3 223 222.6 220.9 218.9 216.2 207.5 182.6 158.4 157.6 171.6 186.5 204.1 218.4 233.5 243.4 250.1 255.7 258.9 261.4 263.9 264.9 266.5 266.7 266.4 265.7 264.8 262.8 259.6 255.1 250.2 234.2 226.6 247.3 259.8 262.6
151.4 152.6 153.3 153.2 151.8 151 149.7 147.3 144.8 142.1 138.3 134.8 131.7 128.2 123.7 118.4 113.7 109.1 104.7 99.8 95.8 88.2 84.8 80.7 81.2 86 91.4 96.5 100.6 102.4 104.1 106.1 108.3 109.5 111.2 114.1 116.2 117.8 119.1 120.2 122.1 123 123.5 123.9 124.7 124.2 123.5 124.8 125.6 125.9 125.4 124 122.4 119.3 111.8 101.1 90.3 86 88.6 87.8 83 82.6 83.8 85 93.1 97.9 98.2 102.9 105.7 106.9 112.6 118.2 122.5 126.4 130.5 132.7 133.7 133 129.8 106.7 93.5 95.8 100.8 101.7 101.9 100.7 99.9 99.7 100 101 102.2 106.4 108.6 110.5 111.6 112.7 113.5 113.8 114.2 113.7 113.5 113.9 117.5 122.3 128.2 137.1 143 146.9 148.9 148.1 134.7 128.9 131.9 134.1 140 153.7 164.1 173.2 183.1 191.5 197.6 203.6 208.4 211.9 214.4 216 217.2 218.8 220.7 222.1 223.6 224.7 225.8 226.5 227.2 227.9 229.5 231.1 233.1 235.2 236.7 237.5 239 238.8 238.2 236.3 235.3 233.2 231.4 230.5 235.3 238.7 239.5 239.4 239.2 238.1 230.1 209.9 191.4 179.5 181.8 186.1 194.5 200 202.1 205.6 209 211.9 212 210.6 206.8 187.5 159.9 156.1 171.1 183.7 199.8 215.4 229.6 240.1 250.3 254.5 257.1 259.4 261.6 262.5 263.3 263.5 263.1 261.8 256.2 253.8 248 241.3 230.5 221.5 236 258.8 262 264.9
150.3 151.2 151.8 151.8 151.4 150.4 149 146.9 144.7 142.4 139 135.9 132.7 129 124.8 119.8 114.8 110.3 106.3 100.4 95.6 92.9 86.1 81.6 79.4 79.8 91.6 97.6 101.2 104.3 106.1 108 110.2 112.5 114.5 116.7 118.2 119.5 120.8 120.9 122.5 122.2 122.4 122.8 121.3 120 120.2 121.5 122.7 123 122.2 120.8 119.2 115.5 109.5 97.7 82.3 81.2 80.6 81.6 82.2 82.2 82.5 83.4 88.9 93.5 94.5 97.5 101.3 100.5 103.1 107.2 111.7 118.3 122.9 126.2 126.7 126.9 125 110.5 93.5 93.4 94.8 95.7 95.9 97.9 100.3 104.3 105.4 106 106.8 108.2 110.4 112.2 113.5 114 115.1 115.4 115.9 116.1 116.4 115.6 115.5 116.1 122.8 130.6 136 137.9 134 130.5 126.6 129.3 132.4 134.5 138.3 145.6 162.3 174.4 184 192 199.6 206.8 211.3 214.1 216.6 218.7 220.9 222.1 223.8 226.2 228.3 229.7 231 232.4 233.2 234.1 234.7 235.9 237.7 239.1 240.2 241 242 242 241.5 240.3 241.2 240.6 239.9 239 242.5 243.2 244.5 244.7 244.5 243.7 240.2 224 204.6 189.4 177.3 174.7 177 178.1 180.7 184.4 193 199.9 204.4 205.5 203.1 192.5 167.4 154.5 166.5 178.9 193.8 209.8 224.3 236.5 247.8 252 254.3 256.6 258.7 259.5 260.2 259.5 256.8 243.9 235.3 229.1 226.3 221.7 217.5 231.6 251.9 262 264.1 266.4
148.3 149.3 150 150.2 150.3 149 147.6 146.3 144.2 142.2 139.5 136.3 133 129.4 125.4 120 114.8 110.2 106.4 103.2 97.7 94.1 86.9 83.2 80.7 78 89.6 97.9 102.9 106.6 108.4 109.9 112.2 114.4 116.6 118.9 120.2 121.3 122.5 122.3 121.7 121.2 121.2 120.2 118.2 116.3 113.8 114.9 117 117.6 117.3 116.3 113.4 108.6 103 85.5 79.7 81.3 84.5 86.6 86.8 87.3 84.3 84 84.4 85.8 86 86.5 89.8 92.3 94.1 95.8 101.9 107.6 109.6 110.8 111.7 113.1 114.2 112 93.2 92.9 96 97.6 99.8 101.6 104.6 106.3 107.7 108.8 109.5 110.4 112.2 114 114.7 117.1 117.6 119.1 118.4 118.9 118.9 118.5 118.7 117.6 117.5 118.9 121.8 123.1 123.9 125.7 126.9 130.6 134.8 138.5 138.6 142.3 149.9 168.4 183.4 192.2 200.8 208.5 212.9 215.7 217.6 219.6 222.1 224.6 226.6 230.2 232.5 233.9 235.3 236.7 238.1 239.3 239.5 240.5 241.5 242.7 243.7 244.5 245.2 245.4 245.5 245.6 247 247.4 246.7 245.5 247.6 248.3 249 249.7 249.8 248.7 245.9 239.1 221.9 203.2 188.9 178.4 171.5 170.3 168.7 167.5 171.9 185.5 196.5 199.6 200.3 195.1 174 154.1 159.9 173.2 188.2 204.5 218.4 232.4 243 248.5 251.1 253.7 255.7 256.4 256.9 255.6 245 227.8 217.3 213.2 212 217.5 236.6 250.2 260.3 263.3 266.5 268.2
146.2 146.8 147.2 147.5 147.3 147.1 146.2 144.8 143.5 141.7 139.1 136.3 133.4 129.8 125.8 120.6 114.7 109.5 104.9 101 97.7 93.9 90 86 83.2 78.5 88.1 97.6 102.7 107.2 109.8 111.7 114 116.4 118.6 120.9 122.5 123.2 123.4 122.9 121.8 120.7 119 117 114.9 110.1 103.7 105.5 108.4 108.7 108.5 107.1 102.2 94 82.1 78.7 81.3 85.6 88.3 88.9 89.6 89.3 89.7 88.4 84 84.2 86.1 86.2 86.3 85.2 86.3 87.9 88.5 88.3 91.1 89.2 91.2 91.9 93.5 93.8 92.6 92.2 98.8 100.2 101.6 103.5 106.6 108.1 109.6 111.1 112.1 113 114 115.4 117.1 119.6 120.7 122.9 125.2 123.4 122.9 121.7 121 120.8 120.6 120.5 121 122.2 124.3 127.4 130.2 137.3 149.2 156.1 151.4 144.5 147.3 156.1 174.5 189.3 199.5 207.1 212.8 215.5 218.6 220.6 223.2 226.4 229.7 232.9 235.2 237.1 238.8 240.5 241.8 242.8 242.9 243.6 244.6 246.2 247.1 247.7 248.8 249.5 249.8 250.6 252.1 252.2 252 252 252.5 253 253.5 253.9 253.9 253.2 250.5 243.6 235.7 221.6 204 191.7 178.5 174.5 174.3 169.4 164.1 168.2 185.9 193 196.8 194.5 177.2 154.3 154.9 167.9 182.6 199 212.7 226.9 238.6 244.6 247.8 250.5 252.6 253.3 253.5 251.2 234.1 213.9 204 214.4 229.6 245.2 252.2 257.5 260.5 263.2 266 267.9
142.6 143.3 144 144.4 144.3 144.3 143.9 143.2 142.2 140.8 138.7 136 133.5 130.4 126.5 121.4 114.4 108.5 102.7 98.9 95.8 93 90.2 86.8 85.3 80.4 81.8 95.8 101.8 106.6 110.2 113.1 115.6 118 120.6 122.7 123.8 124.3 124 122.9 121.5 119.4 116.6 113.2 110.8 105.9 91.5 90.5 95.2 98.6 96.5 80.8 79.1 78.1 78.7 82.7 85.1 87.2 88.5 89 89.4 89.4 90.4 91.3 89.9 91.1 92 92.8 92.9 91.1 87.3 86.6 86.3 88.4 89.4 89.1 88.3 89.1 90.9 90.2 91.5 93.2 97.7 101.1 102.3 105.1 107.7 109.8 111.3 112.8 114.2 115.3 116.5 118 119.8 123.7 128.1 132.5 135.5 134 131.4 127.3 125.6 124.3 123.9 123.9 125.1 127 129.2 132.8 137.5 148.1 162.3 166.7 167.5 160.9 150 152.3 162.2 178.3 191.7 200.1 205.6 215 218.2 221.6 225.1 228.5 231.9 235.3 237.5 239.7 241.7 242.9 244 245.1 246 246.8 247.6 249.1 250.2 250.8 252.6 253.3 253.6 254.7 256.5 256.4 256.1 255.8 256.1 256.6 257.2 256.9 257.6 256.3 253.1 248.3 239.2 228.2 217 196.6 187.6 188.2 187.2 180.9 170.6 162.3 172.7 188.6 196 196.8 180.9 156.2 152.8 163.3 176.9 193.4 208 222.1 232.4 239.2 244.4 247.3 249.2 250.2 250 247.9 225.8 205.2 209.8 237 244.7 249.9 254.5 257.6 260.3 263 265 266.3
138.8 139.5 140.2 140.9 141.2 141.3 141.3 140.7 140.2 139.4 138.5 136.4 133.9 130.6 127.3 121.3 114.6 107.8 101.9 97.6 94.1 91.7 90.5 88.4 85.5 79.3 76 90.8 100.1 105.7 110 113.7 115.6 118.5 121.2 122.8 124.2 124.5 123.9 122.5 121.1 118.2 113.8 103 103.7 101.3 92.2 81.3 82.1 83.2 77.1 76.8 77.3 78.6 81.5 85.4 86.8 89.5 89.4 90.9 92.1 91.9 92.3 91.7 92.3 93.5 94 94.8 95.3 94.4 92.6 93.5 93.8 92.8 92.5 91.3 89.5 89.4 90 91.3 93.2 97.2 100.7 103.1 104.5 106.7 109.2 111.4 113 114.4 115.9 117.4 119.4 121.1 125.8 131.3 135.7 141.5 143.5 142.9 140.9 136.9 134.7 133 132.8 134.5 137.3 141.3 143.3 146.4 147.6 157.8 172.6 179.7 182.8 180.4 168.4 158.7 159.2 165.5 178.5 186.6 205.5 213.9 218.1 222 226.1 230.8 234.2 237.7 240.3 242.2 243.7 245.1 246.2 247.3 248.1 249.1 250.3 251.8 253 254.7 256.4 257.1 257.4 258.7 259.5 259.9 260.1 259.8 259.6 260.1 260.5 260.6 259 257.9 254.1 248.5 240.7 230.6 212.2 197.7 201.9 203.7 198.4 190.5 178.1 164.1 162.8 183.4 200.5 205.5 189.6 164.4 151.4 159.1 173.2 188.3 204.7 218.2 227.8 235.2 240.2 243.9 245.9 246.7 246.4 243 221.3 200.9 206.1 232.2 245.6 250 253.6 256.1 258.8 261.2 263.4 264.6
132.9 134.6 135.6 137 137.6 137.8 138 138.3 138.3 138.2 137.4 136.4 134.3 131.2 128.4 122.5 115.8 108.7 102.1 99.1 98.2 97.3 97.1 92.5 88.1 84.3 78.4 81.1 97.8 104.5 109.1 112.8 115.9 118.4 120.6 122.9 123.7 123.7 123 121.7 119.9 117.3 112.8 106.5 89.8 89.5 83.3 77.8 76.7 75.5 77 81.3 78.7 80.8 85.3 86.5 90.2 91.5 92.6 93.2 94.4 93.9 93.4 93.5 94 93.9 94.7 95.5 95.7 95.1 95.2 95.3 95 94.8 94.8 94.9 96.2 94.1 97 98.5 98.2 100.6 102.8 105.3 107.4 109.3 111.3 113.1 114.7 116 117.5 119.8 122.2 124.3 129.3 134.4 141.1 146.1 147.7 148.4 149.6 150 150.4 151 152 155.2 158.8 161.6 163.8 165.6 165.6 167.6 184.7 191.8 194.6 194 190.7 183.2 176.8 177.3 172 183.4 200.8 212.5 218.3 222.3 228.3 233.7 237 240.3 242.3 243.9 245.4 246.9 247.9 248.9 249.8 251 252.7 254.4 255.9 257.7 259.3 260.5 261.2 261.9 262.2 262.6 263 263.2 263.5 263.6 263.3 262.8 260 258.4 254.2 248.8 241.4 226.3 216.6 218.4 220.2 216.8 208.3 197.4 185 167.9 160.6 178.6 201.1 210.3 197.1 171.4 150 155.9 170.7 185.6 202.7 214.6 224.4 232 237.4 240.8 242.8 243.1 242.6 239.2 220.9 197.9 200.6 224 243.1 248.6 251.9 254.6 257.2 259.6 261.9 263.3
124.5 127.7 130.3 132.2 134.1 134.3 134.8 135.4 136 136.6 136 135.2 134.6 132 129.3 124.1 116.5 108.4 105 104.2 106 108 106.3 99.4 90.5 84.4 79.1 74.3 90 101.9 107.1 111.3 114.9 117.1 119 121 122.8 122.9 122 120.6 118.6 116.4 111.5 105.4 93 75.1 76 77.2 75.4 76.4 79.8 83.9 85.5 87.5 88.7 89.6 91.1 92.5 93.8 94.6 95.7 95.3 95.7 96.2 96.2 96.1 95.9 96.3 96.3 96.5 96.7 96.7 96.9 97.8 98 97.5 98.2 97.8 99.4 100.3 101.9 102.8 104.2 107 109.5 111.1 113.1 114.8 116.5 117.7 119.9 122.2 124.7 127.2 132.7 138.8 146.3 149.5 153.3 156.4 157.4 163.5 165 168.3 172.8 176.8 180.2 183.6 185.6 186.5 186.4 185.9 197.2 203 205.7 206.5 205.7 201.8 196.6 190 183.4 177.8 196.1 211.1 218.8 225.1 231 236.3 239.6 242.2 244.1 245.6 247.1 248 248.7 249.7 250.8 252 253.7 255.7 257.9 259.8 261.7 262.6 263.1 264.2 265 265.3 265.7 266 266.2 266 265.4 263.9 261.6 259.1 255.3 249.4 241.1 233.8 234.7 233.3 229.5 223.7 216.4 203.2 188.9 173.2 156.8 170.2 194.8 206.6 192.8 168.4 149.2 155.4 172.2 186 202.4 212.9 222.1 229 235 236.6 238.4 239.4 239.6 235.7 225.4 198.6 193.9 211.9 234.1 243.9 248.4 251.7 255.3 257.9 260.3 262.2
117.4 120.3 124 127.3 129.3 130.9 131.7 132.6 133.4 134.2 134.9 134.5 134 132.4 130 125.7 117.7 111.8 113.3 115.2 118.1 119 115.6 108.3 96.6 86.6 81.1 74.8 80.2 95.5 103.4 108.9 111.9 114.7 116.6 117.9 119.2 120.2 120.1 118.5 116.9 114.1 108.8 102.5 77.6 70.8 70.7 76.4 79.6 81.1 84.3 86.9 88.9 90.2 91.4 92.6 94 94 95.1 96.1 96.9 97.1 97.1 97.2 97.3 97.6 98.1 98.1 98.3 98.2 98.3 98.3 98.8 99.6 100.1 100.2 100.9 101.4 102.2 103.2 104.7 105 106.4 108.2 111 112.9 114.8 116.5 118.3 120.5 123.5 126.2 126.7 129.3 136.8 143.5 150.1 154.2 159 164 168.4 172.3 177.3 182.6 186.7 190.9 194 197.1 199.3 200.9 202.6 204.6 206.3 212.3 214.6 215 214.4 211.4 207.6 201.1 193.9 189.5 193.5 210.3 218.5 226.7 233 237.8 240.8 243 245.2 247.1 247.8 248.4 249.3 250.6 251.7 253.1 255.2 257.3 259.4 261.4 262.8 263.6 264.7 265.7 266.6 267.4 267.9 268.2 268.1 267.9 266.9 265 262.6 260 256.5 252 247.5 245.4 243.2 240.4 236.3 230.2 221 209 190.4 176.1 155.6 157.4 173.4 184.4 172.9 154.2 148 158.3 175.4 190.4 203.4 213 221.6 227.3 232.3 234 234.9 235.3 233.9 231.2 226 208.7 189.5 198.4 221 239.5 243.8 248.9 253.5 256.3 258.6 260.5
121 118 116.6 121.5 123.9 125.8 128 129.9 131.3 132.1 133.8 134.6 134.4 133.8 133.1 128.5 123.2 122.3 125 128 128.4 126.5 123.9 118.9 108.8 91.5 82.4 73.8 73.8 87.6 97.8 103.9 107.9 111.9 113.4 114.8 115.9 116.4 115.8 115.2 114.1 110.9 105.6 87.8 69.4 69.6 73.6 79 80.1 82.7 86.4 90.6 91.4 92.3 93.3 94 94.8 95.3 95.5 96.2 97.3 98.1 98.1 98.3 98.6 98.4 98.5 98.7 98.5 98.7 99.1 99.6 100.1 100.5 100.9 101.3 102.8 104.7 105 106 107.4 108.4 109.9 110.5 111.4 114.7 116.4 118.2 119.9 124.4 128.5 130.6 130.9 132.1 137.6 144.6 153.1 159.8 166.2 171.1 176 182.2 187.3 191.1 197 201.1 204.2 207.5 209.9 212 213.7 216.2 218.5 220.3 221.8 221.3 220.7 218.9 215.9 211.4 203.3 201.7 200.5 206.3 218.2 226 232.3 237.6 241.3 243.7 245.9 247.1 247.5 248.1 249.1 250.5 252 253.6 255.7 257.8 259.9 261.6 263.1 264.2 265.5 266.7 267.8 268.6 269.3 269.9 269.8 269.5 268.1 265.8 263.1 260.5 257.7 254.7 251.7 249.8 247.4 244.2 240.5 234.2 223.5 213 195 177.8 162.9 151.8 152.9 157.9 152.6 146.9 150.5 166.2 181.2 195 206.5 214.8 222.3 226.6 229.9 231.5 232 231.7 229.8 227.8 221.8 210 192.6 190.8 212.3 230.8 241.2 246.9 251.9 254.8 257.1 258.5
123.4 120.2 116.8 115.7 119.1 121.5 124.7 127 128.9 130.4 131.8 133.6 134.8 135.5 135 134 133.4 134.1 135.5 135.3 133.7 131.5 129.2 125.4 117.7 99.5 83.8 78.6 75.8 74.3 88.6 97.5 103.3 107.9 109.7 111.1 111.5 111.9 111.6 110.9 109.9 107.4 102 74.1 69.6 71.6 76 79.6 81.1 84.7 90.6 91.1 92.3 93.4 94.3 94.5 95.2 95.9 95.3 96.3 97.7 99.1 99.1 99.3 99.6 99.8 99.5 99.7 99.5 99.5 99.7 99.8 100.4 101 101.5 102.7 105 105.6 106.7 108.1 109.5 110.9 112.8 113.3 114.1 115.7 119 121.3 124.1 130.4 134.6 136 138 138 139.6 147.8 157.7 165.5 172 177.9 183.6 190.6 196.4 202.2 206.9 209.5 213.4 215.6 218.1 221.1 224 226.2 227.8 229 228.9 228.4 227.7 226.1 222.9 219.5 213.3 212 211.2 210.6 215 225.1 230.9 236.1 241.2 244.3 245.5 246.6 247.2 247.8 248.9 250.2 251.7 253.4 255 256.9 259 260.8 262.6 264.3 266 267.3 268.3 269.1 269.8 270.7 270.7 269.4 267.3 264.4 262.6 260.8 258.4 256.3 255.3 252.7 249.9 246.8 242.8 235.1 225.4 215.7 200.7 182.1 169.3 153.1 148.6 145.9 145.1 146.5 156.8 177.6 190.9 201.3 210.2 216.9 221.6 225.5 227.6 229.3 229.9 229.4 226.7 223.2 207.5 192 179.8 191.3 211.7 231.5 239.3 245.2 250 253.3 255.6 256.8
125.4 122.3 118.9 116 114.7 118 121.5 124 126.3 128.5 128.9 131.6 133.5 135.6 137.7 138.7 140.1 139.9 139.6 139.1 137.9 136.2 134 130.3 123.4 110.5 90.2 83.7 79 72.1 75 87.7 94.6 100.8 104 106 106.7 107.1 107.4 107.1 105.5 103.2 93.7 69.5 71 74.5 78.7 81.7 84 88.3 90.4 91.9 93.4 94.5 95.3 95.2 95.7 95.4 95.4 96.6 98.1 99.5 100.1 100.3 100.7 101.2 101.6 102.1 102.4 101.9 101.4 102.4 102.7 102.3 102.8 104.2 105.6 106.8 107.9 109.2 110.8 112.6 114.5 116.1 116.4 117.1 120.4 123.7 129.5 135.6 139.8 143.5 147.4 147.5 144.3 148.3 160.7 170.8 177.9 184.6 191.4 199.6 205.9 211.1 215 216.6 219.9 223.6 226.5 229.7 232.4 233.4 234.3 234.3 235.1 235.5 234.7 233.3 229.8 226.2 222.5 221.4 220.9 220.2 220.6 223.2 231.1 236.2 241.1 243.2 245.2 246.1 246.9 247.5 248.8 250 251.5 253.2 254.8 256.5 258.2 260.1 262.1 263.9 265.5 267.1 268.4 269.6 270.2 270.4 269.9 268.5 266 263.4 261.2 259.4 257.7 257 256 253.5 251.1 247.2 241.2 233.2 225.4 216.8 205.4 188.2 172 157.9 149.6 146 143.8 151.8 172.7 186.8 197.1 205.4 212.4 217.7 221.6 224.5 225.8 227.6 227.9 227.4 224.7 209.5 192.6 177.9 174.9 193.2 213.7 229.7 238 243.7 248.1 251.7 254.1 255.3
132.1 124.3 120.2 117 113.7 111.3 116 120.5 123.8 123.7 124 129.4 134.4 137.2 139.6 141.1 142.7 142.6 142.5 142.2 141 139.6 137.8 133.6 128.2 118.5 100.5 86.6 81.8 76.4 72.5 74.7 83 91.2 96.7 99.4 101.2 102.6 103.2 102.8 102.4 100.1 85.6 67.4 72 75.1 81 84.3 86.5 89.5 91.6 93 94.4 95.5 95.2 93.4 93.6 94.2 96.1 97.2 98.5 99.9 101.1 101.4 102.4 102.8 103.3 103.8 104.2 103.7 103.1 103.3 103.4 103.6 104.1 104.9 106.7 108.1 109.2 110.4 112.1 114.2 116.4 118 119.3 119.3 122.9 127.4 135.7 141.3 145.7 151 155.9 157.6 158 153.3 160.3 173.7 183.1 191.5 200 207.3 212 216.2 219.8 223.2 226.9 231.2 234.8 237.4 239.4 240.2 240.3 240.1 241.1 241.8 241.8 240.9 237.5 233.1 231.9 230.9 230.2 229 229.1 227.7 233.2 236.4 241 243.3 244.4 245.5 246.3 246.6 247.8 248.8 249.6 251.3 252.9 254.6 256.9 259.3 261.6 263.5 265 266.2 267.4 268.3 268.7 268.6 268 266.4 264.6 262.3 259.8 258.3 257.4 256.7 255.8 253.5 250.3 245.1 239.1 231.9 223 214.4 204.3 185.3 166.8 159.4 161.7 152.2 142.8 150.7 171.5 189.3 201.1 207.3 212 218.3 222.8 224.8 226.1 226.7 226.4 225.7 221.4 201.4 181.5 169.4 177.1 196.9 217.9 229.8 237.2 242.6 246.9 249.9 251.8 252.8
139.5 135 123.7 117.4 115.4 112.5 109.3 113.2 117.9 118.4 123 128.6 134.2 138.1 140.8 142.5 144 145.1 145.2 144.2 142.7 141.4 140.2 136.1 131.1 123.9 112 92.4 85.5 82 76.5 70.7 70.9 76.8 81.9 86.1 90.8 94.8 96.3 98.2 98.4 96.8 79.6 68.5 72.2 76 82.1 84.8 87.5 90.3 92.7 93.8 94.9 95.6 94.3 91 91 93.7 96.7 97.9 99.1 100.4 102.4 103.5 104.5 104.5 105 105.6 106 105.7 105.2 104.8 105.4 105.9 106.3 106.8 107.8 109.2 110.5 111.8 113.6 115.6 118 119.9 121.6 121.9 124.9 131.5 142.1 148.1 153 158 163.5 166.6 169 167.6 164 174.9 188.4 198.6 207.6 212.6 217 221.2 225 228.7 233.3 237.9 241.7 243.9 245.6 246 246.2 246.1 246.9 248.1 248.2 248.1 245 241.5 240.7 239.5 237.9 237.1 236.2 235.3 236.7 240.1 242.8 245.1 246.1 247 245.9 245.9 246.9 247.2 247.5 249.2 250.9 253.3 255.7 258.1 260.5 262.6 264 265.2 266 266.6 266.9 266.5 265.6 263.9 262.1 260.4 258.2 257.1 256 255.3 254 251.7 247.4 242.2 236.9 229.2 219 210.2 195.8 175.8 168.5 170 171.5 157.1 142.4 145 166 186.8 199.4 205.7 211.5 217.8 223.4 226.1 227.5 226.5 224.9 222.4 215.3 193.6 172.6 163.2 177.7 199.6 219.4 228 235 240.3 243.8 246.4 248.7 249.9
144.2 139.9 134.7 123.9 117.4 114.3 111.3 108.8 111.7 116.5 122.5 128.1 133.7 138.3 141.1 143.1 144.2 145.2 146 145.1 143.9 142.6 141.1 138 133.3 127.4 119.3 102.8 89.6 84.7 80.4 74.5 70.6 69.7 69.4 72.6 77.4 81.3 85.4 89.7 92.1 92.2 70.3 69 71.3 75.7 81.7 84.6 87.3 89.9 92.5 94.4 94.5 93.9 91.6 90 93.6 95.4 97 98.5 100.1 102.2 104.2 104.9 105.1 105.8 106.8 107.4 107.8 107.8 107.4 107.3 108.7 109.2 109.2 109.4 110.4 111.3 113.3 115.4 117.2 119.1 122.3 124.8 124.1 124.6 127.1 135.7 147 154.1 159.4 164 169.9 175.4 178.8 180.4 178.9 177.3 194.1 205.2 212.6 217.8 222.1 226.2 229.8 233.8 238.8 243.8 247.7 250.1 251.2 251.6 251.8 252 252.6 254 254.6 254.2 251.6 248.6 247.8 248.6 246.1 247 244.7 243.2 243.2 244.9 246.8 247.8 248.5 248.2 246.8 245.4 245.5 245.6 245.7 247.2 249.6 252.1 254.5 256.9 259.2 260.7 262.1 263.3 263.9 264.4 264.1 263.2 262.2 260.9 259.1 257.1 255.6 254.7 253.6 252.9 251.8 249.3 245.9 240.1 234.6 226.7 217.4 202.7 185 180.1 184 187.7 175.9 158.5 141.4 141.9 161 182.6 195.1 203.2 210.8 217.3 222.6 226.2 226.3 224.3 221.8 218.4 208.9 187.5 166.4 161.8 176.4 200.8 219.1 226.2 231.6 236.6 240 242.6 245.2 246
146.6 142.6 138.7 133.8 121 116.3 113.1 109.3 108.5 115.7 121.8 127.9 134 138.3 141 142.4 143.8 145.2 146.1 146.7 144.8 143.3 141.9 139.7 135.3 130.1 123.3 114.5 99.2 88.5 82.9 78.4 74.9 72.9 67 71.6 72.9 70.7 72.8 77.2 81.1 81.9 67.2 69.4 73.4 77.6 81.8 84.6 87.1 89.3 91.4 92.4 92.4 90.8 87.3 92.3 94.9 96.8 98.3 99.9 101.5 103.8 104.6 105.8 106.4 107.1 107.8 108.9 109.7 109.9 109.9 109.8 111.4 112.4 112.5 113.9 114.5 116.4 120 123.3 124.6 125.4 131.1 133.5 132.8 128.3 130.4 139.9 152.2 158.4 164 170.1 176.2 181.5 185.9 190.4 193.1 193.4 201.4 211 216.9 222 226.7 230.2 233.7 238.3 243.2 248.2 252.5 254.6 255.8 256.5 256.7 257.1 257.8 258.9 259.8 258.8 257.2 255.1 254.9 253.5 248.1 253.1 251.7 250.3 249.9 251.4 251.4 250.9 250.4 249.1 247.2 245 243 243.1 243.4 245.4 247.8 250.2 252.6 254.9 257 258.9 260 261.1 261.1 260.8 260 259.1 258.3 257.5 255.9 253.9 253 252.1 251.2 250.3 248.9 247.1 244 239.3 233.9 225.7 211.8 195.7 196.6 201 198.1 193.7 177.6 156.1 141.3 140.1 155.7 177.1 192.9 201.9 209.6 216.1 220 222.6 221.7 220.2 217.5 215 201.9 180.8 160.8 159.5 174.4 198.1 217.1 223.2 228.4 232.8 236.5 239 241.4 242.3
146.7 144.3 140.8 136.7 129.8 118.8 114 110.4 104.3 113.9 121.4 127.5 133.6 137.2 139.7 141.5 142.9 144.4 145.8 146.1 145.1 143.6 142.4 140.2 136.2 131.2 126.3 118.2 109.4 96.6 86.2 80.5 75.4 71.3 67.5 70 69.9 69.8 69.5 71.2 70.6 69.1 65.8 69.2 74 80.2 82.2 84 86 88.1 89.7 90.1 88.9 84.6 89.4 93.3 95.9 97.8 99.4 100.9 102.9 104.2 105.6 107 107.7 108.3 109 110.3 111.7 112 112.2 112.3 113.7 115.5 116.1 118 122.2 127.3 131.7 132.7 132 135.2 139.3 143.6 144.6 135.9 134.2 141.7 156.1 163.9 170.4 176.1 182.3 188.3 193.6 198.4 202.4 205.8 210.8 216.9 220.9 225.5 230.1 233.6 237.7 242.5 247.6 252.5 256.7 258.9 260.1 261.1 261.7 262.3 263.2 264.1 264.1 263.1 261.9 260.7 260.5 260.4 260.5 259.6 258.2 257 257.2 256.9 255.9 254.4 251.8 249.5 245.9 243 241.2 240.1 241.3 243.1 245.3 247.9 250.3 252.4 254.3 256 256.7 257.7 257.4 256.8 256.3 255.5 254.7 253.8 252.6 251.2 249.9 249.1 248.3 247.4 246.4 244.9 242.9 239 232 221.8 217.4 215.5 214.1 209.8 203.2 193.1 175 152.7 139.1 138.7 151.6 177 193.7 203.1 210.5 214.8 216.7 217 216.9 215.7 212.9 208.5 190.7 171 156.2 159.9 173.3 197.4 215 220 225.2 229.4 233 235.3 237.5 239
146.5 144.4 141.7 138 134 127.8 118.5 111.4 105.6 112.4 120.6 127 132.5 136.2 138.6 140.7 142.3 143.9 145.1 145.7 144.7 143.4 142.4 140.7 137.1 132.1 127.9 121.3 113.2 104.2 93.5 82.9 76.1 70.8 66.2 68.6 68.6 68.5 68.7 68.4 66.4 65.7 67.9 72.3 77.3 79.9 81.8 83.3 85 86.9 87 85.6 83.4 84.7 88.8 92.6 95.5 97.1 98.6 101.3 103.4 105.2 106.6 108.2 109 109.5 110.6 111.9 113.2 114.1 114.3 114.5 115.9 118 120.1 126.4 132 136.2 139.5 142.9 143.1 143.6 148.3 152.5 153.6 151 138.5 145.5 160.6 169.5 175.6 182.2 188.3 194.4 200.1 204.8 209 212.8 217.3 223 226.6 230.3 233.9 237.6 241.7 246.9 251.9 256.8 260.8 262.9 263.8 264.9 266.2 267.4 267.9 268 268 266.8 266.2 265.6 265.4 266.1 265.4 264.6 263.7 262.8 262.3 261.4 259.5 256.7 253.4 249.3 245.3 241.4 239.4 237 239 241.1 243 245.3 247.4 249.1 251.2 253.1 253.7 253.6 253.3 252.7 252.1 251.9 251.1 250.2 249 247.6 246.6 246.1 245.3 244.9 244.9 243.3 241.6 236 231.2 230.4 229.5 227 220.1 215.3 205 192.9 170.9 149.7 139.1 138.4 150.2 177.5 194.6 204.9 212.8 215.2 214.5 213.8 213.1 211.4 205.6 191.1 175.6 159.9 152.3 159.5 175.7 201.7 212.6 217.2 222 225.7 229.4 232.2 234 235.3
145.1 143.9 141.1 138.4 135.1 131.3 126.3 115.5 102.8 109.1 119.5 125.5 130.5 134.7 137 139.3 141.1 143 143.8 144.5 143.7 142.8 142.2 140.3 137.1 133.4 129.2 123.7 117.6 108.9 100.6 90 79.6 73.7 66.7 66.5 67 67 67 65.9 65.3 68.7 74.3 75.8 77.9 79.5 81.1 82.7 84.2 84.6 83.7 80.6 81.2 83.9 86.9 89 92.1 94.4 96.6 99.9 103.4 105.7 107.5 109 110 110.9 112.4 114 114.8 116.6 116.9 117.3 118.2 121.1 126.2 134.1 138.3 142.8 145.4 149.5 150.9 153.8 156.2 159.9 162.5 163.3 153.7 147.2 164.3 174.8 181.1 188.1 194.3 200.4 205.2 209.8 214.6 219.5 224 228.3 231.7 234.8 238.1 241.8 246 251.3 256.3 261 263.6 265.6 267 268.6 269.8 270.8 271.2 270.8 270.4 270 269.5 269.3 269.6 270.1 269.5 268.5 267.2 266.7 266 264.6 262 259 255 250.4 240.8 240.9 237.1 234.2 235.4 238.3 240.6 242.7 242.1 243.5 245.5 247.2 248.5 248.6 248.5 248.4 248 247.6 247.4 246.5 245.4 244 242.8 242.9 242.8 242.8 243.1 242.4 241.2 239.7 238.5 236.8 234.6 230.5 222 216.3 207.4 188.7 166.4 147 137.5 137.2 154 178.3 193.7 204.5 211.3 212.4 211.1 210.2 208.1 200.3 185.7 169.1 158.7 150.4 152.3 165.3 186 204.2 210.8 215 218.6 222.2 224.9 227.8 230.1 231.3
143.7 142.2 140 138.2 135.7 132.2 128.5 120.2 101.5 107.6 117.2 122.9 128.3 132.3 135 137.2 138.5 140.2 141.1 142.5 142.2 141.3 140.6 139.3 137.2 133.6 129.8 125.8 120.3 113.6 106.4 96.6 86.2 79.9 75.4 64.2 65.1 65.3 65.4 65 65.6 71.4 75.1 75.5 77.3 79.4 80.5 82.1 83.3 82.3 79 77.3 83.7 87.4 89.3 91.3 92.8 93.5 96 98.6 102.2 105.6 107.4 109.5 110.8 112.4 114.4 116 118.6 120.2 121.1 120 120.8 124.2 131.8 138.3 142.8 147 150.9 154.9 158.8 161.8 163.8 167.3 170.6 171.8 168.3 151.9 169 180.8 186.3 193.3 199.8 204.8 209.8 214.4 218.7 224.3 229.8 232.9 235.9 238.9 242.2 245.2 248.5 253.6 259.2 262.3 265.4 267.7 269.8 271.5 272.8 273.2 273.3 272.7 272.5 272 272.2 272.4 272.4 272.6 271.9 271.1 270.3 269.3 268.5 266.4 263.5 259.7 255.8 250.3 240.9 238.4 235.1 231.9 231.1 233.3 237.1 237.1 236.9 238.3 239.9 241.5 242.9 243.7 243.6 243.4 243.3 243.2 242.8 242.3 241.3 240.3 239.1 239.8 241 242.1 242 242.2 242.6 242.7 241.6 240.2 236.4 231.5 226.1 218.2 199.6 178.2 157.1 142.4 136.5 136.8 159.3 178.5 190.6 199.8 203.6 204.5 203.9 202.4 198.2 182.6 168 155.9 150 147.6 157.4 174.5 195 204.9 209.3 212.9 215.4 218 220.4 222.3 224.1 228.8
140.8 140.4 138.7 136.8 134.7 132.6 129.3 119.9 99.5 106.7 113.9 119.7 125.3 129.4 132.1 134.2 135.8 137.4 138.5 140.1 140.7 139.7 138.9 137.6 136.3 133.8 130 126.7 122.8 117.3 109.7 101.3 90.5 82.7 76.5 73.5 65.1 63.8 65.4 69.9 71.8 73.5 74 75.7 78.2 79.8 80.8 81.5 81.3 78.7 74.3 81 85.5 88.4 91 93.5 95.6 96.5 97.3 98.4 101.1 104.7 106.9 109.1 112.1 114.7 116.7 120 123.3 126.1 127.8 126.2 123.1 126.3 133.5 141.3 146 151.4 156.7 161 164.8 167.9 170.6 174.6 177.6 178.6 177.4 164 172.4 184.3 190.7 198.2 204.4 209 213.7 218.3 222.5 230.1 232.9 236 239.1 242.1 245 248.1 251.5 255.4 260.7 263.6 266.7 269.1 270.8 272.3 273.6 274.1 273.4 273.3 273.5 273.7 274 274.2 274.3 274.4 273.8 272.8 271.7 271 269.9 267.2 263.4 259.4 255.7 249.2 241.5 236.6 233.2 229.6 225.5 226.4 227.4 228.3 230.2 233 235.2 236.6 237.4 238.7 238.6 238.5 238.3 238.2 237.7 237.4 237.1 236.1 235.9 237.4 239.5 241.7 242.5 243.2 243.7 244 243.9 241.1 237.2 232.7 226.3 211.8 184.8 164 149 140.4 136.4 137.1 159.3 174.9 185.5 192.4 195.6 196.7 196.2 193.5 184.4 167.3 152.2 145.4 144.3 154.9 168.9 187 198 203.3 206.9 209.2 211 212.9 212.9 212.2 221.1 227
137.8 137 136 134.5 132.6 131.4 129.2 121.6 101.9 102.3 110.3 115.9 121.5 126.3 129 131.1 133.1 134.6 135.8 137.5 138.9 138.2 137.3 136 134.7 133.4 130.8 127.5 123.8 119.3 112.6 104.3 95.4 83.7 74.1 69.3 62.5 64.6 66.4 68.3 71.6 72.7 74.6 77.2 78.5 80.1 81.1 80.2 76.7 74 77.6 82.6 85.9 89.2 92.3 95.3 97.4 99 99.7 99.3 100.8 103.6 107.2 109.9 113.4 118.4 122 125.5 129.5 133.7 137 137.2 132 128.6 133.7 143.3 150.2 156.5 161.5 164.9 169.4 173.3 177.4 181.3 183.8 186.8 187.3 175.8 174.7 187.7 195.2 202.9 208.1 212.7 217.2 221.1 227 233.2 235.6 238.8 241.9 245 247.8 251.1 254.4 257.8 262.1 264.8 267.2 269 270.5 272 273.3 274 273.8 274 274.2 274.3 274.3 274.6 275 275 274.5 273.8 273 272.2 270.5 267.3 263.4 259.4 255.3 247.8 241.4 235.8 230.6 226.6 223 218.5 221.3 222.4 225.2 228.6 230.7 232.3 233.2 233.8 233.8 233.4 233.2 232.6 232.3 232.1 232 233.3 235.2 237.9 240.4 242.8 243.4 244.1 244.8 245.1 244.2 241.4 237.6 232.6 225 199.3 173.9 159.7 151.1 141.3 136.2 135.2 151 164.2 175 184.2 188 189.3 187.6 184 171.7 153.5 143.8 141.2 150.1 165.9 179.8 190.3 196.6 200.8 203.6 205.8 205.9 203.7 200.5 211.5 222.1 227.5
133.4 132.9 132.7 132 130.5 129.3 128.2 124.3 104.3 96.4 103.4 111.6 117.9 122.5 125.9 128 130.1 131.8 133.2 134.9 136.6 136.6 135.6 134.3 133.1 132.5 131.2 128 124.4 120.9 115.4 108.2 100.4 88.9 75.4 65.4 63.4 64.6 66.2 67.8 70.3 74.2 76.1 77.9 79.1 79.5 78.7 76.7 71.9 76.5 80.2 83.5 87.4 90.7 93.8 96.9 99.1 100.7 102.2 101.7 101.6 104 106.6 111 115.6 121.7 127.5 131.9 136.5 141.2 145 145.8 145.5 139.3 133.3 143.1 153 159.2 164.2 169.6 174.8 179.6 183.4 186.8 190.4 194.7 193.6 189 177 190 199.4 206.1 210.8 215.4 219.6 224.5 231.8 235.4 238.3 241.1 243.9 247.1 250.7 254 257.3 260.4 262.9 265.1 267.1 268.5 270 271.4 272.8 273.7 274.3 274.6 274.8 274.9 274.7 274.9 275.2 274.7 274.1 273.6 273 272.3 270.6 267.3 263.3 259.3 254.3 247.4 241.3 235.2 228.9 225.1 216.2 211.7 214.6 216.5 220.6 224 225.8 227.1 228.1 227.9 228.4 227.5 226.4 226.3 225.5 227 229.5 232.9 236.4 239.2 241.7 243.3 244.1 244.8 245.5 245.4 243.5 241.7 237.9 232 213 190.9 184.6 182 162.8 144.2 136.9 133.8 135.3 147.2 158 172 180.7 181.6 179.7 171.4 157.5 144.3 138 147.4 163.9 177.3 185.3 190.5 194.4 197.6 200.3 201.2 201 188.2 196 213.4 222.6 227.5
127.3 127.6 127.9 127.9 127.3 126.5 125.8 124 106.7 98.4 94 102.1 112.2 117.5 122 125 127 129.1 130.6 132.3 133.9 135.1 133.9 133.2 132.6 132 130.9 128.5 125.5 121.8 117.9 112.3 104.2 95.1 83.1 70.2 63 64.8 66.4 67.3 69.8 74 75.7 77.3 78.7 78.1 75.1 71.4 74.9 78.7 81.8 84.8 87.9 91.2 94.6 98 100.6 102.4 104 104.1 104.3 104.8 107.4 111.9 118.1 124.8 131.9 137.5 142.1 146.8 150.4 151.6 152.2 151.2 141.6 143 153.9 160.7 168.4 174.8 180.4 185.3 188.5 193.1 197.6 199.8 198.7 196.9 191.7 190.3 201.2 207.2 213.3 217.7 222.6 227.9 234.6 237.4 239.8 242.5 245.6 248.9 252.6 255.7 258.6 260.7 263.1 265.2 266.5 268 269.5 271.2 272.9 274.2 274.7 275 275.3 275.3 275.2 275.2 274.8 274.3 273.8 273.2 272.6 271.4 269.9 266.7 263 258.8 253.7 247.2 241.1 235 227.9 222.4 210.3 206.8 209.5 212.3 217.4 218.9 220.5 221.8 222.2 221.7 221.8 220 218.2 220.9 224.5 228.1 231.6 234.4 237.6 240.5 242.4 243.7 244.6 245.3 245.8 245.4 243.8 241.7 237.5 229.9 224.4 215.2 206.6 190.7 167.2 147.3 140.4 134.4 132.6 131.5 139.3 155.1 170.9 177.4 174.1 161.4 146.2 138.6 138.5 154.4 171.2 179.6 185.2 188.3 192 194.9 195.7 196.6 192 178.2 188.1 208.9 222.5 228.1
120.5 120.8 121.1 120.9 120.7 119.9 119 114.8 106.6 97.9 92.4 93.6 105.9 112.5 117 121.5 124.1 126.2 128 129.7 131.4 133 133.2 132.6 132 131.4 130.3 129.1 126.6 122.7 119.1 113.9 108.6 101.6 94.8 79.6 63.2 61.5 65.3 67.1 68.2 71.5 74 75.7 77 74.8 71.1 72 76.1 79.4 82.1 84.3 88.1 91.4 94.8 98.2 101.5 103.6 105.8 107.1 107.5 107.8 108.8 112.8 120.3 127.9 136 142.6 147.3 151.7 154.8 157 157.6 157.3 156.1 145.1 152.7 163 172.6 179.4 185.5 189 193.2 199.4 204.6 205.4 204.2 202.9 201 196.6 202.1 208.7 214.9 219.4 223.4 230.7 235.4 238.2 240.9 244.3 247.4 250.7 254.1 256.5 258.6 260.8 263 264.5 266.6 268.3 269.9 271.6 273.2 274.6 275 275.4 275.4 275.3 275 274.5 274.2 273.7 273.3 272.5 271.4 270.1 268 265.3 262.2 257.9 252.7 246.9 240.7 234.6 227.7 219.2 207.5 199.1 203.9 207 209.6 212.1 214.5 216.3 216.3 210.8 207.9 212.1 217.8 222.4 226.5 230.3 233.6 236.4 239.2 241.3 242.9 244.1 245.1 245.7 245.6 245.5 243.8 242.4 239.9 236.5 231.3 221 202.9 179.3 161.8 162 158.1 144.8 136 132.3 130.8 137.1 156.8 172 168.7 151.8 139.2 134.7 138 154.8 170.1 178.1 182.9 186.3 189.6 190.9 191.1 191.4 180.3 169.6 179.4 205.4 221.6 227.6
115.8 114 113.3 111.3 108.7 106.7 103.7 99.9 99.6 97.7 97.1 93 96 107.9 113.8 118.3 121.3 123.7 125.7 127.4 128.7 130.5 131.2 131.5 131.5 130.8 129.7 128.5 127.1 123.7 120.3 116.8 111.8 106.4 100.8 89.9 68.4 61.6 63.9 64.2 65.9 68.7 72.3 75 73.1 70.9 68.8 72.7 75.9 78.4 81.4 84.6 87.8 91.4 95.5 99.3 102.7 105.2 107.6 109.4 110.9 111.2 111.5 113.9 121.2 130.3 139.3 147 151.7 155 158.5 161 162.5 163.4 162.7 155.8 153.8 166.1 175.1 183.3 187.9 192 198.3 205.8 209.9 211.4 210.2 208.5 207.1 206.2 204.4 210.8 216.6 220.3 224.6 231.6 236.1 237.6 240.6 244.7 248.8 251.8 254.5 256.7 258.7 260.7 262.3 264.3 267.3 269 270.8 272.6 274.4 275.7 275.9 276 275.3 274.7 274.2 273.6 273.2 272.4 271.6 270.7 269.6 268.1 266 263.6 260.6 256.1 251 245.6 239.8 234 226.4 217.5 206 195 197 200.5 203.2 206.4 208.6 208.9 199 203.9 209.6 215 219.3 224 228.1 231.7 234.8 237.8 239.9 241.3 243 244.6 245.6 246 246.1 245.5 245.4 244.4 241.9 238.6 233.4 218 196.6 184.9 180.6 182.2 174.5 161 146.2 135.6 131.2 130.7 139.2 154.4 159.8 144.4 134.7 132.1 136.1 151.1 163.2 173.6 179.7 183.2 185.9 186.9 185.8 181.4 166.6 161.9 174.8 203.9 218.2 223.2
119.4 116.4 114.1 113 111.7 109.3 107.3 105.7 103.9 102 99.8 96.6 90 97.7 108.8 114.1 117.5 120.8 123.1 124.5 126.1 128.1 128.8 129.2 129.5 130.1 129.3 128 126.8 125 121.8 118.8 114.7 110 104.1 97.4 77.2 61.7 62.3 63.2 64.6 66.5 68.1 70.5 68.2 66.9 70.4 73 75.7 78.6 81.8 84.7 87.5 91.7 96.5 100.3 103.9 107.1 109.4 112.2 114.9 114.9 115.1 115.9 120.9 132.2 141.7 149.4 154.6 158.5 162.3 164.8 167.3 169.2 168.2 166.3 156.1 165.8 176.2 184.2 191.1 195.9 203.9 212.5 214.4 215 215.5 213.9 212.8 212.1 210.6 213.4 217.6 221.6 225.4 230.4 233.9 237.5 240 243.7 243.9 251.5 254.2 256.1 257.8 259.6 261.7 264.1 267.9 269.7 271.5 273.3 275 275.9 275.7 275 274.7 274.2 273.6 272.8 270.8 269.6 269.1 268.5 267.6 266.1 264 261.8 258.5 254.3 249.3 244 238.3 232.6 225.8 218.2 208.5 197.5 188.8 194.2 197.8 200 199.3 194.2 200.2 207.6 212.7 216.8 220.6 225.6 229.7 232.8 235.9 238.7 240.3 241.6 243.3 245.2 246.5 247 247 247.3 247.2 246.2 243.7 240.3 235.3 225.7 215.1 204.6 200.8 193.4 187 178.8 162.2 148.4 134.7 130.9 128.4 136.5 153 139.3 131.7 130.6 134.2 142.5 153.8 165.6 173.8 179.5 181.9 181.9 176.3 164.7 155.3 154.5 175.2 204.9 212.9 218
122.9 120.6 118.8 117.3 115.5 113.9 111.8 109.6 107.3 104.3 101.5 98.1 92.9 85.9 101.2 109.1 113.8 117.1 119.8 121.8 123.7 125.5 126.3 127.1 127.6 128.3 128.8 127.6 126.3 124.8 122.8 120.1 115.9 112.7 107.3 100.7 88.3 63.9 62.7 63.1 63.6 64.5 65.4 65.9 68.8 69.2 71.8 72.3 76.2 78.6 81.7 84.4 87.6 92 96.4 101.4 105.4 108.9 112.1 115 117.9 119.9 120 118.1 121.9 133.6 143.7 151.5 156.7 161.9 165.8 168.5 171.3 174 175.4 175.8 171.1 164.6 177.6 185.6 192.4 199.1 207.5 214.4 216.2 217.2 218 217.7 216.4 215.7 215.4 216.6 218.7 221.9 225.4 228.9 230.8 231.3 236.4 240.8 242.9 246.6 252.8 254 257.1 258.5 260.6 264.1 268 270.4 272.1 273.8 275.2 276.1 275.5 274.1 273.9 273.6 272.6 270.5 268.6 267 266.3 265.7 265.1 263.7 261.7 259.2 255.8 251.9 247.1 242.1 236.5 230.9 225.4 218.4 210.3 200.9 188.8 186 189.8 188.8 189.9 197.4 204.5 209.4 214.4 218.6 222.5 227.3 230.9 233.9 236.5 239 240.6 242.2 243.8 245.6 247.5 248.2 248.9 249.4 249.7 248.2 245.4 242.1 237 230.9 222.6 215.5 208.5 202.1 195.8 189.6 179.5 164.4 147 133.6 128.7 128.7 131.8 136.2 129.5 128.4 130.2 133.2 142.3 153.3 164.4 173.2 176 167.6 158.5 150.1 147.5 155.8 180.8 200.4 207.5 212.7
132.3 127.1 123.5 121.7 120.2 118.7 116 113.2 110 106.9 103.8 100.4 94.4 87.1 88.8 104.1 109.6 114 116.6 119.3 121.7 123 123.9 124.6 125.5 126.2 126.9 126.7 125.6 124.5 122.6 120 117.3 113.1 108.7 102.5 94.5 76.6 61 62.1 63.3 63.6 64 66.8 68.7 70.2 71.5 74.2 77.9 80 81.2 84.2 87.9 92.1 96.6 102 106.7 110.8 114.6 118.2 122.1 126.2 128 123.3 122.6 132.4 143.7 153.1 159.4 164.8 169 172.2 175 177.8 179.6 180.4 180.1 171.9 178.8 189.5 195.7 202.6 209.6 215.8 217.6 219.6 220.6 220.1 219.2 219.2 219 219.3 219.7 221.9 224.2 226.7 230.1 232.6 234.5 237.3 241.5 244.3 245.4 251.3 255.2 258.6 260.7 264.7 268.6 270.8 272.5 274.2 274.8 275.2 274.6 273.3 273 272.5 270.8 268.3 266.5 264.6 263.5 262.7 261.9 260.5 259 256.3 252.7 248.9 243.9 239.5 234.4 229 223.6 217 209.9 203.1 196 180.9 181.6 186.2 192.7 201.9 206.9 211.4 216.3 220.5 224.8 228.9 231.7 234.4 237 239.3 241.2 243.8 246.1 248 249.9 251.2 252.5 252.9 253.1 251.5 249 246 241.6 236.2 229.4 222.2 215.9 210 202.6 197.9 190.3 176.9 157.5 138.4 130.6 128.3 126.9 126.1 126.5 126 126.5 126.3 128.3 137.7 149.7 159.3 159.8 151.7 143.4 141.4 145.3 163.5 185.7 194.5 201.9 208
142.7 139.6 135.9 132.1 129.6 126 121.5 117.4 112.6 109.2 106.1 102.6 97.6 91.1 84.2 97.2 106 109.9 112.9 115.6 118.6 120.4 121.4 122.3 123.3 124.2 124.7 125.2 124.5 123.7 122.6 120 117.4 113.9 109.3 104.5 97.8 84.7 67.9 61.5 62 62.7 65.2 68.2 70 71.7 73.3 76.2 78.8 81 81.8 84.9 87.8 92.3 97.1 102.5 107.3 112.6 116.5 121.7 126.9 130.8 133.2 131.4 126.5 130.8 142.2 153.6 161.6 167.3 171.8 175.2 178.3 180.7 182.8 184.3 185 184 180.5 193 199.9 206.3 213.3 217.5 220 222.4 223.3 222.8 222.2 221.9 222 221.6 221.4 222.2 224.3 226.2 227.2 229.4 231.8 234 235.8 240.1 245.1 249.5 253.3 257.3 260.5 265 268.5 270.4 272.1 273.6 273.9 274.2 273.5 272.5 272 270.6 268.6 265.7 262.6 260.9 259.7 258.9 258.1 256.9 254.4 252.3 248.7 244.2 239.8 235.5 230.8 225.7 220.6 214.4 208.6 202.7 198.4 177.3 179 184.9 196.8 205 209.5 214.1 218.5 222.7 226.7 229.3 231.8 234.4 237.1 240.6 243.4 246.1 248.5 251.2 253.3 255.2 256.2 256.7 256.5 254.9 252.7 249.8 245.5 241.9 235.5 228.4 222.3 214.4 208 202.8 194.5 181.2 161 144.1 132.9 130.3 128.5 126.7 125 123.6 124.2 122.9 122.5 125.5 131.8 139 141.1 136.3 134.7 137.5 152.4 171 181.2 189.3 196.8 203.9
146.1 142.9 139.6 136.8 133.8 129.5 125.4 120.6 116.2 112.5 108.7 104.7 99.7 93.9 86.6 85.3 99.6 105 108.9 112.4 115.1 117.4 119 120 121.1 122.2 122.8 123.3 123.7 123.5 122.4 120.1 117.4 114.3 109.7 105 99.7 91.7 80.2 62.9 60.6 62.4 64.2 66.8 69.6 72.3 73.8 76.3 79.2 81.2 82.6 85.5 88.4 91.7 96 102.1 107.5 113.8 119.7 125.1 130.5 134.2 137.7 139.9 134.1 132.6 138 150.9 162.1 169 174.1 177.4 181.2 183.5 186.1 188.4 189.8 190.4 187.4 198 204.4 212 217.5 220.4 222.9 225.1 226 225.7 225.3 224.3 223.9 223.3 223.1 223.3 222.8 223.5 224.6 226 227.6 231.4 234.7 238.9 244 248.5 251.8 254.9 260.1 264.5 267.6 269.2 270.8 271.7 272.3 272.6 272.4 271.5 270.3 268.4 266 262.9 259.8 256.8 255.4 254.6 253.4 252.5 250.5 247.7 244.4 240.1 235.8 231.4 227.8 222.7 217.6 212.4 207.1 202.1 191 172.8 177.7 189.2 201.3 208.1 212.3 216.7 220.2 224 226.8 229.3 231.9 234.9 238.3 241.8 245.2 248.1 251.3 254.4 256.9 258.6 259.6 260.4 259.8 258.1 256.2 253.7 249.5 247.1 241 234.3 226.4 218.5 212.1 203.2 188.4 170.2 153.7 140.9 136.1 133.3 131.2 130.4 129.5 128.5 126.4 125 121.6 121 122.5 125.8 126.2 127.8 130.7 140.5 155.6 167.4 177 185.7 193.9 200.9
149.2 146 142.3 137.9 134.3 131.3 126.8 123.5 119.7 116.7 113.2 108.5 101.7 96.7 90 83.8 88.6 99.2 104.2 108.6 111.3 113.5 115.3 117.4 118.6 119.9 120.8 121.3 121.8 122.1 121.2 119.6 116.9 113.8 110.3 105.7 101.4 95.5 85.8 73.1 60.2 61.4 63.5 66 69 72 74.3 76.6 78.4 80 81.9 85.8 89.2 92.3 97 103.4 109.3 115.8 122.6 128.3 133.7 137.5 141.1 143.7 145.9 144.5 147.9 149.3 162.8 170.6 175.7 179.6 183.6 187.1 189.7 192.1 194.4 197.1 198.2 202.1 209.6 217.9 221.2 224.1 226.8 227.8 228.7 228.6 227.9 226.8 225.3 224.4 223.5 222.6 221.5 221.1 220.7 220.6 225.9 230.6 234.1 238.3 242.5 247.4 250.7 254 258.5 263.5 264.9 266.1 267.2 268.7 270.5 270.9 270.4 268.6 266.9 265.4 262.9 260 256.8 253.7 251 249.9 248.8 247.4 244.9 242.7 240 235.7 231.6 228.1 224.2 219.6 214.3 209.1 204.1 198.2 178.6 171.9 181.1 194.7 205.5 209.9 214.1 217.8 221.3 223.9 226.6 229.2 231.9 235.6 239 242.6 246.3 249.9 253.4 256.5 259.2 260.6 261.7 261.9 262 261.2 259.5 257.1 253.8 249.7 244.1 238.1 230.5 222.3 213.4 195.4 172.8 158 145.9 143.3 143.4 140 136.9 138.5 138.6 135.5 132.1 130.7 125.5 120.9 119.4 121 120.4 122.2 127.3 134.5 149 162.9 174.2 183 190.3 198.6
151.4 147.7 143.8 139 134.5 131.1 127.8 124.8 122.2 120.2 116.8 112.4 106.4 98.3 92 86.1 79.9 88.1 98.5 103.9 107.5 109.7 111.6 114.2 115.7 117.1 118.7 119.3 119.8 120.3 119.7 118.3 116 113.1 109.3 106.1 101.6 96.6 88 79.1 64.5 59.6 62.7 65.6 68.4 71.3 74.2 76.8 78.3 80.7 83.8 87.1 90.6 95.6 100.3 106.4 112.6 119 124.7 130 135.4 140.2 144.7 149.5 153.4 155.5 157.7 159 167.6 174.1 178.2 182.2 186.2 190.3 193.6 196 199.7 203.4 205.7 208.6 215.7 221 224.1 228.6 230.4 230.4 230.9 230.5 229.2 227.8 225.8 224.8 224.1 221.7 219 212 214.9 220.8 224.2 228.8 232.8 236.6 240.4 245.8 249.6 252.2 256.2 259.5 261.5 262.5 263.6 264.7 266.8 268 265.8 263.8 262 260.1 258.4 256.2 253.4 250.2 246.2 244 243.1 242.2 240.2 237.9 235.1 231.8 228.6 224.8 220.9 216.4 210.9 205.9 200.6 189.7 171.7 171.6 183.6 198.3 206.5 211.4 215.9 218.4 221.3 224 226.6 229.3 231.9 235.8 239.8 243.3 246.9 250.6 254.2 258.5 261.2 261.5 262.5 263.4 263.8 263.6 262.1 259.5 256.2 251.6 246.4 240.5 233.6 223.8 207.4 183 165.1 153.7 152.8 160.4 161.7 153.6 143.7 142.6 141.8 139.9 138.8 137.6 129.3 124.7 122.4 120.2 118.9 118.4 120.9 127.3 136.9 149.1 170.5 181.1 189.7 196.8
153.2 149.4 145 140.1 134.2 129.7 127.2 125.8 123.4 121.6 118.5 114.8 109.7 103.8 94.8 88.9 83 77.9 90.2 97.8 102.6 105.8 107.9 110.5 112.9 114.5 116.1 117.2 117.7 118.2 118.1 116.9 114.7 112 107.7 103.4 100.8 96.5 88.8 80.3 66.1 59.7 63.6 66.3 67.5 70.3 73.7 76.7 79.7 82.8 85.1 88.9 92.7 97.2 103.7 109.3 115.1 121.6 127.3 132.7 138.1 142.8 147.6 152.5 157.1 160.5 164 167.5 172.4 177 181 185 188.9 193 197.2 200.3 204.4 208.5 211.4 215.8 220.4 225.1 228.3 230.7 232.8 232.9 232.7 231.4 230.1 228.5 226.3 225.3 223.9 220.6 216.7 209.6 214.1 219.1 222.6 227.1 230.8 234.3 238.3 243.3 246.8 250.1 253.2 256.2 258.4 259.4 260.3 261.1 261.5 261.3 260.3 259.1 257.2 255.5 253.9 252.2 249.5 246.2 242.7 238.2 237.1 236.5 235.1 233 230.7 228.3 225.5 222 218.7 213.8 208.6 203 197.1 182.1 168.2 169.6 187.9 199.7 206.2 210.8 215.1 217.3 220.1 223.3 226.5 229.3 232 235.8 240.2 244 247.5 251.2 254.9 258.1 260.3 261.3 263.1 264 264.9 264.9 263.1 261.2 257.7 253.2 248 241.9 234.9 220.9 197.3 174.2 162.8 166.7 174.2 179.8 177.3 168.2 154.5 156.9 157.4 151.6 147.2 143.3 130 127.6 126.6 124 121.1 118.1 117.3 120.5 127.6 143.9 166.3 178.6 188.1 194.5
154.7 150.8 146.3 140.2 135 126.3 125 124.4 123.3 121.5 119.2 116.7 112.9 107.6 100.9 93.2 86.7 80.3 76.6 90.4 95.3 99.1 103.4 107.7 110.5 111.9 113.5 115.1 115.7 116 115.9 115 112.9 110.5 106.7 102 96.7 94.5 86.3 78.7 63.5 61 63.6 65.5 66.2 69.1 72.7 76.6 79 82.3 86.8 89.6 93.8 99.3 105.5 111 117.8 123.8 129.7 135.4 140.9 145.6 150.5 155.4 160.1 165 168.5 171.7 175.6 180 184 188.2 192.2 196.6 200.6 205.2 209.7 214.1 219.4 222 224.9 228.3 231 232.8 234.9 234.7 233.9 232.3 231 229 226.8 224.9 222.1 218.7 213.1 205.1 212.4 216.8 220.6 225.4 228.4 231.7 235.5 240 243.8 247 250 252.9 254.5 255.4 256.5 257.4 257 256.4 255.4 254.5 252.8 251.1 249.4 247.7 244.9 241.7 238.3 233.5 231 230.8 230.1 228.5 227.6 225.1 222.8 219.8 216 212 207.7 200.8 191.8 175.5 164.4 169.1 189.5 199.4 205.3 210 212.9 215.9 218.8 222 225.3 228.5 231.7 235.7 239.8 243.9 247.2 251.8 255.4 258.6 260.5 262.1 263.7 264.6 265.3 265.2 263.6 261.7 258.6 254.2 249.2 243 233.3 214.8 189.1 176.7 178 185.5 193.5 193.2 188.6 179 165.2 173.4 171.2 163 154.6 141.3 134.9 138.7 139.3 134.6 128.6 121.9 116.7 116 120.4 139.6 161.9 175.6 185.4 190.7
156.2 152.4 148.6 142.7 136.4 125.5 119.7 120.4 121.6 120.9 119.2 117.5 113.9 110 104.5 96.6 89.8 85 78.7 78.8 88 94.2 99.2 104.3 107.8 109.5 111 112.5 113.6 113.8 113.7 113.1 111.1 108.8 105.7 101.4 91.8 87.7 84.2 75.4 62.5 58.4 62.9 64.3 66.2 68.4 72.8 76.1 78.5 82 88.5 88.8 94.7 101.4 107.2 113 120 126 131.9 137.9 143.6 148.4 153.5 158.6 164 167.5 171 174.6 178.2 182.7 187.1 191.6 195.8 200.2 204.4 209.4 214.3 220.8 223.7 225.9 228.4 231 233.8 235.6 236.7 235.8 235.1 233.5 231.8 228.8 225.6 223 219.6 216.2 208.4 201 209 213.9 217.7 221.7 225 229.1 232.8 236.6 240.8 243.9 246.8 249.6 251.3 252.1 253 253.7 253.4 253 252 251 249 246.8 245.2 242.8 240.1 236.9 233.9 228.9 225.7 225 225.2 224.7 223.8 222.3 220.2 217.8 215.2 211.5 207.5 201.6 191.3 171.3 159.8 170 188.8 198.9 203.8 207.3 209.3 212.7 217 220.2 223.4 226.7 231.1 235.2 239.4 242.5 246.4 250.3 255 258.1 260.1 262 263.9 264.5 265.1 264.7 262.9 261.7 259.7 255.5 250.2 243.2 230.6 207.1 189.5 192.7 198.7 204.1 206.8 204.2 200.2 185.2 182.7 186.8 180.5 170.2 158.5 149.6 147.9 150.8 149.1 145.3 138.4 127.7 119.5 115.8 116.8 132.7 151.9 171 181 187.3
158.4 155 151.2 145.4 139.2 128 117.7 115.2 116.9 117.3 111.4 108.2 107.4 105.6 104.8 100 93.5 87.5 82.1 76.2 79.9 89.5 95.5 100.8 104.7 107.1 108.6 110.1 111.5 111.6 111.9 111.2 109.4 107.1 104.5 100.6 89.5 80.5 78 73.4 61.8 59.2 60.9 63.6 64.5 67.2 72.4 75.8 78.1 81.1 84.5 89.7 95.9 102.6 108.3 114.5 121.7 128.5 134.4 140.4 147.2 152.2 157.1 162.2 166.5 170 173.7 177.4 181.1 185 190.6 195.1 199.4 203.9 208.3 213.5 218.9 224 226.3 228.6 231.2 233.9 236.4 237.6 238.3 237.4 236.2 233.7 231.1 228 224.4 221.4 217.7 213.2 203.3 199.3 205.7 210.6 214.4 218 222.4 226.5 230.1 233.9 237.7 240.7 243.5 246.3 248.1 249 249.8 250.3 249.8 249.3 248.5 247.5 245.5 242.7 240.5 237.8 235.4 233.3 229.8 225.4 220.9 220 220.3 220.8 220 219.6 218.1 216.6 214 211.4 208.4 204.5 194.1 171.8 157.7 167.2 187.6 197.4 201.5 204.6 206.9 210.7 215 218.4 221.9 226.3 230.7 234.3 237.4 240.6 244.7 248.6 253.7 256.8 259 260.7 262.6 263.8 264.6 264 262.8 261.7 260.5 256 250.5 243.8 225.1 209.1 209.9 215.6 220.4 221.2 218.5 215 210.5 193.9 198.5 196.9 189.9 181.7 172.8 167.7 161.7 160.5 157.6 153.6 145.4 135.5 124.7 116.3 114.9 127.3 141.8 160.1 171.4 178.6
160.5 157.6 153.7 149.2 143.5 132.7 118.4 113.4 111.1 108.9 105 101.4 98.4 97.5 96.3 98.1 94.1 86.9 82.6 76.7 74 82.4 91.9 97.3 101.3 104.8 106.3 107.9 109.4 109.9 110.4 110.2 108.7 106.4 102.9 97.5 87.5 77.2 71.9 69.9 65 58.9 58.2 62.2 65.7 68.3 72.5 75.2 77.5 80.4 84.3 90.4 97.5 104.3 110.3 115.6 122.8 130 137 144.3 150.7 155.8 160.7 165.6 169.4 173.1 176.8 180.5 184.4 188.3 193.7 198.2 202.4 207.3 212.1 216.9 221.7 225 227.4 230.3 233.2 235.9 238.2 239.5 240 238.8 236.9 233.4 230.4 226.9 223.4 219.7 215.3 209.9 199.3 195.4 203.3 207.2 210.6 214.6 218.7 223 227.2 231 234.2 237.2 240.1 242.9 244.8 245.8 246.5 246.7 246.2 245.7 245.2 243.6 241.1 239.3 237 234.8 232.2 228.8 225.7 221.1 215.5 215.3 215.8 217 216.6 216.7 216.6 215.2 213.2 210.9 208.5 205.3 197.1 171.8 156.9 159.7 178.6 194 199.2 199.5 204.4 208.6 211.4 216.2 220.6 224.7 228.8 232.4 235.4 238.7 242.8 246.6 251.1 253.9 256.4 258.5 260.5 262.6 263.6 263.8 262.8 261.7 260.5 257.6 253.6 246.6 237.9 232.9 231.9 232.4 231.3 229.5 227.4 224.5 219.1 213.8 212.8 208 202.7 197.5 193 186 175.8 170 165.5 160.2 151.1 143.1 132.7 116.4 114.1 117.5 134.5 147.1 159.6 165.7
162.6 160 156.2 152.2 146.5 138.4 123.1 113.1 109.4 106 103.3 98.8 94.1 93.2 90.4 88.3 84.2 81.5 80 76.9 71.9 74.6 86.2 92.9 97.4 100.9 103.5 105.7 107.6 108.4 109.2 109.5 107.9 106 103 95.9 87.9 79 71.6 65.5 63.5 58.6 58.2 62.7 65.1 68.2 71.5 74.3 76.7 81.3 85.2 92.1 100 106.1 112.9 117 123.9 131 138.6 146.8 152.9 158.3 163.3 168 172 175.9 179.9 183.7 187.6 191.7 197.7 200.4 205.3 210.1 214.1 218.3 222.6 224.9 227.7 231.5 234.8 237.5 239.6 241.6 241.7 240.7 237.7 233.1 228.6 225 221.4 217.3 212.7 207.9 195.6 191.5 200.7 204.8 207.6 210.3 214.4 218.6 223.6 227.3 230.5 233.4 236 238.7 241.4 242.5 243.1 243.2 242.8 242.3 241.3 239.6 238.1 236.1 233.6 231.3 227.5 224.2 220.9 215.6 209.9 211.3 212.7 213.8 214 214.2 214.4 213.6 212 209.4 207 203.4 198.6 174.9 157.1 152.4 171.6 188.3 193.9 191.4 199.1 201.7 203.3 212.8 218.2 222.4 226.3 230.1 233.5 236.9 240.8 244.4 248 251.1 253.7 256.2 258.8 261.9 262.7 263.6 263.5 262.8 261.9 259.7 257 252 247.9 244.7 243.1 241.4 239.4 237 234.5 231.9 227.9 225.8 223.3 219.3 215.5 211 205.7 199 190.1 182.3 174.1 168 160.5 152.4 143.2 123.8 114.9 113.7 116.2 135.2 145.2 150.8
165.1 162.3 158.4 154.4 149.2 142.4 130.3 116.5 110.1 105.4 101 96.9 96.5 93.4 89.5 86.9 85.1 83.2 80.8 78.8 76.3 72.9 75.2 85.5 91.1 96.6 100.1 103.2 104.6 106.3 107.9 108.5 107.8 106.6 104.4 99.1 94.3 89.7 81 67 61.3 58.8 58.3 60.2 63.1 67.4 70.5 73.4 76.3 81.2 86.8 93 100.7 107.2 113.1 119.8 124.9 132.2 140.3 147.9 155.1 160.8 165.7 170.2 174.5 178.5 182.4 186.3 190.4 194.7 198.5 202.2 207.2 211.6 215.4 219.6 222.9 225.1 227.9 231.4 235.6 238.5 240.5 242.5 242.7 242 238.7 232.3 226.2 222.6 219.3 215.1 210.5 205.7 198.9 187 197.4 201.5 203.8 206.2 209.8 214.4 219.3 223.2 227.6 230.5 233.2 236.3 238.8 239.7 240.4 240.2 239.8 238.8 238.1 237.2 235.2 232.8 230.3 226.9 223 219.3 215.9 209.9 204.9 207.5 209 210 210.7 211.3 211.8 211.2 209 207.1 204.7 201.6 196.8 178.4 159.6 149.7 160.6 178.4 186.9 182.8 186.5 186.2 201 210.5 216 220 223.7 227.5 231.3 234.9 238.4 241.7 245 248.6 251.2 254.7 257.9 260.9 262.1 263 264 263.9 263.2 262.1 259.9 256.9 254.1 251.9 250.3 248.2 246.5 244.1 241.1 238.2 235 232.5 230.4 228.3 224.9 219.9 214.8 208.1 199.8 190.7 182.3 174.8 170.2 161.6 150.7 130 116.5 114.1 112.9 120.1 133.2 137.4
166.4 163.9 159.6 155.3 150.2 144.6 136.8 122.6 111.6 105.9 100.9 103.5 101.9 98.2 94.7 90.4 88.3 86.9 86 83.1 79.7 77.6 72.8 72.3 81.9 90.3 95.5 98.8 101.5 103.7 105.7 107.2 107 106.3 106.3 103.5 101.3 98.1 89.7 74.7 60.1 57.8 57.8 59.1 63.4 66.1 70.5 72.4 76 78.9 84.9 92.9 100.1 106.8 112.2 121.3 124.1 132.5 141 149 156.3 163.2 168.1 172.4 176.5 180.5 184.7 188.4 192.3 196.4 200 203.2 208.3 213.1 216.9 220.6 223.1 225.5 228 230.3 233.3 238.4 241.4 243.1 243.5 240.9 236.1 229.3 224.8 220.3 217.3 212.7 208.7 204.6 200.3 184.6 192.4 197.7 199.6 201.9 205.6 210.4 215.3 220.4 225.1 228.2 231.4 234.5 235.7 236.9 237.5 237.3 237.6 237.2 236.4 234.6 231.8 229.2 226.8 222.5 218.6 214.5 210.6 204.6 199.9 203 205.4 206.2 206.9 207.7 208.3 207.6 206.8 204.7 202.4 199.6 194.7 183.5 163.8 151.2 151.3 168.9 179.2 174.6 171.8 188.1 202.4 209 213.2 217.1 220.8 224.6 228.4 231.9 235 238.3 241.7 245.6 249.3 253.1 256.8 259.9 261.4 262.4 263.4 264.4 264.4 263.6 263 261.4 259.3 257.1 255 252.9 250.5 248.4 246.3 243.8 241.2 239 236.7 234.5 231.6 226.3 220.4 214.5 208.2 197.4 189.4 182.9 175.9 161.7 141.3 125.4 117.6 115.5 113.6 112.3 123.2 128.1
167.1 164.1 160.3 155.9 150.7 145.4 138.8 129.7 114.9 105.3 106.4 107.3 105.2 102.4 98.6 95 92.7 90.6 88.1 86.2 83.1 79.8 75.9 71.7 68.5 77.6 85.7 92 95.5 99.2 102.7 105.4 106.1 106.1 106.1 105.6 103 100 93.7 79.4 61.1 57.1 56.5 57.8 62.4 64.4 67.9 70.1 71.9 75.9 81.6 88.9 96.6 103.5 111.1 117.9 124.9 133.1 140.7 148.3 156.7 164.1 169 173.2 177.2 181.4 185.7 189.6 193.5 197.3 200.4 204.3 209.1 212.7 216.3 219.5 221.9 224.1 226.1 228.2 230.3 235.7 240.7 241.9 241.5 237.5 230.7 225.5 220.9 217.8 214.7 210.5 206.8 202.7 198.7 185.9 186.5 192.7 195.1 197.6 202.2 207.2 212.2 217.6 222.6 226.4 229.6 231.7 232.9 234.4 235.7 235.9 236.2 235.5 234 232 229.2 226.4 223.3 218.9 214.7 210.3 204.2 199.3 195 199.7 201.5 202.3 203.1 203.8 204.3 204 204.8 203.8 202.2 199.5 195 188.4 171.3 152.5 147.3 161.5 173.1 164.3 173.7 190.8 199.6 205.2 210 213.7 217.8 221.6 225.2 229 232 234.9 239.1 243.4 247.9 251.4 255.2 258.9 260.8 261.8 263 264.3 265.3 265.5 265.4 263.8 261.9 260 258.1 256.3 254.4 252.2 249.9 248.1 246.2 244.2 242 239.9 236.9 232.5 226 219.7 213 204.4 195.5 187 171.1 148.1 130.4 123.5 119.4 116.9 114.4 112.9 113.3 116.6
166.5 163.8 160.5 156.3 151.5 146.2 139.7 131.2 116.8 105.4 109.4 110.4 108.5 105.7 102.9 100.5 97.6 94.5 91.6 90.1 86.8 81.6 76.9 74.7 71.8 67.7 68.7 77.3 86 94.5 100.4 103.4 104.7 105.5 105.6 106 103.1 100 95.8 85 65 57.4 56 59 66.4 67.1 68.2 70.7 73.4 76.4 78.9 82.1 88.5 98.6 106.8 116.7 124.8 130.7 137.4 146.3 154.4 162 167.8 172.9 177.9 182.2 186.1 189.8 193.9 197.6 201.3 204.6 208.8 212 215.7 217.9 219.9 221.3 222.5 224.4 226.6 230.2 235.4 236.5 235.1 229.9 226.3 221.8 217.8 215 212 208.1 204.9 200.9 196.8 187.1 179.1 187.8 190.1 193.8 198.3 204.1 209.2 214.8 219.8 224.5 227.7 228.7 230.8 233.5 234.3 234.7 234.3 233.1 231.4 229.7 226.9 223.7 220.4 216.3 212.1 206.1 200 193 192.2 193.9 197.3 197.8 199 200.4 201.8 202.9 203.9 203.9 202.4 199.6 195.6 190 178 155.6 144.8 154.9 160 156.6 172.8 185.3 191.5 198.3 203.5 208.7 214 217.8 221.2 225.8 229.2 232.8 236.9 241.6 247.3 250.8 254.4 257.9 260.4 262.2 263.5 264.6 265.6 266.4 266.3 265.3 263.6 261.7 260.2 258.7 256.9 254.8 253.1 251.7 249.9 248.5 246.8 244.3 240.7 236.1 230.2 224.1 217.7 211.1 201 187.2 158.5 139.1 130.3 129.8 127 118.9 116 113.8 112.6 110.6
165.1 162.6 159.7 155.8 151.4 146.2 140 130.8 116.8 108.8 114.6 117.5 114 110 107.8 106.6 103.2 99.3 95.7 94.2 89.3 83.8 79.2 76.2 73.9 71.9 69 63.2 71.6 86.2 97.6 101.3 103.6 104.5 105 105.5 103.4 100.5 97.3 89.6 66.7 56.8 56.2 58.4 64.6 66.6 68.7 70.7 74.1 78.4 80.7 83 85.2 88.5 99.4 110 119.3 126.8 133.7 141.1 148 155.8 162.9 170.4 176.7 181.3 184.7 189.5 193.7 197.7 201.3 204.9 207.8 211.1 214 215.7 217.2 218.5 219.7 220.9 222.8 225 227 227.8 226.7 224.2 222 218.2 215 212.2 209.3 205.7 202.4 198.8 194.3 186.1 173.5 179.4 181.4 187.1 192.9 200.1 206.1 212.2 216.6 220.9 224.2 227.1 229.8 231.9 232.7 233.2 232.5 231.7 230 228.2 225.2 222.2 218.7 214.4 210 203.2 196.8 191.4 186.4 187.9 191.8 193.3 194.8 197.4 199.4 200.8 202.3 203.8 202.6 199.2 193.6 186 174.6 157.9 142.2 145.4 148.4 153.3 163.6 170.9 175 179.9 185 191 197.7 206.3 214.6 222.7 226.5 230.6 235 240.2 246 250.2 253.7 257.2 259.3 261.2 263.4 264.7 265.9 266.6 266.5 264.9 263.6 262.3 261.1 259.3 258 256.8 255.7 254 253.4 251.8 249.7 246.6 243.1 238.8 233.6 228.2 222.2 215.7 206.6 187.8 156.8 139.7 143.5 146.3 141.4 129 118.5 115.6 115.1 112.5
163.7 161.1 158.8 155.2 151 145.7 139.6 131.2 116.8 111.3 122.2 123.8 122.6 118.7 118.2 114.7 109.9 105.9 101 99.8 93.2 86 81.2 77.5 75.6 73.3 70.4 66.3 63 72.2 91.3 99.2 101.9 103.6 104.6 105 104 101.4 98.2 92.1 68.7 56.1 56 62.5 64.4 66.4 69.3 71.8 75.7 79.8 85.4 88.2 91.3 94.5 93.8 96.7 107.3 116.2 125 133 140.3 149 155.6 163 170.3 176.6 180.5 186.3 191.4 196.5 200.8 204.2 206.7 209.2 211.4 212.6 214.2 215.6 216.8 218.1 219.4 220.6 221.4 221.5 221.2 219.2 217.3 215 212.2 209.4 206.6 203.2 199.7 196.2 192.4 182.1 169.5 173.9 178.1 183.2 187.6 191.6 197.6 203 207.6 213 217.8 223.2 228.5 230.4 231.4 232 231.7 231.2 229.6 227.1 224.1 221.1 217.4 213.2 209.7 204.8 200.1 195.1 184.6 182 187.9 190.7 191.9 194.8 197.3 199.7 201.4 202.7 200.6 194.2 179.3 168.3 156.8 146.1 141.4 143.2 146.9 150.4 154.7 159.3 164.4 170.9 177.9 191.2 208.3 215.6 220.4 224.8 228.1 231.5 235.2 239.4 244.7 249.9 253.2 256.3 258.5 260.6 262.7 264.2 265 265.2 265 263.7 262.5 261.8 260.9 259.5 258.3 257.5 256.6 256.1 255.4 254 251 248 244.7 240.4 235.7 231.4 226 220 212.1 187.7 158.8 160.3 169.4 165.1 154 142.8 129 119.8 117.2 115.6
162.1 159.7 157.3 154.1 149.8 143.7 137.8 126.6 121.1 113.5 127 131.6 131.6 131.7 128.9 125.2 118.8 112 108.3 106.7 101.4 95.1 85.9 82.1 78.8 76 72.7 70.3 68.4 62.5 75.9 95.4 100.4 102.3 103.4 103.6 103.2 101.7 98.9 92.8 65.9 56.5 60.2 62.9 64.3 66.7 69.6 73.1 78.5 86 93.3 97.2 99.4 100.8 102.4 101.8 103 102.8 112.6 120.5 130 138.6 145.6 152.7 159.1 167.3 175.2 183.1 187.7 194 198.7 202.5 204.6 206.2 207.9 209.4 211.2 212.6 213.9 215.2 216.7 216.9 217.3 216.9 216.2 214.8 213.7 211.6 209.9 207 204.2 201.3 197.8 194.3 190.3 176 174.2 180.8 185.5 189.1 195.5 200.7 202.2 210 217.6 221.8 224.7 226.7 228.2 230.6 231.2 231.6 231.9 231.3 229.8 227.3 224.4 221.5 218 214.7 211.4 207.5 203 197.6 189 176.9 182.7 186.1 188.9 192.3 195.5 197.8 199.3 198.9 194.5 178.8 165.4 153.9 144.4 139.2 141 145.1 149.3 153.4 158.8 167.4 177.7 187.2 198.4 207.1 214 219.5 223.6 227.3 232.2 236.2 239.8 243.7 246 249.5 253.5 255.8 257.2 259.3 261.4 262.2 262.6 262.6 262.3 262.5 261.5 260.6 259.9 259 258.1 257.4 256.9 256.4 255.3 253.5 250.9 248 244.7 241.2 237.2 233.3 228.9 223.8 217.2 197.5 182.4 189.2 190.3 183.1 167.8 153.2 137.9 123.4 119 121.5
160.4 158.2 154.8 151.4 147.3 141.9 134.1 128.4 123 120.4 130.5 139.4 139.9 138.9 137.4 133.6 127.7 119.7 116.9 115.1 111.3 104.5 96.9 89.3 84.8 79.8 75.8 72.6 69.6 65.1 62.5 83.4 98.8 100.9 102.1 102.2 101.7 100.9 98 92.1 66.4 55 57.2 61.6 63.9 66.3 70 77.7 85.3 91.6 98.3 103.4 106 109.8 110.7 111.1 111.1 110.4 110 116.6 119.6 123.7 128.4 137.6 146.3 156.4 167.8 177.5 184.9 191.7 195.4 198.5 200.6 202.3 204.1 206.6 208.2 209.7 211.1 212.6 214 214 214.1 213.5 212.3 211.2 210 208 205.9 204.5 202.1 199.5 196.4 193.3 188.3 169 174.2 182.2 187.8 192.9 199.4 205.6 209.9 215.1 218.8 222.5 226 228.1 229.8 231.2 231.7 232.2 232 231.4 229.9 227.4 224.7 221.7 218.8 215.4 212.1 209.1 205 201.1 194.8 180.5 177.1 181.2 185.3 190.8 192.9 195 196.2 194.9 182.3 167.1 152.2 141.6 138 145.4 143.8 145.4 148.8 152.2 158.1 166.4 177.5 187.7 198.5 207.1 214.9 221.1 225.8 230.6 235.4 240.5 244.8 247.7 249.2 251.9 254.3 255.5 256.9 258.2 259.7 260.2 260.1 259.7 259.3 259.2 259.1 258.6 257.7 257 256.5 256.2 255.9 255.5 254 252.2 249.9 247.3 244.5 241.4 237.9 234.3 231.1 226.9 221.4 212.4 208.5 205.2 199.8 192.5 182.3 163.8 138.8 124.3 122.5 132.7
157.6 155.5 152.9 150.1 145.9 139.5 135.5 132.4 120.2 136.2 140.8 144.6 145.6 145.2 143.7 140.8 134.8 129.3 128.1 126.4 122.3 115.9 108.5 97.2 95.2 92.4 82.8 75.6 71.7 69.1 63 70.9 91.2 99.2 100.8 100.8 99.4 98.6 96.2 92.2 67.7 54.8 55.8 61.2 63.3 67.6 73.7 83 90.2 97.2 102.8 107.6 112.6 117.5 120.8 121.1 119.4 117.6 118.2 120.5 128.1 134.8 137 140.5 140.3 140.8 150.7 171.8 180.9 187.5 192.6 195.5 196.4 198.1 201 203.9 205.7 207.8 209.2 210.8 211.7 210.9 210.9 210.1 209 207.8 206.5 204.1 202.1 200.6 198.9 196.9 194.9 192.3 179 163.4 177.4 184.6 190 195.4 201.2 208.1 212.8 217.1 220.7 224.4 227.2 229.4 231 232.3 232.9 232.4 231.7 231 229.2 226.8 224.3 221.4 218.6 215.8 212.7 209.6 206.5 203.2 199.1 191 174.5 174 177 178.7 182.5 187.6 189.1 184.3 170.7 153.3 140.1 135.9 145.1 150.7 151.8 152.2 156 161.1 165.4 166.7 174.8 183.3 194.6 205.3 215.2 223 227.9 233.2 238.5 244.4 247.5 250.2 252.4 253.8 255 255.7 256.2 257 257.1 257.2 257.2 256.8 256.1 255.8 256.4 256 255.3 254.7 254.3 254.1 253.7 253.1 251.9 250.1 247.6 245.5 243.2 240.8 238 234.8 231.7 229 224.7 219.8 215.2 210.9 206.3 199.8 191.7 175.4 146.2 128.3 126.7 141.5
155.5 153.8 151.3 147.6 143.6 142.1 137.5 129.8 134.7 144.6 148 149.9 150.2 149.6 148.5 146.4 142.1 140.8 139.3 136.2 132.4 126.6 117.5 113.1 108.7 104.7 95.4 85.4 73.1 68.8 67 61 79.4 96.5 98.9 98.2 96.9 95.5 93.7 88.4 69.2 54.6 55.5 60.2 63.1 68.3 76.3 86 93.1 100.6 106.2 112.1 117.1 122.4 126.5 129 130.2 127.6 125.2 132.6 137.7 143.2 148.1 152.2 155.2 157.9 153.8 164.9 175.4 183.3 188.8 191.9 195.3 196.4 198.2 200.9 203.8 206.4 207.6 209 209.5 209 208.1 206.9 205.6 204.5 202.9 200.5 198.3 197 195.9 193.9 191.9 190.6 174.3 161.8 180 187.8 193.2 198.3 203.1 210.5 215 219 222.5 226 228.3 230.6 231.9 233.2 233.7 232.5 231.6 230.7 228.2 225.6 223 220.9 218.1 215.5 213 210.1 207 203.8 201.1 195.1 181.5 171.4 163.5 160.8 162.2 163.9 172.5 173.4 157.1 139.2 133.3 137.6 148.7 152 155.6 159.5 164.3 169.1 175.7 182.9 186.3 188.4 192.7 203.4 216.2 223.9 230.5 235.8 241.4 245.7 248.8 251.2 253 254.5 255.3 255.8 255.9 256.3 255.2 254.7 253.6 253 252.8 252.4 252.5 251.9 251.6 251.3 250.7 250.2 250.3 249.4 248.2 246.7 244.7 242.8 240.9 238.9 237 234.8 232.1 229.7 227.2 223.4 219.4 215.3 211.1 205.7 198.6 185.7 157.2 137.1 131.3 147.4
153.8 152.4 150.1 148.6 147.6 144.5 140.8 136.3 147.8 151.3 153.1 154 154.7 153.8 152.8 151.8 149.9 148.6 146.4 143.7 140 135.8 131.5 126.8 121.7 116.6 109.2 96.9 80 68.8 65.7 59.9 68.5 85.4 95.2 95 90.2 82.1 76.4 66.6 56.1 54.1 55.9 60.5 63.3 67.6 77.4 88 95.7 102.8 108.8 115.4 121.9 127.1 131.2 133.9 135.9 137.2 132.4 137 143.7 149.1 154.4 159 163.2 168.4 170 155.8 168.3 175.6 181.8 186.7 187.9 191.4 196.7 199.4 202 204.6 206.1 207.3 207.3 207 206.1 204.5 202.6 201.2 199.3 196.9 194.5 193.5 193.3 191.9 190.8 189.5 174.9 158.9 175 190.5 196 200.8 205.6 212.2 216.7 220.8 224 227.1 229.3 230.9 232 232.8 232.6 232.1 230.7 228.9 226.6 224 221.9 219.9 217.5 215 212.7 210.1 207.5 204 200.1 196.5 191.5 182.6 177.5 163.1 150 147.6 147.7 154.5 142.8 131.6 130.9 143.3 149.6 154.2 161 167.3 172 177.7 182.3 190.4 197.8 202.9 207.2 211.7 219.8 227.3 233.2 237.5 242.2 245.9 248.9 251.2 253 254.4 255.3 255.8 256 255.1 253.8 252.2 249.7 249.1 248.5 248.7 248.3 247.7 247.5 247.3 246.8 246.5 246.3 245.6 244.6 243.7 240.9 239.3 238.1 236.4 234.6 232.8 231.5 229.6 227.6 224.6 221.5 217.9 213.9 209.6 204.1 196 175.2 149.2 138.4 156.9
154.3 153.6 152.6 152 150.7 147.7 141.3 151.3 154.3 155.6 156.8 157.9 158.7 158.5 157.8 156.6 154.7 152.6 150.5 148.1 145.5 142.7 139.6 135.6 131.2 126.1 118.7 108 92.5 71.1 64.3 60 57.8 75.7 92.5 86.6 72.3 64.3 59.1 54.3 53.9 55.2 57.7 60.2 63.5 66.3 76.2 86.9 95.4 103.8 111.5 119.7 126.4 131.5 135.7 139.1 141.5 143.6 141.7 139.6 147.3 153.7 158.9 163.7 169.1 173.8 177.2 177 177.5 175.7 173.6 180.4 189.5 193.8 196.5 199.2 201.8 202.9 204 205.1 205 204.8 204 202.5 200.3 197.9 195.6 192.8 190.9 190.2 190.4 190.1 189 188 178.4 158.9 168.6 191.9 197.6 202.7 207.6 213.8 218.4 221.2 224.3 226.8 228.5 230.2 231.4 231.6 231.2 230.5 228.8 227 225.1 222.8 220.9 218.9 216.9 214.6 212.4 209.4 206.5 203.4 200.4 197.6 193.5 190.2 185.7 177.9 160.4 142.5 139.2 137.1 132 129.5 132.2 144 151.7 159.2 166.7 174.1 180.4 186.5 191.1 197.9 205.4 211.2 215.7 220.7 225.9 231 234.2 238.2 242.8 246 249.1 251.2 252.8 254.1 254.9 255.5 254.9 253.6 252.1 250 247 245.2 243.7 244.1 244.1 243 241.7 242.2 241.6 240.7 240.5 240.4 238.9 237 236.2 235.1 234.2 233.1 231.3 230.1 229.4 228.6 226.1 223.6 221.2 219.1 216.5 212.9 208.9 203.3 191.1 168.1 153.7 169.6
