ncols 200
nrows 83
xllcorner 250000
yllcorner 232750
cellsize 50
360.1 362.1 362.9 362.6 361 358.9 356.1 352.8 349.4 346 342.6 338.7 334.5 328.2 319.3 298.8 302.8 305.7 303.7 298.7 288.1 282.7 265.3 276.7 293.9 300.2 306.3 312.1 316.5 316.9 316.2 315.1 313.2 309.5 306.8 306.6 306.2 307 309.8 311.9 314.1 315.8 316.6 316.9 315.6 312 295.1 271.9 253 234.1 218.4 238.3 259.1 274 287.5 295.2 299.8 304.8 308.8 312.5 315.5 318.9 321.7 322.9 323.7 322.4 322.5 322.6 322 321.2 320.1 317 313.6 307.8 302.3 306.4 309.9 311.8 311.8 310.2 302.6 289.6 275.7 262.9 248 272.2 295.2 312.3 319.3 324.3 328 328.3 328.1 327.2 324.2 329 330.8 328.4 326.7 326.7 326.8 325.2 323 321.3 314.8 305 300 296.5 281.6 273.5 269.3 262.3 254.4 244.8 236.4 239.3 245.7 246.9 252.7 260 266.5 264.1 260.2 251.9 233.5 210.7 205.1 201.7 194.6 188 181.2 172.1 189.7 207.9 228.4 249.4 267.8 282.9 289.5 294.5 299.2 302.3 300.5 299.2 297.1 297 300.8 308.2 315.7 319.8 323.6 327 327.3 325.6 322.7 320.1 315.8 310.9 302.4 296.1 300.4 303.3 308.3 313.3 317.4 319.3 319.3 319.1 317.4 313.4 309.8 304.8 296.2 287.5 279.9 270.6 264.2 258.2 252.1 242.8 230.2 215.1 194.6 177.6 171.4 186.5 197.3 195.8 188.1 178.9 168.2 156.5 150.6 147.7 165.3 185.8 194.6 200.2 202.8 202.3
358.4 360.4 360.8 360.2 358.6 356 353.4 350.3 346.9 343.3 340.5 337.3 333.4 328.1 320.5 298.2 288.2 284.5 279.1 279.4 279.5 276.9 266.1 286.8 294.9 301.1 308.9 313.5 315.8 315.2 314.5 311.8 309.6 306.1 302.7 301.7 301.9 304.5 307.8 309.8 312.1 313.4 314.3 315.2 313.6 309.3 283.3 256.7 236.8 218.8 233.4 253.8 270.8 282.2 292.1 297.5 301.5 306 309.4 312.7 315.6 319.6 321 321.2 320.9 318.7 317.9 318 317.4 316.5 315.1 312.1 308.4 299 293.9 303.3 307.1 309.3 308.4 302.2 284.6 268.4 253 243.8 263.9 285.4 305.4 314.8 320.8 324.1 326.8 326.6 325.6 322 321.3 323 322.8 322.4 322 322.8 323.4 323 321.1 320.4 313.9 301.2 287.9 283.7 272.4 263.7 256 254.5 252.3 245.2 250.8 259.9 260.4 265 270.5 275.2 280.6 274.6 266.4 248.9 228.7 224.5 225.4 225 219.5 209.5 196.1 177.7 177.4 201.8 224.7 245.8 263.9 278.1 286.6 292.6 297.5 299.7 297.4 294.5 288.6 287.8 299.3 307.1 312.7 317.4 321 323.9 324.7 324.2 322.6 319.9 316.2 312.4 305.7 292.3 294.9 299.2 305 310.3 315.4 317.1 317.1 317.1 315 311.8 305.5 296.1 287.9 278.3 268.6 261.3 250.8 241.3 233.4 224.5 211.4 197.2 183.3 175.4 184.7 200.4 201.8 196.2 184.9 174.3 167.6 158.2 152.1 146.9 162.8 182.9 192 197.5 199.1 198.7
357.1 358.8 358.9 357.7 355.2 352.7 350.2 347.4 343.8 340.2 337.5 334.8 331.4 327.4 321.5 309.8 293.7 284.9 282.8 267.2 267.5 267.1 268.4 286.4 295.7 302.2 309.2 312.1 313.9 313.6 311.1 309 305.9 302.6 298.8 294.7 298.1 303 305.6 307.8 309.8 310.7 311.6 312.7 310.7 303.9 274.9 247.7 222.5 220.2 238.7 254.6 274.2 286.8 293 297.7 301.4 305.9 309.6 312.8 315.8 318 318.7 319 317.7 315.3 313.3 313.4 312.8 311.9 310.6 307.9 303.6 290.7 292.1 300.6 304 304.8 300.7 283.9 264.9 248.3 243.3 263.3 280 297.9 308.7 314.8 318.9 322.7 324.5 323.8 320.5 315.9 312.6 311.5 314.8 314.1 317.8 319.4 319.9 319.8 319.9 320.4 318.9 311.2 295.5 286.9 279.1 274.7 273 268 268.1 265.5 266.7 273.2 274.3 280.9 287.5 288.7 288 282.7 272.3 248.2 237.9 238.3 250.2 248.5 236.2 216.7 198.4 176.2 174.3 197.1 223 239.4 257 272.5 283.9 290.6 295.9 296.5 294.3 290.6 281.4 283.9 294.3 303.6 309.3 313.6 316.4 319.3 321.7 322.2 321.3 319.7 315.8 311.7 306.3 294.2 284.8 293.7 300.5 307.4 314 315.7 315.6 315.6 314.5 308.2 296.5 286.4 278.3 266.1 253 237.9 227.5 219.5 210.6 201.2 188.9 183.3 181 187.9 202.6 207.5 202.4 195.1 191.5 185.7 177.3 163.9 151.8 146.5 158.3 177.7 190.5 194.6 195.6 191.2
355.4 356.6 356 354.3 351.8 349.3 346.9 344.2 339.9 337.4 334.7 331.9 329 325.7 320.4 313.9 305.2 296.1 288.3 278.6 267.5 255 270.7 286.7 295.9 302.9 306.5 309.8 310.8 309.3 306.7 304.1 301.2 298.2 294.4 293.6 296.6 301 303.6 305.4 307 307.9 309.7 310.5 308.7 298.2 267.7 241.3 210.1 224.2 234 251.9 272.7 285.4 292.8 297.1 300.4 304.7 309 311.8 313.9 315 315.2 314.8 312.8 310.6 306.6 307.9 308.5 308.1 306.5 304.4 300.5 283.8 288.2 297.5 299.6 298.4 284.9 265.8 246.7 239.8 259.8 277 291.2 300.7 307.7 312.7 316.8 319.9 321.6 319.8 314.5 308.3 302.7 302.9 306.3 310.7 315.9 319.3 319.1 320.3 321.3 321.2 319.8 316.7 309.6 300.9 293.8 288.5 285.3 286.3 282.5 278.4 279.8 281.7 284.7 287.5 291.3 296 292.1 287.1 277.3 268.5 265.1 269.3 266.7 258.5 243.7 220.5 196 171.3 178.4 189.9 214.8 230.6 247.4 263.4 273.7 285.2 291.5 293.1 292.1 288.3 273.7 276.9 287.9 296.9 305 308.3 311.3 314 316.6 318.4 318.2 317 313.4 309 303.1 294.3 281 288.1 296.5 303.6 310.2 314.1 314.2 314.2 312.7 302.3 291.2 280.2 267.9 253.2 233.5 217 207.4 202.9 199 194.4 194.7 196 200.6 204.7 211.1 209.4 205.7 205.8 204.2 198.9 190.1 173.8 154.1 146.3 150.7 167.9 186.3 190 189.7 180.8
353.9 353.5 352.3 350.9 348.5 346 343.6 340.5 336.3 333.8 330.4 327.7 325 321.2 316.9 312.7 308.5 301.6 295 286.8 266.5 255.4 272.9 287.3 295.4 300.2 303.7 305 305.7 303.6 301.3 298.6 295.7 293.4 286.4 294.2 296.1 299.5 302.4 304.1 305.1 308.2 309.8 309 306.2 295.5 267.5 239.4 211.2 214.8 230.7 248.6 270.5 282.5 290.5 295 298.6 302.6 306.6 308.9 310.9 311.8 312.1 310.9 309 306.4 298.7 302.8 304.4 304.7 303.6 301.9 299.6 284.6 273.7 290 293.3 287.1 268.8 248.4 231.2 248.7 270.4 284 291.9 299.3 304.8 309.5 314.4 316.7 316.3 314.6 310.2 305.6 297.6 297.1 303.1 310.6 316 319 320 321.9 322.9 321.1 319.8 317.3 313.2 309.9 306.1 300.8 296.4 292.9 289.1 287.1 287.6 289.4 292.6 294.9 298.5 301.1 297.5 297.1 292.1 289.5 289.5 283.9 276.3 260.1 235.8 215.7 190.8 176.3 173.2 184.9 203 220.2 236.3 248.8 258.7 266.8 274.7 281.6 286.5 284.3 272.8 267 276.1 284.1 291.5 299.5 304.6 308.1 311.6 314.4 314.5 312.6 308.6 304.2 299.8 291.8 277.6 282.3 292.8 299.8 306.4 311.7 312.3 312.6 306.4 296.6 285.2 273.5 258.3 234.8 222.2 218.6 215.3 213 211.2 210.5 213.8 217.1 217.8 218.3 219.8 219.2 217.5 216.3 214.2 208.7 202.3 183.7 162.5 148.7 145.9 156.9 175.4 181.8 180.2 174.6
351.1 350 349 347.7 345.5 343 340.3 337.1 333.1 329.6 325.1 322.4 319.7 317 313.9 310.3 306.3 301.8 295.7 288.2 265.7 250.3 267.7 284.1 290.8 296.4 298.8 299.4 300.5 299.4 296.9 294.5 290.3 287.2 289.8 292 294.7 298.1 300.8 303.1 305.3 309.1 308.5 306.4 302.3 293.5 266.5 236.7 209.4 210.4 226.8 244.8 265.5 278.2 286.9 292 296.7 300.6 302.1 305 307.2 308.4 309.1 307.9 305.6 301.5 293.8 296.8 300.6 301.5 301.7 300.2 297.8 288.4 258.7 273.7 284.5 273.7 251.6 230.7 241.7 254.4 262.9 282.3 290.2 295.8 301 306.7 309.7 309.7 309 309.1 306.6 300.5 291.2 296.4 303.5 309.2 315.5 319.9 321.1 322.1 320.2 319.4 317.9 315.9 314.7 313.9 310.9 305.7 299.1 296.1 293.5 290 287.2 291.6 295.7 298.4 300.7 302.4 303.4 303.3 302.7 303.8 299 290.3 279.3 256.2 227.8 212.1 207.3 192.2 178.7 175.1 189.6 205.3 219.9 232.4 241.7 249.6 258.8 268.5 277.8 283.3 274 255.4 264 268.9 275.9 284.6 292.7 301.6 304.9 306.6 306.1 305.1 303.8 299.7 295.4 289.4 275.5 279.6 290.9 296.7 302.6 308.1 310.3 309.4 301.3 291.8 280.9 269.2 247.9 235.7 229.7 227.8 229.8 231.5 234.3 238.4 240.4 239.4 233.6 228.9 228 227.7 226.7 224.5 221 216.8 209.9 195.9 175.1 153.7 144.8 146.5 159.6 171.1 174.2 169.8
348.5 347.5 346.5 344.6 342.6 339.6 336.5 333.3 329.3 323.4 318.1 315.8 313.8 312.3 309.3 306.8 303.3 298.8 294.2 288.5 267.4 244.9 260.5 275.1 284.3 289.8 293.4 294.7 296.1 294.8 291.6 287.5 285.3 280.2 285.5 289.6 293.7 297.9 300.9 305.1 308 308.4 306.1 304 298.9 291.6 267.9 238.1 209.4 206.5 223.8 240.5 258.6 269.3 279.3 285.8 293.9 294.8 297.8 301.3 304.6 305.5 305.9 304.3 302.6 297.6 286 288.6 295.7 297.6 298.1 298.3 296.1 290.7 262.3 253.1 267 253.5 234 229.8 249.5 266.8 274.5 266.6 284.7 291.3 293.1 296.2 303.6 305 305.4 307.3 306.2 295.4 284.6 293.7 302.3 309.5 314.7 318.3 319.2 316.4 313.9 313.1 311.6 315 315.9 316.3 312.2 306.5 301.9 299.5 295.7 290.9 281.7 290 293.2 295.7 297.9 301.8 306.1 308.4 310.8 307.5 301.5 292.1 275.7 253.9 227.3 227.2 222.6 207.9 191.7 174.3 176.9 189.8 202.2 212.9 223.2 233.5 243 255.7 268.7 279.6 274.8 262 248.4 254.8 260.8 267.7 277.6 288.1 298.3 298.7 299.8 299.1 297.6 293.9 292.8 286.7 274.4 274.6 288.2 294.1 300.1 304.7 307.1 304.8 298.8 288.2 277 264.7 253.9 254.9 258.2 260.5 256.4 253.6 253.8 254.1 252.1 249.2 242.8 236.7 235.9 235.7 234 229.8 225.3 220.9 213.6 203.6 188.1 166.8 147.5 145.5 146.1 160.4 166.7 164.8
345.6 345 343.5 341.5 339.4 336 332.8 329.4 323.9 317.8 310.8 306 305.7 304.9 303.1 301.6 298 293.5 286.4 274 263.4 246 250.3 263.7 275 284.3 288.9 290.5 291.8 289.7 285 279.9 277.3 274.4 286.6 290.2 294.1 298.1 302.9 305.8 306.9 306.3 304.4 302 297.7 290.8 273.4 244.5 215.4 195.6 215.4 232.5 242.3 250.4 265.1 273.2 279.3 282.8 294.1 299.1 302 303.3 303.9 302.8 299.8 294 278.9 281.2 287.3 292.3 295.3 296 294.1 289 265.8 232.7 241.4 231.7 221.1 239.3 260.9 277.5 285.3 289.9 288.9 291.5 300.1 306.9 306.2 308.9 312.7 312.9 309.4 285.7 285.3 292.7 298.9 305 311.9 314.7 312.8 309.5 306.6 305.9 311.7 314.9 315.9 316.1 312 306.3 303.7 301 295.9 290 276.2 283 287 291 296.8 302.8 308.1 312.1 312.2 307.9 301.2 292.6 271.7 249.5 248.2 248.5 237 221.4 206.3 190.5 169 175.4 183.2 194.1 204.8 216.2 229.4 242.1 257.2 269.2 275.4 264.9 249.3 237.3 243.2 251.6 262.8 271.8 281.9 289.2 293.1 294.1 292.6 289.6 289.3 288.3 272.9 267.6 285.2 291.2 296.8 300.4 301.7 301.9 297.4 289.9 278.2 266.4 268.7 269.7 272.5 270.8 269.2 268.5 269.5 268 262.3 257 249.2 246.2 244.2 242 237.9 233 228.5 223 215.5 199.4 184.8 168.7 153.6 145.7 144.5 151 158.7 158.9
342.3 342.2 340.4 338.3 336.3 332.4 329.2 324.4 319.3 312.1 304.9 298.3 297 296.8 296.3 293.7 289.8 278.8 267.9 257.8 250.7 243.2 239.4 249.8 263.7 277.6 284.2 286.4 287.3 285.5 271.8 260.9 273.8 285.1 288.2 291.9 295.7 299.5 302.6 304.7 305.7 304.2 302.8 300 296 289.4 277.3 252.2 223.1 198.9 198.1 214.3 221.5 235.8 249.2 256 272 284.8 293.6 298.4 301.3 302 302.6 301.2 297.8 290.7 273.2 268 281.1 287.1 290.9 292.7 291.5 286.8 263.4 234.8 222.4 215.7 235.9 253.5 270.3 282 288 293.3 297.2 300.9 303.9 305.7 305.8 309.7 314.1 313.9 300.5 275.9 284.6 290.9 295.8 300.2 306.2 307.7 304.5 300.1 298.4 305.5 311.4 314.6 315.7 315.3 311.8 307.9 304.5 301.7 296.4 289.2 275.7 270.5 276.6 287.9 296.7 304.1 308.2 310.6 309.4 305 300.2 290.7 268.1 265.6 271.7 265.2 252.7 237.1 218.2 202.4 185.2 170 167.5 176.3 187.1 198.8 212.8 227.9 244.1 258.7 270.4 266.2 257 241.8 227.6 229.1 244.7 256.5 265.6 276.1 285.5 291.2 289.8 288 286.7 286.1 275.8 256.1 274.8 286.2 291.3 296 299.7 300 296.4 290.1 283 280.7 282.7 282.7 283.2 282.5 282.8 281.1 278.1 273.8 266.9 259.1 254.5 252.6 249.4 245.3 240.4 235.4 230.9 225.9 212.3 191.1 175.3 159.1 152.1 146.7 144.1 143.7 147.1 150.5
339.1 339 337 335.1 333.2 329.1 324.6 319.6 313.5 305.8 296.8 289.9 288.4 285.6 282.8 278.4 272 260.5 252.3 259.9 263.1 259.2 254.8 236.9 252.8 265.8 276.7 280.3 282 277.6 257.4 261.2 278.5 285.6 289.4 292.8 296.2 299.4 301.6 303.6 304.1 302.1 300.7 297.3 292.9 287.1 278.7 257.3 234.9 211.7 192.2 214.2 230.7 246.7 257.2 268.8 280.5 289.7 294.5 299.3 300 300.6 301.3 298.8 295.9 289.1 272.8 252.9 269.4 279.6 285.3 287.9 287 279.4 256.6 230.1 213.8 232.7 249.7 262.9 275.9 283.9 289.7 294.5 298.6 302.2 305 305.3 308.9 313 314.5 312.3 292 271.3 282.7 287.6 291 295.5 299.1 300.4 297.7 290.4 296.1 306.3 310.5 313.4 314.7 313.5 309.8 308.9 306 302 296.7 290.6 279.6 263.4 270.3 285.1 295.4 301.2 305.2 306.2 303.7 301.4 298.8 292.8 288.5 289.4 286.9 279.5 269.3 254.3 237.9 219.1 203 191.2 179.4 166.7 170.5 180.2 195.6 213 232.6 248.3 264.2 268.1 262.9 250.5 236.6 221.9 226.4 242.1 252.5 263.9 275.1 285 287.9 286.4 285 283.8 280.3 265.1 256.1 270.8 284.3 292 296.6 298 297.1 293.3 288.6 288.4 289.3 289.3 289.8 289.1 287.3 284.7 281.4 276.1 268.5 263 258.7 255 251.4 247.4 242.3 235.9 230.7 221.3 200.4 180.2 161.6 157.6 159.4 152.6 144.8 142.6 141.4 143.3
335.9 335.6 333.7 332 328.9 324 319.4 314.1 307.7 300.9 292 281.6 277 273.4 268.8 264.7 258 263.3 271.4 278 279.1 274.8 266.8 250.8 234.9 251 262.3 269.8 272.8 264.6 240.6 257.7 272.9 282.8 287.8 292.2 295.8 299 301.1 303.1 302.6 301.3 298.3 293 288.8 282.6 266.2 247.6 227.3 210.4 192 212.7 236.4 256.1 269.7 282.7 289.6 294 296.7 299 299.6 300.3 300.8 297.8 294.3 288 272 243.3 251.6 269.6 278.3 279.3 276.9 265.1 244.6 217.3 215.4 239.7 258.1 270 278.6 284.1 288.7 294.3 299.7 301.7 303.6 306.1 311.6 313.4 313.3 310 286.3 268.3 277.4 281.4 284.2 288.3 290.2 289.1 282.3 290.9 300.4 306.6 309.7 311.4 311.7 310.6 309.8 309.1 306.1 301.5 297.1 292.5 281.4 261 259.5 277.8 290.6 296.8 299.3 299.5 297 295.5 298.5 300 303.1 302.4 298.5 292.8 286.6 274.5 258.8 242 225.5 209.5 197.6 187.4 173 163.9 175.4 192.6 217.1 236.6 256.9 267.3 267.8 261.4 246.6 228.9 211.7 224.3 238.5 253.9 265.7 275.7 285 284.2 283.4 281.5 278.4 268.3 249.2 252.7 270.6 285.6 292.6 295.7 297 295.1 293 293.1 293.4 293.6 292.7 290.6 288.6 286.4 283.4 277.1 272.9 268 263 257.3 252.9 247.7 242 235.6 227.1 206.4 186.1 169.2 164.1 170.5 176.5 170.8 156.6 146.4 145.8 144.3
332.9 332.4 330.8 329.1 324.5 319.6 314.2 308.1 299.6 288.6 279.6 271.4 267.4 268.4 268.3 273.4 274.3 279.7 286.4 292.1 292.6 291.4 284.8 266.2 242.9 233 242.2 248.9 251.8 248.7 229.6 248.9 262 274.2 283.7 290.3 295 298.5 301.4 301.8 301 298.6 292.6 287.2 281.4 265.1 245.8 229.1 210.6 192.6 192.4 218.9 241.7 264.9 282.3 292.3 295.6 297.1 298.7 299.9 300.2 300.6 300.3 298.3 292.7 285.7 269.8 242.9 233 255.7 269.3 266.8 255.1 242.3 227.5 209.9 222.6 244.5 262.6 271.9 278.4 283.2 289.4 295.7 298.5 300.4 301.5 308.8 311.4 311.5 310 305.8 285.2 263.5 270.6 275.1 277.6 280.5 278.6 275.3 280.7 293.7 301.2 304 306.3 307.3 307 306.5 307.3 306.7 303.9 300.9 297.6 293.6 285.1 271.6 250.2 262.1 282.5 288.6 291.2 286.6 284.2 293.1 301.5 307.9 311.4 310.8 306.1 300.2 293.2 285 276.5 265 247.1 230.4 221.5 207.4 194.6 182.4 165.5 174.4 200.8 225.6 248 262.9 268.7 265.6 259.3 236.6 217 209.7 231 244.5 257 266.2 275.3 280 280.6 279.4 275.3 270.9 256.9 242.8 252.8 274.9 288.3 293.1 295.3 295 294.5 294.7 294.9 294.5 293.4 291.8 290.1 287.4 284.1 281.4 276.1 270.4 263.3 257.2 252.6 247.8 240.5 231.2 213 192.4 175.1 170.3 180 191.6 197.1 192.5 179 161.4 152.9 153.1
330 330.4 328.7 325.9 320.6 314.2 307.9 298.6 287.8 279.1 278.8 285.7 285.6 284.8 284.2 286.6 291.2 296.2 301.4 301.1 300.7 300.2 295.3 284 265.1 244.7 230.2 226.9 232.5 230.1 220.7 230 243.7 258.8 275.1 287 292.7 297.2 299.5 300.2 297.9 294.1 286 275.5 258.7 242 225.4 207.9 185.6 191.7 209.4 231.7 253.6 275 292.5 297.9 299.6 301 301 301 301.1 300.2 298.6 296 289.4 280.8 265.4 241.9 217.9 242.2 256 243.7 230.4 218.6 206.6 211.3 219.4 240.1 257.5 269.9 277.8 285.4 290.8 293.8 296.2 297.7 303.4 308.8 310.8 310.3 308.5 303.4 288 259.8 262.2 268.4 269.6 269.7 267.3 271.4 285.2 292.6 297.2 298.4 298.2 298.2 298.9 302 302.8 302 300.6 298.8 297.8 293.7 286.8 275.6 249.1 249 270.7 277.2 275.4 273.9 285.9 297.6 307.7 314 316.4 315.1 310.2 304.7 297.6 290 281.7 272.2 258.6 243 230.9 222.6 212.6 193.9 172.5 160.5 189.4 217.2 240.8 259.4 266.2 263.2 259.5 242.6 220.3 201.8 223.7 239.6 250 259.1 267.6 275.4 276.8 275.6 271.6 265.1 250.9 241.3 244.8 270.1 286.1 291.1 292.5 293.8 294.6 294.2 293.6 292.8 292.2 291.1 290.7 290.1 287.6 283.3 277.9 271.8 264 256.8 250.7 244.5 235.3 216.8 199.5 177.5 179.1 188.8 201.4 213.4 217.2 213.9 201.9 184.6 170 164.6
327.5 328 326.2 323.3 317 310.5 303.4 295.2 282.6 294.3 297.7 300.9 301.8 301.9 300.3 301.4 306.8 310.4 310.5 310.6 308.9 306.9 304.4 299.3 284.3 268.1 251.6 239.8 232.3 230.3 223.1 210.7 223.3 240.4 258.3 279.4 289.7 294.2 296.5 296.8 292.2 285.4 267.2 251.7 233.9 221.6 206.3 188.1 189.7 211.6 230.1 249.4 269 285.1 298.2 302.1 304.1 303.5 303.1 301.3 299.8 298.2 296.3 291.8 284.3 273.8 259.2 236.2 210.4 227.9 233.1 219.6 206.9 201.2 212.4 219.6 232.7 246.5 254 266.9 277.8 283.1 285.3 288.3 291.9 296.1 303.4 307.5 309.5 309.8 306.4 301 289.9 265.9 253.3 257.5 258.8 259.4 266.2 280.4 285 288.3 291.6 292.9 293.2 291.1 290.8 294.9 296 296.2 296.4 296.7 295.3 292.5 288.4 277.9 249.4 240.3 253.9 260.1 259.3 275.6 293.5 306.2 313.3 318.1 319.7 316.9 313.2 308 301.3 294 284.6 272.7 257.8 235.1 218.3 203.4 192.3 182.5 169.4 156.3 184.6 213.4 236.9 257.2 260.7 256.9 245.1 229.5 217.3 198.9 216.2 233.5 245.7 252.6 262.7 272.1 274.8 274.2 265.9 254 233.6 233.1 248.2 272 283.2 287.8 290.4 292.2 291.9 291.3 290.8 290.8 290.7 290.6 291.4 291.4 287.7 283.3 278 272.3 264.6 252.1 238.8 228.1 216.6 201.2 187.5 191.9 201.5 210.5 221.1 224.2 223.3 217.2 207.1 194.6 181 167
323.9 324.4 324.6 319 314.8 308.5 300.1 286.8 298 309.6 313.4 315.1 314.8 313.5 313.6 314.5 316.5 316.4 316.3 316.4 315.4 312.2 309.4 305.1 298.9 287.1 275.1 262.9 255.6 251.9 245.2 227.4 205.5 222.6 244.9 268.3 283.7 288.9 291.7 292 285.1 263.6 242.7 228.3 214.3 202.4 189.1 186.1 209.9 227.4 248.6 269.5 282.2 295.4 303.2 305.5 305.7 304.7 302.2 299.8 297.5 295.1 290.6 285.4 278.2 267.2 248.9 228.1 204 220.6 213.2 197.8 202.9 213.1 224.1 234.9 246.4 255.8 267.4 272.7 278.5 283 286.7 290.3 292.7 297.1 301.1 305.8 308.8 309.7 305.7 298.7 284.8 272.1 257.6 251.3 246.9 250.8 263.7 277.5 284 285.5 285.9 287.2 286.7 276.7 280.3 286.5 289.3 291.5 292.3 292.7 293.9 293.4 287.4 276.8 249.7 233.5 238.5 245.1 264.9 286.3 300.8 310.3 316.8 320.6 320.4 318.2 314.7 308.8 302.2 294.5 285.5 272.2 247.4 225.1 203.9 192.8 184.3 172.6 165.5 157.6 187.9 215.2 237.7 254.9 246.8 236 225.4 215.9 205.8 194.2 213.1 228.2 246.7 258.8 268.4 273.3 274.5 273.1 256 234.5 224 237.9 255.8 271.8 279.6 284.8 287.5 288.7 288.4 287.6 287.9 289.1 289.6 289.7 290 287.3 286 283.4 279.3 275.2 270 262.5 247.4 230.7 219.1 213 211.6 214.1 222.4 225.4 226.7 224.4 219.8 212.2 202.1 185.7 170.2 157.4
319.3 321.8 322.1 320.5 314.8 300 292.7 305.6 315.7 320.2 322.9 324 323.1 322.2 322 321.4 321.2 320.6 320.2 319.5 317.9 315.6 311.6 307.8 303.3 296.8 289.8 281 274.8 272.1 265.3 240 213.8 209.9 235.9 257.2 274.8 283 286.7 286.3 267.4 242.8 223.2 206.3 193.3 180.5 188.6 208.8 223.5 243.2 263 280.9 291.7 299.2 303.7 305.3 304.6 303.3 300.2 296.4 292.5 288.1 282.6 277.2 268.3 253.5 234.9 217.6 196.5 205.2 193.6 203.9 214.6 225.2 235.6 246.6 257.6 267.2 273.4 279.1 284.1 287.6 291.3 293.7 296.2 299.6 302.9 307.1 310.2 311.2 307.6 300.5 288.3 274.2 261.6 252.3 246.3 245.9 256.3 267.3 272.2 269.7 264.9 264.7 264.2 261.3 270.7 276.7 280.9 285.4 288.2 290.7 293.3 291.5 283.8 268.7 242.9 230.1 237.3 253.6 274.7 293.6 304.6 313.3 318.5 320.3 319.7 318.2 314.7 308.8 303 296.4 286.7 269.8 240.4 218 212 207.3 192.2 175.3 162.4 168.1 198.5 217.5 239.1 238.8 226.1 214.4 203.7 196.9 185.3 201.1 221 237.3 254.3 265.9 270.9 273.2 275.5 271.6 248.2 223.3 224.6 241.9 259.8 272 277.8 281.8 284.2 284.9 284.9 285.1 286.3 287.5 288.5 288.6 286 284.9 285.8 283.5 279.5 277.8 275.3 270.1 262.2 253 243.9 236 228.7 230.2 230.9 229.4 225.7 220.8 213.9 204 189.3 175.4 168.4 166.1
327.6 327.8 325.2 320.3 308 308.5 310.7 318.8 324.1 327.7 330.3 330.5 330.4 329.7 329.3 328.2 325.7 324 322.2 320.9 318.6 315.7 312.4 308.7 304.3 299.4 292.9 287.1 281.3 277.5 270.4 243.4 215 206.7 229.1 246.8 270 278.2 281.7 277 251.5 226 206 186.3 177 192.3 209.2 226.8 242.8 257 274.4 287.1 294.7 299.2 302.4 303.4 302.3 299.3 295.6 291.5 285.2 277.9 268.4 261.2 250.3 235.6 219.7 205.6 190.9 192.4 203.4 212.3 222.4 234.2 243.8 253.8 266.8 273.3 279.8 284.1 287.8 290.8 293.3 296.1 299.4 302.7 306 309.4 311.1 312.1 309.5 301.9 290.6 277.6 265 256.3 251.2 241.4 251.2 258.2 258.6 250.4 245.8 245.6 245.3 247.8 255.9 262.1 270.5 277.7 284.5 288.9 290.6 287.4 275.8 252.5 233.4 226.4 239 257.2 281.5 296.8 306.5 313.2 317.2 318 318.5 317.7 315.1 310.8 305.8 299 286.7 264.7 234.3 231.4 232.8 219.8 199 176.5 156.5 172.5 197.1 217.1 234.1 221.7 205.8 193.1 185.4 188.9 199.6 216.2 232.3 249.8 264.3 267.9 271.5 274 275.5 272.1 244.1 215.6 223.1 241.3 258.7 271.1 275.9 278.9 281 282.7 283.2 282.9 283.9 285.1 284.3 283.9 284.1 283.7 284 283.6 281.6 279.4 276.5 273.3 268.9 263 256.6 250.5 243.1 239.5 234.1 228.3 221.7 213.8 205.1 192.5 179.6 170.4 170.4 169.8
330 328.6 324.5 313 312.5 320.9 323.6 323 330 333.4 335.5 336.6 336.7 335.9 334.9 332.8 329.6 326.7 323.8 321.3 318.6 315.6 311.8 307.9 303.4 297.9 292.2 287 281.8 276.6 269.2 245.4 216.4 198.6 220 235.8 260.9 271.1 275 269.5 239.5 213.2 189.4 175.6 196 211.9 230.2 247.1 261.2 273.5 282.1 289.5 293.9 296 297.6 299.5 297.7 294.6 290.9 285.4 272.8 257.9 246.9 236 224.4 211.5 199.3 189.7 192.5 200.4 207.2 216.9 228.1 242.6 251.6 260.4 270.7 276.7 281.1 284.9 286.9 288.8 291.9 296.3 301.7 305.2 308.5 312.2 314.5 313.7 310 302.3 293.3 279.7 265.2 254.2 250.7 234.6 233.2 238.1 234.3 227.8 226.7 225.1 226.7 232.9 242.6 246.7 258.1 274.2 281 285.2 285.6 281.2 259.1 239.3 227.9 222.6 239.2 255.8 281.9 297.4 306 311.8 315.4 316.3 316.7 316.1 313.2 310.6 307.4 300.8 289.4 266.7 253.9 256.7 250.1 232.1 204.6 178.1 155.1 170.1 189.4 208.4 219.4 204.2 184.8 175.8 188.8 203.7 216.6 231.4 248.2 263.1 267.3 268.8 271.9 274.8 275.3 271.7 246.6 219.1 216.1 234.1 253.9 269.8 274.4 277.2 279 280.9 281.4 280.6 280.8 281.6 280.9 281.4 281.7 281.9 282.4 281.8 281.4 279.3 277.3 274.6 270.3 265.2 259.6 254.1 248.1 241.5 232.4 225 217.5 209.2 195.2 181.9 177.2 174.8 176.7 179.1
330.7 328.1 319 320 326.3 329.9 331.4 325.9 334 337.4 339.8 340.7 340.9 340.2 338.6 335.7 332.3 328.5 325.1 321.8 318.6 314.8 310.7 306.1 301.6 296.6 291.3 285.7 279.8 273.6 266 247.7 218.8 196.5 210.2 227.4 250.3 263.3 269.1 266.2 231.8 207.8 180.1 182.8 205.5 228 244.1 263.5 271.4 278.7 283.2 288.4 291.2 292.8 294 294.9 293.5 290.9 286.7 273.3 254.7 238.2 223.2 208.6 197.3 185.3 184.1 190.3 199.4 203 208.2 218.5 230.3 248.7 260.2 264.1 267.9 271.6 277.9 280 280.6 283.8 290 297.2 302.9 307.6 311.2 315 315.6 312.3 309.6 302.5 292.9 278.7 267.2 262.7 260.6 253.2 239.2 234 230.9 227.5 224.6 220.7 214.9 220.2 229.5 243.5 259.7 270.7 277.7 281 278.9 275.5 252.5 230.8 224 221.6 236 255.9 283.9 296.6 305.1 310 313.3 314.3 314.7 313.8 313.4 312.7 309 302.6 294.5 285 280.1 275.1 264.1 241.7 211.1 186.9 165.3 160.4 176.9 195.2 202.7 185.9 171 181.8 202.8 217.2 230.1 244.6 257.1 265.2 269.1 271.2 273.4 274.8 273.3 270.8 249.5 226.9 207.1 224.6 247.3 267.8 273.1 275.1 277 279.2 279.3 278.3 277.2 278 278.2 278.7 279.2 278.8 279 278.1 278.8 278.5 277 274.7 270.8 266.8 262.7 254.4 246.3 238.2 225.1 215 205.9 198.6 190.1 182.6 177.5 178.7 186.8 191.2
331.8 326 325.1 331.2 334.3 335.9 337.1 336.6 337.4 340.2 342 343.7 344 342.7 341.1 337.4 333.4 329 325.6 322.3 318.1 313.3 308.5 303.4 299.9 294.6 289.4 283.4 277.2 269.3 257.4 246.2 218.1 191.8 206.2 227.5 246 260.9 264.9 262 235 209.5 180.8 176.6 202.8 228 247.4 269.4 275.8 280.6 283.6 286.9 289 289.3 289.7 290.7 288.8 286.8 280.4 258.5 234.5 214.5 198.5 183.8 184.9 188.9 191 191.5 199.7 201.8 209.2 215.4 227.1 239 250.5 260.2 261.3 263.2 263.7 268.7 275.9 285.9 292.2 299.2 304.2 310 313.6 317.1 316.5 313.9 309.6 304 293.4 281.1 276.3 272 269 261.7 246.2 244.5 241 235.3 234.4 230.3 220.2 211.2 220.2 236.2 250.7 264.1 272.5 274.4 272.2 268.5 254.2 228.6 217.3 221.9 233.7 256.1 284 295.8 303.7 308 310.9 311.7 312 313.2 313.3 311.8 309.8 305 299.7 294.6 289.5 285.8 278 253.5 224.9 198.1 176 160.5 162.6 177.4 187.8 169.2 174.2 190 210.4 223.6 238.7 251.1 259.8 266.2 269.8 272.6 274.7 274.7 272.5 269.2 255.5 234 210.6 211.8 236 260.7 269.5 272.4 275.2 277.5 278.1 277.3 270.7 273 274.9 275 273.7 272.2 274.5 277.2 276.5 277.5 275.8 276.1 273.5 269.2 261.8 256 252.6 246.2 237.6 225.8 213.3 205.8 197.4 193.2 186.2 184.2 196.5 200
331.7 331.7 334.5 337.8 339.6 341.1 342.4 342.7 341.7 342.3 344.1 345.8 345.3 344.3 342.4 338.4 334.4 329.3 325.4 321.3 316.6 311.7 306.3 301.1 296.9 292.3 286.9 279.7 269.9 255 238.7 222.8 204.7 188.6 201.6 218.9 237.5 254.2 259.1 257 246.3 220 193.5 171.8 192.4 217.7 242.8 269.7 277.3 281 282.8 284.6 286.2 286 285.7 286 284.5 282.5 267.7 239.6 217.5 196.3 178.9 175 187.6 191.7 196.9 202.3 206.3 218 228 232.8 231.5 231.3 233.1 237.8 246.4 249.9 258.2 269.4 279.5 287.6 294.9 301.5 308 312.4 315.1 317.4 318 314.9 311.7 307.3 298.1 295 290.2 284.4 280.4 275.8 268.3 264.9 257 250.9 248.7 246 233.5 219.2 207.3 219.9 237.7 253.6 263.7 265.6 263.4 257.3 250.4 224.8 210.3 220.8 234.3 257.7 283.8 293.7 301.3 305.5 307.4 309.1 310.6 312.1 312 310.6 309 306.4 302.7 299.5 295.7 289.8 284.8 269.1 239.2 214.7 193.6 175.4 159.6 161.7 171.1 163.2 173.3 187.8 201 219.3 232.7 247.3 259.1 266.5 270.1 273.3 275.8 274.6 270.5 266.6 257.2 238.4 215.3 203.1 225.4 249.2 264.6 270.3 273.6 276.6 278.4 278.7 269.1 261.6 267.6 261.5 254.1 258.1 270.2 276.6 276 276.5 278.5 278.4 276.6 272.8 268.9 265.6 263.4 260.4 254.6 243.5 231.3 219.2 211.9 203 194 189.2 203.1 204.2
338.3 338.6 340.9 342.8 343.9 345 345.4 345.7 345.3 345.6 346 346.8 346.1 345 342 338.6 333.5 328.2 323.7 319.1 314.7 309.9 304.6 299.6 293.4 287.9 279.2 265.6 249.5 233.9 220.1 204.2 196.2 187.2 195.9 211.4 224 239 249.1 251.6 248.5 230.8 203.8 178.5 182.1 207.6 238.4 268.1 277 280.2 281.9 283.4 283.3 282.8 282.3 282.3 281.4 277.2 252.8 226.9 204.5 180.3 175.4 187 197 205.8 211.6 218.6 226.2 238.4 248.7 256.1 258.1 260.1 260.5 261.5 260.6 265.1 274.2 281.5 286.7 293.4 299.8 306 310.8 314.4 317.2 319.1 319.8 317 313.6 309.1 304.3 302.7 302.3 296.5 293.5 292.6 285.5 280 268.7 266.9 264.6 256.5 244.5 231.9 216.8 202.8 222.2 238.1 250.3 256 253.6 244.3 230 216.2 205.3 221.6 237.8 263.8 282.4 292.2 299.1 302.8 305.8 307.4 308.7 309.6 310 309.2 307.8 306.3 304.6 302.3 298.5 293.9 289.1 279.5 256.1 234.2 213.4 193.9 177.2 161.6 153 156.2 162.1 172.6 187.2 204.1 221.8 235.6 252.9 264.1 270.2 273.5 276.7 273.3 268.6 264.3 256.3 240.9 216.1 197.6 217.1 239.2 260.2 266.6 271.4 275.3 275.8 275.6 273.1 255.9 246 239.8 244.4 258 267.4 273.9 275.4 278.4 280.8 282.9 282.3 281.2 277.3 273.7 272.3 268.8 264 256.7 245.3 232.1 221.4 211.2 197 199 206.7 206
343.2 344.1 345.5 346.7 347.6 348.3 348.5 348.6 348.5 348.1 347.8 347.2 346.3 343.8 341.2 337 332.1 327.1 321.6 315.9 311.8 307.9 301.5 295.4 289.2 277.3 260.3 244.1 230.6 220.9 214.5 214.7 211.3 190.9 187.1 200.3 215.2 225.5 237.4 249.3 249.9 237.5 208.5 179 175 203.9 232.6 261.4 276 279.1 280.3 280.5 280.3 279 278.1 277.1 276.7 266 240.6 214.2 189.7 170.9 181 198.2 211.9 221.2 227.2 233.5 242.1 251.1 259.2 266.3 273.1 279 283.6 286.1 282.7 286.2 289.8 292.8 296.3 301.6 306 310.6 313.9 317.1 319.2 321.4 321.1 318.2 314.7 311.3 308.7 307.2 306.2 304.8 301.1 299.2 296.2 292.7 281.8 279.7 277.3 268 251.3 234.6 219.7 208.3 206.6 220.4 234.5 246.6 246.8 226.8 213 201.8 215.5 225.9 245.5 269.7 281.7 291.1 297.8 301.2 303.7 305.3 306.1 306.8 307.5 307.9 306.4 306 304.8 302.5 300.4 296.2 291.2 284.2 272.7 253.9 233.6 216.8 200.1 181.4 169.7 156.3 147.7 157 168.7 184.2 202.2 221.8 240.6 261 270.8 274.6 276.4 271.5 266.9 262.1 256 243.4 219.1 196.3 209 230.4 250.6 263.6 268.8 271.3 271.8 272.5 269.5 260 245.8 227.7 237.8 258.7 266.8 272.1 275.9 280.3 283.8 286 287.4 287.6 281.7 277.4 277 271.8 267 260.5 250.6 237.7 225.1 212.6 201.3 209.2 210.2 207.4
346.9 347.8 349.1 350.2 350.7 350.9 351 350 349.2 348.5 348.1 347.2 345.1 342.6 339.2 334.9 329.8 324.2 318 312.3 308.7 303.6 297.1 291.3 279.9 260.8 247.4 240.5 238.2 238 237.5 236.5 236.2 212.6 184.4 187.7 202.5 212.8 232.4 248.5 249.7 229.3 198.3 166.1 174.1 202.4 228.5 256.6 273.5 276.6 277.8 277.9 276.9 275.2 274 273 267.9 248.4 228.2 202.4 176 174.2 189 210.3 220.8 229.5 237.2 245 252.6 260.1 265.2 272.3 280.3 286.1 290.9 293.8 295.1 298.6 301.2 302.6 305.1 308.6 312.7 314.3 317.1 320.1 322.9 323.2 322.1 319.2 315.8 313.2 311.3 310.2 308.8 307 305.7 304.4 302.6 300.1 296.8 289.9 284.9 277.7 257.2 238.3 226.6 214.9 202.9 204.6 222.5 233.2 230.9 212.7 199.2 205.8 221.7 234.9 255.8 273.8 283.5 290.6 296 300 302 301.5 302.1 303.2 304.9 306.2 305.5 304.5 303.3 302.4 300 296.4 292.2 286.5 280.1 269.8 254.6 240.3 224.1 207.3 194.7 180.1 166.7 153.1 151.8 160.5 179.5 201.9 225.2 250.7 271.1 273.9 272.6 269.2 264.5 260.1 254.9 243.9 219.8 194 200.9 222 243.3 260 265.2 268.3 271 270.2 266.2 257 246.4 227.7 227.4 248.8 264.6 273 277.8 282.7 285.8 288.6 289.8 289.3 284.2 275.9 276.4 273.6 269.5 261.6 251.3 239.1 225.9 212.4 212.8 213.3 213.7 210.4
349.1 350.1 351.3 352.4 353.1 353.4 352.6 351.4 350.4 349.7 348.6 346.2 343.9 340.9 336.8 331.4 326.3 319.6 313.7 308.1 305.1 298.8 291.9 283.8 266.2 248 254.2 257.6 260.4 261.2 259.5 256.2 249.1 229.6 197.6 175.6 186.9 201.7 221.9 239.4 244.6 212.9 182.4 158.8 178 203.1 228 253 270.3 273.7 275.1 274.8 273.6 271.8 270.6 264.9 250.4 228.6 210.9 188.7 172 179 192 214 227.5 237.8 246.4 253.6 258.6 263.5 270.1 278.1 284.8 290.1 295.5 299.4 302.5 305.8 308.9 310.3 312.1 314.7 316.8 319.1 321.9 324.7 324.6 323.3 320.8 317.7 314.5 312.6 311.5 310.2 309.9 308.9 307.6 306.2 304.8 303.4 299.9 294.5 289.4 282.6 264.9 254.5 238.5 220 206.3 198 205.2 209.5 211.9 199 195.3 217.6 232 249.6 266.9 276.8 284.5 291.1 295.4 298.9 298.4 297.3 297.8 299.8 301.1 302 301.4 301.3 301.3 299.9 298.9 296 291.2 285.3 279.3 273.1 262.3 249 237.6 223.8 208.2 196.7 183.6 174.2 154.4 144.9 158.4 187.4 217 242.3 265.8 270.4 268.8 266.4 263.8 259.9 255.9 246.6 223.2 196 191.8 214.7 236.2 253.2 260.1 265.7 265.1 262.2 255.3 236.4 222 208.1 229 250 265.7 273.5 280 286.8 289.7 290.8 290.8 288.8 282.9 276.5 274.7 272.1 268.5 262.7 249.3 236.6 227.8 222.7 220.1 219.5 216.5 212.2
350.8 351.8 353.1 354.5 354.8 354.8 354 352.8 351.7 350.2 348.1 345.6 342.4 338.4 331.4 324.4 319.9 313.6 307.1 302.4 298 291.8 287 277.3 255.9 267.9 271 273.3 275.5 276.1 272.9 266.7 254.4 233.9 208.4 180.8 176 188.4 206.8 223.7 222.5 196.3 167.5 163.7 184.5 206.8 228.2 249.1 266.1 271.6 272.2 271.2 270 268.4 266 254.3 233.5 209 188.4 167.8 173.2 180.8 196.7 219.3 234.3 244.4 250.7 255.7 260.6 267.8 273.7 279.3 287.1 292.7 297.7 302 306.7 310.9 314.1 316.2 317.7 319.1 321.7 322.8 323.5 322.7 323 320.2 317.7 314.9 312.1 310.5 310 310 311.1 310.7 309.4 308 306.8 305.7 303.1 300.4 294 287.1 281.3 267 245.4 222.5 208.9 201.5 196.1 192.8 190.7 191.8 203.7 221.5 238.2 256.3 269.3 277.7 284.7 291.8 295.1 296.5 295.6 292.6 291.9 293.7 295 295.7 296.4 296.9 297.9 297.7 296.7 295 290.5 284.3 276.6 268.8 258.5 240.3 220 206.3 193.9 184.1 175.5 181.2 176 153.2 152.9 179.4 211.3 237.8 261.1 269.8 269.9 268.5 265.7 262 257.8 247.9 227.2 201.4 184 205.7 229.4 247.1 256.3 262.5 260.1 256.1 232.1 215.3 202.6 218.9 239.1 256.5 268.9 277.7 283.9 289.3 292.2 291 289.1 286 280.7 274.7 272.9 269.3 265.8 256.1 245.3 239.4 234.9 230.2 227.1 223.8 219.9 214.2
351.4 352.4 354 355.1 355.6 355.4 354.6 353.3 351.6 350.1 347.9 344.6 340.7 334.4 330.2 326.2 318.1 310.7 300.6 292.4 287 280.6 275.5 264.9 272.6 280.5 285.5 288.8 288.2 287.5 283.4 274.5 263.7 244.9 225 200.6 177.1 170.1 179.9 190.9 188.3 178.3 156.5 169.2 188.9 212.8 233.7 252.9 265.8 270.2 269.9 267.7 265.8 262.8 258.3 242.7 219.1 195.3 162 172.1 175.2 185.5 203.5 226 238.5 246.2 252.3 256.9 263.1 268.7 274.3 279.9 288.3 294.3 298.5 304 309.4 314.1 317.5 319.4 320.5 321.7 322.1 322.2 321.4 320.1 318.9 316.4 313.1 309.7 305.1 302.6 305.5 307.8 309.7 311.1 310.9 309.9 308.8 307.7 304.5 301.4 298.3 293.7 289.9 275.6 248.6 232.1 225.1 217.4 212.7 205.4 195.5 185.5 202.7 221.7 240.8 258.3 270.5 278.4 286.2 291 294.1 294.2 293.4 289.6 279.4 286.6 287.6 288.4 290.9 293.3 295.4 296.6 296.1 293.5 287.5 278.1 271.6 262.7 243.6 222.7 205.7 195.8 194.4 187.4 176.3 168.7 165.2 151.6 152.8 180.5 211.1 237.7 261.2 270.2 270.6 270.5 268.6 263.6 258.6 247.8 229.4 203.5 179.2 199.6 223.6 241.9 251.9 256.2 254.5 242.1 217.1 192.1 212.3 233.1 253.4 267.5 274.6 282.1 287.5 292.3 292.4 291.6 287.7 283 275.6 273 269.4 266.3 263.8 251.2 245.6 241.2 236.4 232.7 229.3 227.1 223.1 217.8
352 353.2 354.7 355.5 356.2 356 354.9 353.3 351.6 350 348.2 345.7 343 339.5 337.3 334.1 328.6 322.4 313 304.6 297.3 288.4 284.2 278.5 284.3 290.5 293.1 295 294.8 292.8 286.3 281.4 272.7 262.5 242.7 221.2 198.8 179.8 165.1 163.4 157.2 154.9 153.5 165.2 189.9 216.5 233.8 255.3 266.9 267.5 266.1 263.8 259.1 256.1 252.2 233.5 207.7 181 160.4 168.5 178.6 192.2 211.5 229.6 240.1 247.4 252.4 257.8 262.5 268.1 274.9 281.1 287.3 294 299.3 304 309.2 314.2 317.3 319.9 321.1 321.3 321.2 319.1 317 314.6 312 308.5 303.1 293.2 289 293.1 300.5 305 307.3 310.3 310.3 310.4 310 308.8 305.7 302.6 299.6 296.3 291.3 285.4 259.7 255.5 245.4 235.9 226.2 213.5 199.8 186.3 198.8 218 239.3 260.4 272 279.7 288.1 290.5 291.8 291.1 288 283.7 270.7 276.7 279.4 279.2 286.6 290.6 293.8 295.6 295.5 291.1 281.9 273.9 264 247.2 228.3 215.1 217.9 219.9 213.3 199.2 183.4 168.7 157.5 142.7 160.4 187.3 217.7 240.7 264.5 271.5 273.4 273.5 272.5 265.7 260.1 253.6 230.7 202.2 177.6 195 219.6 238.3 246.6 248.5 248.6 224.9 203.8 198 219.1 245.5 266 275.9 280.5 285 288.7 290.4 292.7 288.4 282.7 275.5 270.3 267.8 264.2 260.2 257.3 249.7 244.4 238.7 236 232.9 230.2 227.6 225 221.7
352.2 353.4 354.4 355.2 355.9 355.6 354.4 353.1 351.5 349.9 348.2 346.4 345 343.7 342.2 339.8 335.8 330.6 324.3 316.8 309.7 303.5 296.3 287.1 291 295.9 298.2 299 297.6 294.8 290.4 285.3 280.4 272.7 262.9 239.6 219.9 203.9 173.5 161.2 163.1 162.1 150.4 154.4 173.2 195.7 216.4 237.8 254.4 260.6 262 258.6 252.1 247.6 244.7 229.2 203.5 176 154.2 168.2 182.3 196.9 214 229.4 239.2 246.7 249.6 253 258.3 262.9 269.8 277.8 284.3 292 297.2 302.9 308.7 312.9 317 319.8 320.1 319.5 317.8 314.2 311.3 306.8 301 290.1 280.9 273.5 277 290.5 297.2 302 305.9 309 309.7 309.8 309.9 309.4 307.2 303.9 300.4 296.7 293.2 286 281.2 281.2 266.8 251.5 235.4 214.9 201.6 187 192.7 216.1 238.5 259.3 273.4 282 288.1 290.1 288.5 284.5 277.2 272.1 262 259.6 264.4 276.8 285.1 289.5 293.5 295 294.1 287.7 276.7 266.5 254.8 236.7 234.9 238 243.9 243.1 227 206.4 185.6 165.4 149 147.7 170.8 198.1 228.2 247.4 268.6 271.1 272.4 271 269 263.5 257 250.9 230 203.7 175.9 188.3 214.6 230.6 240.5 241.2 237.4 213.6 190.5 198 222.7 251 271.4 279 282.6 285 285.9 286.2 285.3 282.4 275.9 268.5 264.2 261.1 257.7 253.7 249.5 244.7 240.1 236.6 234.2 232.2 230.6 227.1 225.2 222.8
351.3 353 354 355 354.9 354.2 353.2 352.1 350.8 349.5 348.3 347.7 347 346 345 343 340.1 334.9 328.8 322.9 316 310 303.9 297.2 297.9 300.1 301.3 300.3 298.4 295.6 292.2 288 284.4 279.1 268.7 243.8 217.8 192.4 187.3 191.8 191.1 185.1 166.4 147.1 155 176.4 197.8 218 236.5 252.5 258.4 254.6 243.8 237 236.1 230.5 204.9 176.7 156.4 164.8 175.8 190.1 207 220.5 228 230.9 232.8 236.2 245.1 254.5 264 272.4 280.6 287.6 294.1 300.6 306.8 312.6 316.4 317 316.7 316.3 314.3 309.2 301.4 292 280.1 270.8 261.9 257.6 271.7 285.3 293.3 299.8 304.6 307.4 308.9 309.5 309.9 309.4 307.5 305.2 301.4 297.8 292.9 286.9 282.7 282.2 279.5 266.5 244.8 222.1 204.7 186.2 191.6 214.6 237.5 261 275 284.1 287.6 287.3 283.2 269.8 256 249 243.4 249.4 269.1 278.4 285 289.6 293.6 295.1 292.5 284.6 273.6 263 256.9 254.1 255.7 257.4 256.9 254.2 231.5 204.5 180.8 157.8 143 157.3 182 211.8 236 254.1 270.4 271.3 270.8 269.7 266.8 262.4 255.9 248.8 232.1 209.3 179 180 201.1 223.3 235.4 237.9 228.1 203.6 182.9 201.3 226.9 257.2 273.7 278.8 281.2 281.9 281.5 281 278.2 273.7 266.2 260.5 256.2 253.7 250.3 246 241.9 237.9 236.5 234.3 233.7 232.1 230.5 227.3 224 221.4
350.5 352.4 352.7 352.9 352.7 351.9 351.2 350.4 349.4 348.4 347.7 347.6 347.5 346.9 346.1 344.4 341.5 337 331.4 324.9 319.3 314.5 309.4 304.5 303 303.1 302.6 301.5 299.2 296.4 292.7 288.5 284.3 279 257.2 230.8 208.6 200.4 211.8 221.9 219.3 205.9 184.4 158.6 142.7 160.9 182.7 202.9 223.1 242.7 254.7 251.2 238.4 229.1 223.7 219.6 206.6 179 156 154.7 164.8 177.3 190.4 202.6 208.6 211.4 213 212.8 223.1 235.8 251.5 262.8 274.6 284.1 292 298.9 305.1 310.5 313.4 312.9 312.6 312.5 310.3 304 283.2 269.5 259.6 249.8 246.6 253.2 267.9 281.7 292.4 298.2 302.7 305.5 307.6 308.7 310.2 310.5 309.3 307.2 303.6 299.8 296.3 290.6 282.5 279.9 278.8 274.4 249.3 224.6 201.5 182.7 191.7 214.7 238.6 262.3 275.4 281.7 284.1 282 276.7 256.2 233.9 228.2 243.7 262.3 274.4 280.8 285.5 289.8 293.5 295.8 294.6 288.1 276.8 271.3 267.9 266.4 265.4 264.3 262.8 259 234.9 203.4 176.1 149.4 150.3 170.2 193.6 223.5 241.8 257.7 269.4 271.2 269.6 268.7 265.7 262.1 254.3 248.3 232.4 214.5 184.4 169.2 186.7 208.1 227 230.5 218.9 199.8 180.7 202 227.7 258.7 271.6 276.7 278.6 278 276.1 273.9 269.4 262.9 257.9 254.9 249.7 245.6 241 237.5 234.3 231.7 230.7 231.3 232.8 231.9 230.4 227.9 224.2 215.3
348.8 350 350.5 350.8 350.4 349.6 348.9 348.2 347.6 346.7 346.7 346.5 346.9 346.9 346 344 341 336.8 331.8 326.3 321.4 317.3 313.4 309.2 307 304.9 303.9 301.3 298.7 296 293.2 288.9 284.5 272.9 242.6 216.5 221.7 229.9 236.6 241.6 237.5 226.5 199.1 167.3 142.3 147.7 170.9 193.6 213.4 233.7 248.5 249.5 242.8 227.3 216.2 199.8 189.6 170.6 158.8 150.8 148.4 159.9 170.7 181.6 186.5 189.7 191.8 203.8 221.8 234.7 249.3 265 275.1 283.7 290.8 297.1 302.3 305.9 308.3 309.2 308.5 308.9 307 300.3 277.7 248.8 237.1 232.7 243 259.3 274.7 284.9 290.1 296.6 297.7 300.8 305.2 309.4 311 311.2 310.5 309.1 305.7 303.3 300.6 292.7 283.1 278.5 275.9 269.2 251.8 227.4 203.5 179.4 191.3 214.7 239.6 261.8 272.9 277.1 278.3 276 266 244.7 222.4 235.9 256.2 269.9 277.1 281.9 286.2 291.2 294.7 296.5 294.7 289.6 283.5 277.7 274.2 273.7 272.3 271 269.6 262.4 236.4 204.9 173.5 146.4 155.7 178 203.1 227.2 240.2 253.8 265.2 269.2 269.6 267.6 264 261.9 253.7 246.8 234.8 218.9 191.2 165.8 178.1 196.8 214.3 219.8 212.9 184.5 178.8 200.9 228.3 257.4 267.4 272.9 274.3 273.4 269.3 265.7 262.3 257.5 252.5 248.5 243.8 238.9 231.5 227.7 225 224 224.7 228.3 230.6 231.1 230 228.5 218 203.7
346.6 347.5 348.1 348.6 348.1 347.3 346.6 345.9 345.2 344.6 344.8 344.9 344.8 344.3 343.8 342.1 338.6 335.4 331.2 325.6 321.7 317.9 314.9 311.9 308.7 306.3 303.6 300.8 298 295.3 292.4 287.9 279.1 253.5 224.5 228.2 242.8 251.6 258 254.8 252.3 237.8 210.2 171.9 146.1 141.1 161.7 185.1 207 227.9 244.7 250.3 246.8 235.1 221 205.8 193.5 184 173.8 164.7 154.1 144.4 151.4 158.9 167.3 181.8 200.5 219.2 233.1 245.9 258.6 269.2 276.1 282.8 288.6 293 297.3 300.3 302.1 304.2 305.2 304.9 303.8 298.4 276.8 249.6 226.7 226.2 237.2 254.3 269.5 276.6 283.2 283.3 287.9 296 305.3 310.3 310.5 310.8 309.8 308.6 305.8 302.5 298.7 294.4 285.2 274.4 271.6 263.8 250.2 227.5 201 176.1 186.7 209.7 231 251.4 265.1 270.8 268.9 259.1 246.4 228.6 213.3 238.8 260.6 269.7 276.4 281.7 286.1 291.6 294.4 296.3 296.1 292 289 283.8 281.9 280.5 279 277.6 276.2 261.3 236.4 204.6 172.2 145.9 153 177.7 199.4 221.9 232.1 239.6 250.8 260.9 266.4 264.5 263.1 260.6 252.8 245.6 235.5 221.6 195.7 171.4 171.8 192.4 209.1 216.4 204.4 177.3 179.8 203.1 230.6 257 263.8 267 266.8 264 261.2 257.4 254.1 250.8 245.8 241.8 236.4 230.6 220.1 214 206.9 210.7 222 226.5 227.7 229.9 226.5 214 202.5 191.1
344.3 345.3 346 346.7 345.9 345 344.2 343.5 341.5 341.4 342 341.8 341.6 341.4 340.4 338.5 335.6 332.6 328.9 324.4 321 318.5 315.5 312.3 309.1 306.4 303.2 300.3 297.4 294.6 290.7 285.7 267.5 234 237.6 249.2 261 266.5 266.9 264.1 262 243.6 213.4 174 147.4 137.9 151.7 178.2 202.2 224 243.3 254.5 252.5 245.8 234.7 218.5 205.6 197.5 190.7 181.4 168 154.8 141.3 155.6 176.4 195 215.1 231.3 241.9 251.7 259.4 266.1 272.5 278.6 283 287.1 290 293.2 295.9 298.6 300.9 301.4 300.8 296.4 278.1 255.1 227.9 216 225.1 240.1 256.7 262.7 258.1 274.5 288.3 300.6 308.4 309.2 309.4 309.6 309.3 307.9 305.6 301.5 297.9 293.2 284.3 270.7 259.6 256.7 251.3 232.4 204.8 181.2 177.6 196.5 216.6 238.7 258.3 259.4 249.4 237.4 224.6 211.3 211.7 235.4 256 265.6 273.4 280.6 286.2 290.6 294.1 296.2 296.3 294.1 291.8 290.7 288.5 286.6 284.1 282.8 274.9 253.9 229.6 195.2 163.6 143.8 150.3 170 189.8 202.4 213.6 223.2 230.4 240.9 249.2 256.9 259.9 255.7 249.8 244.2 234.2 222 198.3 171.3 167.7 190.3 207.6 214.5 191.9 168.7 182.4 203.5 231.9 251.9 255.2 257.8 256.5 254.5 252 248.9 245.1 241.2 237 232.7 227.3 220.4 213.1 203.6 199.2 212.5 217.8 219.3 219 217.3 209.8 200.6 190.7 182
342.4 344.1 344.8 345.4 344 343 341.9 339.9 338.4 337.5 336.4 337.2 337.3 336.6 335.5 333.9 332.3 329.4 326.7 323 320 317.7 315.3 312.6 309.6 306.5 303.2 299.1 296.3 292.9 288.1 273.2 249.5 248 261 270.1 274.7 275 274.4 271.8 265.1 242.7 211.8 174.1 149.2 136.9 150 175.6 199.9 223.8 245.7 258.6 258 255.2 247.4 232.9 221.5 213.8 211 199.1 184 164.5 146.6 148.6 170.6 190.3 211.4 227.1 238.4 245.1 253.6 260.8 266 270.6 273.9 277.6 280.1 284.7 290.9 295.3 298.1 299.1 298.3 295 281.9 259.1 232.1 213.9 210.7 222.1 234.4 238.9 258.2 276.7 292.5 301.4 305.5 307.9 307.8 308.7 308.6 307.5 304.1 299 295 288 280.8 269.5 249.6 245.1 251.2 234.4 215.8 194.7 171.2 183.3 203.3 224.2 242.6 238.8 227 214.5 202.6 202.4 222.2 239.6 248.3 262 270.5 277.8 283.3 289.2 293.8 296.7 296.7 297 296.7 296.3 295.2 292.7 289.3 285.2 267.8 243.8 215.3 187.4 174.6 155.9 143.4 155.8 165.9 179.3 188.4 196.3 206.5 217.4 230.5 239.6 248 250.6 247 239.9 229.9 220.3 196.1 170.8 164 186.4 198 195.2 178.7 162.9 183.2 206.8 230.2 241.7 246.1 248.4 247.7 245.5 242.9 239.7 235.3 231.1 226.4 221.6 216.8 210.9 206.2 194.2 194.4 206.4 207 205.8 204.2 202.2 196.4 188.9 182.2 175.7
340.5 342.8 343.6 343.6 342.1 341.1 338.9 335.2 333.8 332.3 331 331.7 331.1 330.8 329.9 328.8 327.8 325.8 324.1 322 319 316.7 314.4 312 309.2 306.1 302.3 297.6 294.4 290.8 278.3 257.2 257 269.1 275.4 280.7 281.3 281.2 279.8 276 265.8 241.2 212.6 180.1 151.3 135.9 150.3 176.8 199.3 221.8 243.6 259.9 262.5 260.8 255.9 249.5 242.7 235 228.9 214.7 194.5 170.4 149 141.8 163.8 184.8 203 215.9 225 235.3 244.5 251 257.5 259.6 259.1 258 268.2 280.2 287.3 291.9 294.7 296.6 296.2 293.1 286.7 266 240.3 216.6 204.8 210 218.7 237.1 258 277.7 291.5 298 302.5 303.6 306.5 307.9 307.6 304.7 300.2 294.8 289.9 281.8 276 267 252.1 237.7 243.8 238.9 224.1 208.8 179.4 171 189.3 210.7 223.5 214.5 203 192 200.8 218.6 236.8 257.1 264.3 272.1 277.8 281.5 286 290.7 295.1 297.8 298.8 302 301.5 300.5 299.3 296.8 293.3 282.1 263.4 239.7 216.8 205.1 189.2 169.4 149.4 139.8 151.4 156.8 164.3 171.1 179.7 188.6 202.9 220.4 234.3 240.4 238.6 234.9 230.8 222.2 197 172.3 155.8 176.1 189.3 182.2 167.2 165.6 186.3 208.6 226.4 235.7 238.5 240.3 238.6 235.1 232.6 229.4 224.2 217.3 210.5 208.7 206.7 203.5 198.8 182.2 187.6 194.1 195.8 194 192.3 189 184.3 178.9 173.1 171.5
338.6 341 342.4 341.8 340.1 339 335.9 332.8 329.1 326.2 325.6 325.2 324.5 324.7 324.6 323.8 323.2 321.4 321.3 320.7 318.1 315.7 313.5 311.3 308.4 304.8 301.3 292.7 291.5 283.2 266.3 264.6 276.8 280.5 284 285 285.7 284.8 281.9 276.8 265.4 241.4 213.3 183.7 153.1 135 149.4 175.8 200.3 222.7 243.8 255.8 259.7 263.1 261.6 258.6 254.7 245.6 240.8 225.4 201.1 176.6 151.3 138.8 157.4 177.2 189.6 201.9 212.1 223 233.2 241.1 245 238.9 237.1 251.9 268.5 277.9 284.3 288.6 291 292.3 291.9 288.9 282.4 267.2 252.4 221.6 201.6 200.2 210.8 235 256.6 277 285.8 293.2 296.7 303.2 306.3 306.2 304.1 299.8 295.4 290.5 283.9 276.4 271 263.6 251.9 235.2 236.3 238.8 231.1 215.7 195.4 167.4 174.9 196.8 202.1 192.6 183.1 196.8 214.3 235 256.2 269.9 277.4 284.4 287.8 289.5 291.6 295.6 298.3 301.6 303.8 304.1 304.2 304.4 302.8 299.5 295.2 283.2 265 244.1 235.3 222.2 202.9 182.1 165.1 149.5 136.9 138.7 140.6 145.3 154.4 164.6 177.5 192.9 209.1 223 229.5 231.6 230.4 226.9 206.3 179.4 153.9 161.8 172.1 166.8 151.7 169.2 187.3 205.6 222.5 228.2 230.3 232.3 230 225.9 221.9 218 212.5 205 197.5 196.5 197.8 195.7 189.5 175.6 180.6 183.2 184.5 181.4 180.6 176.6 170.9 160.3 154.2 156.9
338.3 339.1 341.1 340 338.2 336 332.9 329.6 323.3 320.2 319.5 318.8 318.2 318.7 319.3 319.7 318.6 318.6 318.5 318.5 316.9 315.3 313.6 311.9 308.8 304.6 300.2 292.4 281.2 267.9 272.6 281.9 285.2 286.6 287.9 288.2 287.4 285.4 282.1 276.6 265.5 241.4 211.9 183.1 152.7 134.9 152.8 178.8 202.4 221.3 238.8 251.4 256.9 262.2 264.1 261 257 250.6 242.8 228.2 203.8 178.6 153.7 137.5 150.7 167 177.8 192.4 204.8 217.6 228.6 234 228.3 220.9 238.8 257.4 267.8 276.6 282.4 285.4 285.5 286.5 284.8 281.1 271.4 258.4 246.4 220 200.1 196.6 212.8 231.1 252.8 268 276 283.1 296.2 302.4 304.3 303.4 299.7 296 291.4 285.5 277.5 271.1 264.3 257.6 241.3 225.2 222.2 234.6 234.3 222.7 203.9 179.6 167.7 184.3 181.2 182.2 198.4 215.8 236.5 256.9 271.1 282.6 286.9 290.9 294.7 296.9 298.9 300.2 302.9 306.4 306.4 306.2 305.9 305.7 305.3 303.7 298.3 288.5 274.8 260.6 255.9 241.8 222.1 199.4 180.8 170.6 161.7 151 142.2 134.7 128.7 140.8 154.8 171.8 187.6 207.6 224 232.1 236.5 232.9 219.2 191.7 166.5 150.7 156 148.9 155.7 170.2 184.7 200.9 216 219.8 222.5 223.9 222.5 218.3 208.6 205.5 200.4 193.2 184 189.5 189.5 187.3 181.5 172.1 175.3 175.9 174.1 169.6 164 157.4 147.8 144.3 147.1 150.5
338.2 339.7 339.7 338 336 332.8 329.6 325.8 319 314.1 313.7 313.4 312.7 314.1 314.8 315.7 315.9 316 316 316 315.9 314.9 312.9 311 307.3 303.3 298 289.6 279.4 281.6 284.7 288.4 289 289.3 289.1 288.7 287.4 284.7 281.6 277.2 267.2 240.1 209.6 182.5 153.5 134.7 149.5 172.5 192.7 210.9 231.2 244.2 253.7 259.2 261.8 261.3 257.7 250.8 242.2 229.6 206.4 182.2 156.4 139.9 141.6 158.2 176.6 195.2 213 223.8 229.8 226.5 212.9 217.4 238.7 257.1 267.5 274.9 279.4 279.2 278.4 277.2 273.8 264.3 255.5 245.8 232 210.6 192.7 194.5 209.8 229.2 246.2 253.8 269.8 286.9 295.5 300.3 301.2 300 295.9 291.9 287.3 279.8 272 262.1 254.5 238.5 226.6 214.5 201.4 215.7 232 224.3 196.9 176.7 164.1 169.8 185.4 200.9 218 236.6 260.2 273.4 281.6 286.8 291.7 297 300.5 302.9 303.9 304.4 306.4 308.2 308.9 307 306.1 305.7 305.1 304.5 299.9 291.8 282 273.3 265.3 256.7 237.2 221.6 204 193.1 187.2 181.2 171.5 158.8 143 118 125.9 151.1 169.2 192.9 216.8 232.8 237.8 237.2 232.1 206.7 179.7 159.7 146.6 141.7 154.9 165.5 181.2 198 210.9 215.9 219 220.1 218.3 213.1 202.5 190.3 187.9 182.6 175.4 182 182.1 179.5 175.3 167.4 169 169.9 160.9 153.5 145.8 142.1 140.8 150.2 164 168.3
337.1 337.8 337.1 335.1 332.3 329.2 326 321.6 317.4 311.6 308.1 308 307.4 309.2 311.4 312.8 313.5 314.1 314.2 314.2 314.3 314.3 312.3 310.1 305.9 301.6 296.1 289.6 285.4 288.1 290.1 289.8 290.2 289.4 288.3 287.4 285.7 283.4 280.9 276.9 268.5 241 213.5 185.4 157.3 134.5 139 159 177.1 195.4 211.3 227.7 239.2 245.7 249 252.3 252.3 248.8 239.8 229.3 208.8 187.8 162.1 142.5 135.6 155.5 173.1 194.2 212.1 222.5 224.2 211.4 199.6 214.8 238.9 255.6 264.4 270.9 271.7 269.4 265.4 258.2 250.3 242.3 236.7 227.1 213.4 199.3 183.9 190.6 204.2 224.2 229.8 250.7 273.2 285.9 292.3 296.6 297.3 296 294.1 288.4 283.2 276.6 267.8 258.1 245.5 234.1 222 206.3 199.7 188.7 204.4 215.2 188.3 166 177 196 210.1 225 241.7 260.8 272.3 279.6 286.2 290.3 296.6 301.8 305.9 307.3 308.2 308.2 309.5 310.2 309 307.1 306.3 305.8 304.9 304.1 300.5 293.9 287.4 282.4 272.8 263.5 254.8 244 234.7 221.8 213.3 205.4 198.6 186.8 166.3 149.1 121.3 127.2 154.6 181.3 210.5 231.4 236.9 237.1 231 215.2 191.7 174.9 155.9 137.1 149.5 161.4 181.2 197.7 204.1 211.3 216.4 218.1 216 209.1 198.1 183.6 173.8 172.4 168.2 175.3 175.8 174 170.4 164.6 162.3 159.2 147.8 137.8 135.6 141.5 154.7 168.2 170.4 168.7
334.6 335.1 334.5 331.7 329.1 326.7 322.8 318.5 314.8 311.5 309.8 306.4 299.6 304.8 307 308.7 310.3 311.2 312.1 313.6 313.9 314.1 312.2 308.7 304.4 299.7 295.6 292 290.7 290.7 291.3 290.3 289.7 288.1 286.9 284.5 282.8 281.1 278.9 275.6 269.1 251.1 222 192.2 162.1 139.3 132.9 144.4 160.4 176.6 191 205.6 218.6 227.6 234.7 241.7 245.9 242.5 233.4 221.3 206.2 187.1 164 145 131.9 151.4 173 192.7 209.2 215.2 209.8 195.8 193.4 214.3 236.8 252.1 260.9 263 259.9 254.9 246.1 237.6 229.5 223 214.5 204.8 193.8 183 181.2 189.7 200 217.6 232.8 255 273.6 282.5 288.8 292.2 292.2 291 289.1 284.9 280.2 275.6 271.6 268.2 263 256.3 246.7 229.8 215.6 197.1 181.1 195.2 186 162 181 209.5 230.4 241.1 257.3 268.5 276.9 284.6 289.3 294.7 300.4 304.3 308.3 308.3 308.5 308.4 309.5 309.9 308.5 307 306.4 305.6 304.8 304 301.9 297.7 292.9 286.9 280.1 274.3 268.2 258.9 258.2 248 236.3 223.9 214.1 200.2 179.3 158 144.7 110.3 143.5 170.1 202.2 224.2 231 228.9 224.2 212.5 192.9 175.5 159.7 140.1 147 161.4 180.7 197.1 206.5 211.2 215.1 216 213.1 205 192.9 180.4 166.9 165 166.8 169.2 169.3 168.7 167.3 163.9 158.2 144.1 138.2 131.3 147.1 157.9 164.6 165 162.3 161.1
331.3 331.4 330.1 328.3 326.5 323.9 319.9 316.3 312.6 308.8 306 306.5 296.6 299.3 302.1 304.6 306.7 308.4 310.3 312.3 313.5 313.1 310.9 308.2 304.4 300.2 296.5 293.5 292.7 291.8 291 289.8 288.4 286.5 284.6 282.2 280.4 278.3 275.8 272.7 269.3 261.7 234.6 201.8 173.3 151.9 132 134 144.6 159.4 174.5 187.5 199.5 210.1 221.2 229.4 235.2 231.7 222.7 210.6 194.3 178.7 161.4 143.4 129.2 152.8 172.1 192.6 200.9 202.7 193.9 184.8 193.5 213.3 234.9 249.6 254.4 251.4 246.1 235 224.3 216.7 211.8 205.2 193.7 181.3 179.4 178.2 184.7 194.6 208.4 223.4 242.5 262.3 272 279.3 284.1 287.1 287.2 285.1 283.9 280.1 275.4 273.9 270.9 267.2 261.9 260.2 254.4 247.3 233.8 213.2 181.3 174.3 179.7 158.4 177 205.3 233.6 251.2 263.4 273.9 281.4 286.5 291.5 295.7 299.2 302.3 304.3 304.9 306.3 307.2 306.6 306.5 305.7 305.3 305.2 305.7 306 306.3 303.4 300 293.9 287.4 280.6 276.4 271.5 266.6 260.5 252.7 243.5 232.6 222.7 206.5 177.6 160.5 150.5 113.4 140.3 164.2 189.7 206.8 214.4 216.6 214.2 204.4 187 171.7 153.2 134.7 148.9 165.6 183.9 197.4 205.8 209.9 213.4 214.2 210.2 203.2 189.6 172.9 161 160.3 159.4 162.5 163.9 166.3 166.3 165.4 160.5 153.3 131.3 134.1 156.2 158.3 154.9 151.4 152.5 157.4
327.5 327.3 327 325.5 323.6 321.5 317.8 314.1 310.4 306.4 302.3 301.1 296 293.1 297.9 300.6 303.7 306.8 308.7 310.7 311.6 311.7 309.3 307.5 304.6 300.3 297.2 294.9 293.1 291.3 288.7 287 285.6 284.8 281 278 275 273.5 269.9 269.2 267.9 263.4 245.3 213.2 189.6 165.3 147.7 131.8 132.7 144.5 157.3 170.4 181.4 192.6 205.2 217.2 222.1 217.1 207.1 193.4 179 167.1 150 128.5 135.8 151.1 168.5 184.3 189.5 189 180.7 180.3 192 213.2 235 245.8 244.1 237 224.3 213.1 203.8 198 193.8 178.4 174.7 174.5 174.6 180.5 190.5 200.5 213 229.8 247.5 261.6 267.8 273.1 278.8 280.4 278.8 276.5 275.9 274.4 270.8 269.9 267 262.1 263.7 263.8 260.1 253.6 239.1 217.7 186.8 165.9 168.5 158.1 179.6 206.2 230.5 251.5 264.8 273.6 281.2 287.2 291.9 295.6 298.7 299.2 299.3 299.9 300.6 302 301.6 302.2 301.2 302.2 303.4 304.5 305.4 305 301.6 298.7 292.7 287.3 281.1 277.6 275.1 270.3 264.3 257.6 250.8 237.7 224.8 200.6 183.4 169.5 154.6 121.8 135 152.8 170.9 186 195.6 197.7 198.1 192.6 177.5 165.7 144.4 135.1 154.6 171.3 186.5 197 202.8 206.7 208 209.3 207.4 199 185.9 170.4 157.5 158 157.4 159.3 162 164.1 165.4 163.7 159.6 147.5 127.8 137.9 145 140.4 143.1 153.5 159.7 163.8
324.3 324.1 323.8 322.6 321 318.9 315.8 312.3 308.8 305 301.1 299.2 293.2 290.7 290.3 295.7 302.1 305.9 308 310.2 311 311 309.1 307 303.5 299.7 296.6 293.9 291.8 289.9 287.3 284.7 281.2 279.2 276.5 271.7 265.8 262.4 261.2 260.9 263.3 262.2 255.8 231.1 209.2 183.4 163.4 147.4 132 129.5 140 152.4 163.6 174.9 187 197.6 202.1 197.6 188.3 176.3 165.2 154.1 130.1 135 137.7 148.9 161.3 173.5 176.9 173.6 170.3 181.1 197.1 215 235.2 238.4 229.9 217 203.8 191.7 182.7 175 173.3 171.4 170.5 169.7 177.1 186.5 197.3 203.3 213.3 230.4 248.2 257.5 264.1 269.2 273.7 273.7 273.5 274 272.5 268.9 263.8 260.8 261.3 264.2 265.7 265.2 262.8 259 245 219.2 192.3 173.3 157.5 161.3 184.8 206.4 227 246.9 260.4 270.7 278.5 284.7 289.1 291.5 292.8 293.2 293.3 294.4 294.4 294.5 294.6 295.9 297.8 301.4 304.3 305.4 303.4 301.9 296.4 293.5 290.5 287.2 281.9 278.6 276.4 271.9 267.9 262.2 255.2 240.8 225.5 212.9 198.2 181.6 160.6 135.3 110.5 140.4 154.5 168 179.2 184.5 184.5 176.9 169.6 151.6 135.8 140.1 160.2 173.1 183.7 193.4 197.9 201.8 203 203.4 199.3 192 179.5 165.6 154.4 152.5 154.4 158 160.5 162 163.1 161.5 158.2 141 126.8 132 129.5 141.2 152.5 157 162.2 167.3
321.2 321.1 320.7 319.4 318.2 316.3 313.4 310.5 307.2 303.6 301 297.8 292.2 285.1 282.2 293.3 302.6 305.7 307.9 309.9 310.5 309.7 308.4 305.3 302.4 299.1 296 293.1 291 287.4 282.3 276.6 272.9 270 265.9 260.7 251.6 244.8 239.8 243.9 250.3 256.1 254.8 246.6 223.4 203.3 182.2 163.5 148.7 133.8 123.5 132.1 146.2 157.2 166.4 177.4 183.1 180.6 172.6 161.2 145.9 132.1 125.4 131.8 137.9 144.8 151.8 158.7 163.3 165 170.3 184.4 201.6 217.8 233 226.8 213.1 197.8 185.6 171.8 169.5 169 168.1 167.2 163.8 172.2 182.1 194 209.3 220.7 222.8 228.5 246.4 255 259.8 263.7 267.9 270.8 271.1 270 267.5 261.2 255.1 257.4 260.6 264.1 266.2 266 264.2 260.2 245.4 222.1 197.3 176 158 158.1 174.6 192.7 212.3 232.6 250.9 265.2 271.7 276.7 280.1 280.7 283 285 286.3 287 286.4 284.4 286.3 292.6 298 302.1 304.5 303.2 300.7 297.6 292.3 291.6 288.1 283.9 280.8 277.6 274.9 271.9 268.1 263.8 258.5 249.3 234.6 231.9 216.3 195.3 172 150.3 123.9 96.8 137.3 150.6 160.8 165.9 168.3 166.4 159 132.3 123.7 148.5 159.8 170.8 179.8 188.1 193.2 196.7 195.7 193.3 188.6 180.7 171 159.8 149.9 148 152.3 155.6 157 158.3 158.4 153.5 140.8 126.4 123.2 127.2 141.9 149.7 154.1 159.2 168.7 170.3
317.8 318.2 317.6 316.3 315.1 313.8 311 308.1 305.2 302.3 300 295.3 289.2 282 282.1 294.7 304.3 307.7 309 309.5 309 308.2 307.1 304.3 301.5 298.4 295.3 291.7 286.5 281.8 278.9 277 274.2 272.2 270.2 267.7 260.6 255.9 237.7 211 215.4 222.8 232.3 245.5 232.7 218.2 201.3 182.7 165.4 148.9 133.8 121.7 128.3 139.9 150.1 159.5 164.5 162.3 154.7 141.3 121.1 129.3 132.1 134.1 137.3 140.2 143.9 145.3 152.9 164.9 177.6 192.4 205.5 222.9 223.7 211.9 197.6 182.5 170.3 165.2 163.4 163.4 162.2 160.9 167.2 177.3 187.4 203.6 222.4 238.4 244.8 242.3 245 251.1 254.1 259.8 264.3 266.7 264.7 262.4 263 255.1 248.4 253.8 259.2 263.7 266.4 266.5 265.3 261.3 247.9 228.7 204.9 183 163.6 152.4 159.4 175.1 195.7 219.3 238.9 249.4 256 261.7 266.4 265.5 272.5 277.1 276.6 274.2 273.6 280 288.9 294.6 299.4 303.1 302.7 300.4 297.6 293.5 288.9 286.5 283.8 280.6 277.8 275.7 273.2 270.9 267.9 264.3 260.1 256.6 250.3 240.8 234.6 210.1 186.1 161.8 143.5 104.7 117 134.7 146.4 153.6 157.3 156 136.2 107.7 139 149.1 159.3 169.1 177.9 185.8 188.5 187.5 185.4 181.8 175.7 171.3 163.9 153.8 147.3 141.7 148.3 148.5 148.5 151.5 152.1 137.9 122.4 118 127.8 138.8 146.3 151.6 157.5 163.3 166.4 166.8
313.7 315.5 315.3 314.3 313.3 312.3 309.6 307 304.1 300.8 298.2 294.4 283.6 274.3 284.7 296.8 304.1 305.7 307.7 307.9 307.3 306.4 305.2 303.1 300.3 297.3 294.1 289.1 284.1 283.8 283.2 281.9 281.1 279.4 277.6 273.5 266.8 263.4 244.6 215.9 188 193.7 213.4 229.4 232.8 225.1 208.2 196 183.8 165 147.4 131.2 120.3 124.3 134.5 140.7 145.1 144.6 139.7 120.4 128.7 129.1 132.4 134.9 143.1 146.5 151.1 158 168 177 188.3 199.7 213.7 218.3 208.2 195.6 181.9 168.3 160 157 155.9 156.1 157.9 165.7 173.1 186 202.1 219 237.1 248.2 254.5 254.3 247.8 248.8 253.1 256.3 254.9 249.4 251.6 255.6 256.3 248.7 243 252.2 259.3 264.1 265.6 266.5 265.3 260.4 256.8 243.7 217.5 196.9 180.1 162.3 150.2 158.9 180.9 203.9 225 230.8 233.1 236.7 243.2 253.9 265 266.2 258.5 261.2 274.6 285.9 291 295.4 299.8 302 299.9 297.6 293.9 288.8 284.4 281.5 279.3 276.6 274.8 273.9 272 269.7 267.6 264.3 261 258.2 253.6 248.4 238.4 222.4 203.1 182 156 123.6 99.1 122.3 134.7 145.3 150.1 143.9 123.1 106.3 140.5 151.2 158.7 168.3 177 179.3 178.4 176.9 173.8 169.3 165.9 162 155.2 147.5 143.4 141.1 141.7 141.3 142.1 143.6 134.9 120.3 116.9 130.3 138.3 142.7 148 155 160.4 159.9 159.1 162.2
308.7 311.6 312.7 312 311.3 310.5 308.1 305.4 302.9 299.8 297.2 294 287.4 273.9 279 288.6 295.8 300 302.5 304.4 304.6 304.4 303.2 301.6 298.9 296.3 293.1 289.3 286.8 287.2 287.5 286.4 285.4 283.8 281.3 276.4 271.4 264.3 252.2 232.2 202.4 177.9 197.7 214.4 216.3 209.3 202.2 195.8 188.8 179.9 165.3 147.9 129.7 120.3 119.5 127.1 130.4 131 128 118.4 124.8 127.6 132.9 143.6 156.8 164.9 171.4 178.1 186.4 194.7 203.4 209 208.3 201.5 191.6 181.8 166.8 154.3 150.7 148 153.2 156.6 164 172.2 181.5 196 213.4 231.6 242 251 254.7 253.7 248.4 245.6 246.7 243.7 237.9 239.1 246.5 253.3 254.8 246.9 234.8 243.8 254.2 260.3 263.4 264.9 262.2 261.9 259.5 244.7 223.2 206.2 189 169.8 149.4 154.3 172.8 195.6 204.5 205.4 208 211.9 221.5 235.7 249.3 244.9 255.8 268.4 279.5 288.3 293.5 296.7 299.3 299.7 297.5 295 289.2 284 279 275.4 272.8 272.5 270.9 271 270 268.6 266.4 264.2 262 259 252.6 246.4 240 229.8 219.2 198.2 174.3 149.3 110.4 104.5 122.2 129.4 137.8 124.1 102.7 115.5 142.3 150.5 157.7 165.1 169.4 169.2 167.5 165.1 161.6 158.2 155.9 152.7 147.6 140.9 139.8 135.8 133.9 134.4 131.4 126.2 116.6 115.7 131 136.7 142.4 148.3 152.1 157 155.5 156.8 161 165.3
303.7 307.2 309.2 309.2 308.5 308 306.5 304 301.6 299.1 296.1 291.8 286.5 275.2 270.6 283.4 289.7 295.5 298 300.6 301.1 301.2 300.5 299.9 297.7 295 292.1 291.1 290.2 291.2 290.7 289.8 288.3 286.2 282.1 276.6 270.2 259.9 245.5 225.4 199.9 173.3 185 193.7 193.5 188.5 183.6 177.8 175.3 173.5 170.3 162.2 147.1 130.4 121.2 118.9 115.1 117.6 118.1 117.6 127.2 131.6 143.8 157.6 171 184 191.6 197.6 204.6 207.5 204.3 201 195.2 184.8 173.6 162.9 148 143.3 147.9 152.5 157.7 162.9 168.4 176.3 190.8 206 224.1 236.4 244.3 251.4 253.6 250.3 243.6 238.1 234.8 235.5 242.3 250.8 255.8 258.2 260.2 247 223.7 228 241.7 254.5 259.5 262.1 261.6 261 252.6 231.9 211.3 192.7 174.6 158.8 146.8 152.2 168.8 178.2 182 182.3 183.7 190 205.5 222.5 228.2 247.4 263.9 275.7 284.5 290.2 294.4 296.8 297.9 297.8 295.5 292.3 285.9 279.4 273.8 268.9 265.7 268.1 267.8 267.9 267.7 266.2 264.7 263.2 261.6 256.1 249.5 243.7 240.3 233.9 225.4 211.4 192.5 163.7 138.2 117.3 92.1 111 112.5 103.7 112.5 133.9 145.1 147.9 150.6 154.3 156.9 157.7 156.6 154.3 152.9 150.5 148.4 144.5 138 133 134.3 131.2 115.4 115.7 110.6 106.4 113.3 131.5 137 142.2 146.9 151.5 152.5 150.4 153.4 158.9 163.6 171.1
299.5 302.8 305 306.5 306 305.3 304.7 303 300.7 299.2 296 291.1 284.3 275.7 260.4 278 284.7 290.2 294 296.7 298.7 299.2 298.8 297.8 296 294.9 293 293 292.5 292.9 292.8 291.3 289.5 285.8 280.9 274.1 265.1 248.4 227.1 207.4 192.7 178.8 167.7 170.4 170.2 167.7 163.7 161.1 158.8 159.4 161.3 160.7 154 142.8 135.4 122.6 117.8 116.1 114.7 114.4 129 143.5 157.2 170.9 184.8 195.2 201.6 203.8 202.1 199.4 193.7 183.6 172.4 160.3 150.5 140.6 140.8 146.5 151.5 157.2 162.2 166.6 170.3 182 197.3 214.7 226 237.3 244.7 251 250.5 243.7 230.3 232.5 239.4 245.8 251.8 257 261.1 264.3 262.7 250.8 233.1 211.8 224.2 238.2 251.2 257.7 259.2 246.3 233.5 212.3 191.9 175 157.3 144.7 147.2 155.3 160.6 164.3 172.5 185 195 213.1 231 237.6 244.9 258 271.8 280.4 286.7 290.2 294.3 295.8 296.3 295.8 294 289.2 282.2 275.5 268.4 264.4 259.4 264.2 265.4 265.3 264.8 263.6 262.2 258.1 254.8 249.6 245.9 241.5 238.9 231.5 222.9 212.6 198.1 174 158.8 148.4 132.3 98.7 91.1 99.5 123.2 134.8 143 142.1 141 143.7 146.2 146.5 146.4 146 144.9 142.8 139.8 131.5 114.6 112.3 113.6 99.4 106.3 113.1 116 128.9 135.1 138.3 141.7 146.1 147.7 148.5 147.7 151.1 154.9 161.4 169.8 177.4
295.8 299.1 300.5 301.5 302.2 302.2 302.2 302 300.1 297.4 294.2 289.5 283.8 276.1 256.4 268.7 278.2 285 290.3 293.3 296 297.1 296.8 296.3 295.2 294.9 293.8 294.6 294.7 294.9 293.5 291.8 288.6 285.3 278.7 270.6 253.7 233.2 216 212.9 203.8 192.9 181.1 171.6 165.2 160 157.3 152.9 147.5 144.1 148 150.3 152.1 146.6 139.7 131.6 126.2 117.6 114.9 119.2 143 159.9 170.5 181.8 190.4 197 196 192.4 187.8 181 172.8 161.5 149 139.9 133 138.5 144.4 149.5 155 161.1 166.1 167.8 172.6 186.9 202.6 217.3 228.3 238.9 245.4 249 246.4 237.8 226.2 234.8 241.9 250.1 256.1 261.3 265.7 266.2 262.8 254.1 236 213.3 203.8 217 233.9 242.2 238.4 229.1 208.8 188.4 171.4 157 143.9 146.6 162.1 171.7 176 183.2 194.1 206.1 220.3 236.9 250.1 257.3 262.7 264.6 276.9 283 288.3 290.9 293.7 294.4 294.2 293.9 292.2 286.8 279.3 272.6 266.7 260.5 256 255.3 257.6 257.1 256 255.2 254 249.8 246.8 244.6 240.5 233.5 224.2 218.8 214.8 204.8 190.8 176.3 166.8 162.2 151.4 134.4 114 95.5 98.1 115 130.3 133.9 132.5 135.1 138 139.3 140.2 139.3 138.9 135.5 125.9 110.8 102.9 96.6 107.1 111 125.7 133.5 134.2 135.5 137.5 140.4 143 144 143.2 143 150.5 153.6 158.8 166.3 174.2 182.4
287.9 293.6 294.9 295.4 296.9 298.7 299.3 299.2 298.3 295.5 292.6 288.1 282.9 275.2 257.6 259.2 271.8 278 286.3 290.5 293 295.1 294.9 295.2 295.1 294.4 294.9 296 296.5 294.9 292.6 290.5 287.4 283.1 276.9 264.5 249.2 243.2 240.5 236.5 221.6 208.5 199.5 191.3 186 180.6 175.8 168.8 159.7 149.1 141.1 143 147.9 146.6 142.4 135 128.2 121.6 114.4 122.7 151.9 168.5 181.4 189.6 190.5 186.7 181.2 176.2 171.5 163.5 153.8 143.4 131.2 133.1 138.4 143.5 147.8 152.2 158 163 167.2 170.6 180.6 190.8 205.1 218.2 229.3 238.5 243.1 245.9 242.6 234.8 223.9 236.6 244.2 252.8 258.8 262.8 265.7 265.3 262.5 255.1 238.7 216.7 189.4 197.4 209.3 217.4 217.9 206.1 186.3 167.4 154.5 143.8 142.5 158.9 177.2 190.4 200.3 208.8 218 230.8 243.5 257.7 269.5 273.3 276.2 279.7 282.2 287.3 290.2 291.5 292.9 293.2 292.2 291.7 289.1 284.5 277.7 273 265.5 260.1 256 253.7 240.8 242.3 243.4 243.6 241.9 240 237.5 225.8 211.7 203.7 201.6 203.7 200.8 192.1 182 172.7 167 162.7 156.6 146 137.6 113.6 90.4 93.3 106 122.7 125.2 129.4 133.3 135.2 135.8 135.1 133.9 129.4 105.7 97.7 100.2 114.4 126.5 129.4 135.6 136.3 136.5 136.9 139.1 140 140.3 137.3 141 148 152.9 156.4 163.3 171.3 180 188.9
274.3 279.8 282.4 286 290.1 294.4 295.9 296 295.3 293.2 290.8 287.3 281.6 272.7 256 248 263.7 275.5 283.2 288.2 291.1 292.7 293.1 293.5 293.9 294.2 295.6 296.6 296.1 293.9 291.9 289.1 286 282 274.8 267.5 262.6 256.7 251.2 244 234.1 223.6 217.2 212.7 206.6 200.7 194.6 186.8 175.3 160.3 145.9 136.6 142.6 147 143 134.9 128.2 121.8 112.7 123.8 148 169.5 180 183.8 179.8 172.7 166.8 160.3 151.6 142.7 135.5 128.9 133.7 139 144.4 148.4 151.6 154.2 158.6 162.3 166.2 173.1 186.3 193.5 205.7 217.3 226.5 236.3 239.5 240 238.7 229 220 235.2 245.4 252.4 257.7 262 265.3 265.7 264.4 255.1 238.8 219.8 196 179.2 187.4 195 196.2 182.2 163.9 152.3 142.3 140.6 155.6 174 193.2 210 222 231.7 243.2 252 263.2 274.1 279.3 283.7 285 285.5 287.6 290.4 291.4 291.4 292.5 292 290.7 288.8 286.1 282.8 278.9 270.9 263.5 257.4 252 246.4 223.5 210.5 213.6 217.5 219.5 217.3 213 201.7 194.4 188 188.6 187.8 183.5 178.5 174.6 168.4 159.8 152.4 150.3 157.3 155.8 136.9 114.5 94 87.1 105 117.5 124.5 128.2 130.5 130.7 129.3 120.8 104.3 95.7 108.9 123.9 128.4 133.2 135.4 139.4 139.6 134.9 135.9 136.4 137.8 136.6 138.8 144.4 148 153.5 159.7 167.3 175.9 184.9 192.4
251.1 253.9 256.4 263.3 272.9 281.8 290.1 292 291 290.5 288.9 286.1 279.5 270.9 254.5 244.4 263 272.2 279.1 284.2 288 290.1 291.5 291.9 292.4 294 295.3 295.4 293.8 291.1 288.6 287.2 285.1 282.2 277.8 271.7 268.4 263.3 258.5 253 243.7 238.5 235 231.2 226.2 219.3 212.4 203.9 186.9 169.7 156 139.6 144.2 147.7 144.5 136.3 128.9 122.4 111.5 118.6 140 163.8 171.5 172.9 166.3 156.7 144.6 133.3 122.5 126.4 131 138.4 141.6 146 149.2 151.1 152.6 155.4 159.2 162.8 165.1 180.1 192.2 197.8 206.6 216 225 232.1 236.7 236.2 234.2 225.1 216.1 233.2 243.4 250.8 256.5 261.1 264.8 267 264 257.6 246.5 228.1 206.5 182.7 167.6 171.5 172.3 155.2 148.2 141.4 138.8 151.3 167.7 187.1 207.8 226.1 239.9 250.7 257.4 267 276.3 283.1 286.2 287.9 288.8 289.2 290.5 289.9 290.6 290.4 291.1 289.6 287.7 285.9 283.8 281 276.2 266.3 258.4 251.2 244.9 231.6 210.2 187.9 184.1 188 192.9 192.2 189.2 185.1 181.5 175.7 174.3 172.2 169.9 168.4 164.6 157.3 149.1 151.7 160.7 168.8 164.6 153.7 134.3 120.8 99.2 80.5 105.3 118.2 122.4 123.8 118.4 105.2 93.5 95 111.8 123.9 131.3 132.4 133.4 135.2 138 133.9 130.5 130.4 131.6 131.7 134.3 138.1 143.2 148.3 155.1 163.6 171.2 179.4 188 194.5
226.2 224.1 227.3 238.3 248.8 260.8 274.9 286.1 287.3 286.9 285.6 282.5 278.6 272.2 255.4 238.5 253 263.6 273.3 278.7 284.9 288 288.6 290.6 292 292.1 292.5 291.2 288.3 287.4 287.4 286.7 284.9 282.7 279.6 275.8 272.1 268 263.6 259.4 256 255.9 255.3 251.2 242.6 230.1 217.8 201.4 184.7 172.9 165.1 147 135.6 150.5 146.4 138.8 129.7 123 111.7 114.9 135.3 152.4 159.8 156.8 147 131.1 119.6 126 133 136.8 139 141.4 143.9 147 148.4 150.5 152.9 157.1 161 167.5 174.4 188.4 200.1 211.1 222.9 229 233.4 234.8 234.3 233 231.3 218.2 213 230.1 240.6 248.2 255.4 260.5 263.7 265.2 264.5 263.4 254.8 238.4 220 197.7 171.1 157.8 153.3 147.3 141 137.2 149.7 164.6 181.7 201 221.7 242.1 252.7 260.3 267.3 275.6 282.6 286.8 289 289.4 289.7 289.8 288.2 287.2 287.2 289.1 288.4 285.9 284.4 282.8 281 277.2 268.8 260 251 243.1 230.1 209.1 190.6 175.3 164.4 168 171.5 172.2 170.4 168.7 166.4 164.4 162.4 161.2 159 155.1 150.6 144.5 152.1 167.1 169.5 167.4 161.2 154 146.4 130.6 120.1 99.3 83.6 101.9 115.1 117.2 98.1 89.4 103.6 116.9 125 130.9 131.9 132.6 132.7 133 130.7 127.7 125.8 126.4 128.6 131.4 134 138.2 142.7 150.8 158.2 166.2 174.1 183 190.7 196.4
239.7 237.3 230 209.2 220.8 238.6 256.5 273.9 281.9 282.7 282 279.7 276.8 271.5 254.1 228.8 236.2 247.9 258.3 271.8 280.3 284.6 286.4 288.1 287.8 287.3 286.3 284.3 284.3 285 285.5 286.3 285.3 282.8 280.3 276.2 272.8 269.9 268.1 265 264.7 264.4 261.4 254 242 226.4 207.2 188.7 176.3 168.8 164.5 158.3 139.3 144.2 148.2 141.8 133 125.3 115.9 112.1 127.1 137.2 142.5 135.6 118.7 114.7 123 123.6 133.4 135.6 139 141.9 144.3 146.1 147.7 150.4 154.4 160.6 165.7 175.3 186.2 197.8 210.7 223.2 233.2 236.7 238.4 237.9 236 227.3 216.7 207.9 208.1 229.2 236.7 245.6 252.8 258.7 261.9 263.5 265.3 267 263 248.5 232.4 211.5 187.7 166.1 150.6 142.4 135.5 142.1 160.8 179.3 197.5 217.3 237.8 251.4 259.2 267.5 274.3 281.1 285.6 288.8 288.3 287.8 287.7 287.1 286 284.8 284.8 286.3 284.9 282.5 280.6 278.7 275.8 270.7 261.7 250.8 242 224 202.5 183.7 169.9 158.4 155.8 156.8 158.5 156.2 154.4 153.3 152.5 151.4 151.2 147.5 144 141.4 139.6 144.8 152.8 162.5 163.4 160.2 155.4 151 144 136.9 128.1 117.4 96.8 84.6 107.6 96.4 90.1 106.8 121.3 125.5 129 130.2 131.5 131.4 129.1 127.6 126 124.4 122 124.6 127.4 130.4 133.9 138.9 146.8 155.8 164.9 172.3 179.2 186.6 193.8 197.6
261.9 260.7 250.7 224.3 198.7 215.7 237.2 258 272.1 277.1 277.6 276.7 274.8 271.1 255 232 221.9 237.2 256.1 267.7 275 280.5 281.9 282.4 281.2 279.3 274.4 277 279.7 280.4 283.7 284.9 283.9 282.3 279.3 275.1 271.7 270.2 268.5 269.7 267.2 264.3 258.2 248.6 233.6 214.2 194.2 177.1 165 156.2 151.6 151.3 145.3 128.1 145.6 142.9 134.4 127.6 117.6 106.8 118.6 122.9 120.3 113 118.7 125.3 128.7 130.5 130.5 133.7 137.5 139.9 144.6 146.3 148.4 151.7 156.7 167.6 178.6 190.1 197 206.1 218.7 229.5 237.6 240.9 240.2 238.6 234.9 222.4 199.5 191.9 206 221.1 233.4 243.7 251.5 257.8 260.5 263.4 267.5 270.2 268.2 260 244.8 225.1 201.3 178.3 159.3 140 134.5 152.6 172.4 191.2 210 230.8 246.4 256.9 266.9 273.7 279.8 283.7 286.6 287.7 286.6 285 284.1 283.2 282.1 281.4 281.8 281.8 280.9 279 277.9 273.8 269.2 263.2 252.6 236.8 217.1 199 180.1 167 158.5 153.7 151.3 147.4 148.3 145.3 144.3 142.9 141.7 140.9 138.8 136.3 133.7 131.9 133.8 137.9 148.3 153.6 155 153.9 151.6 147.1 141.8 135.3 128.6 120.3 115.6 104 83.7 87.3 102.4 116.9 122.5 125.4 127 128.5 129.1 127.3 126.1 124.6 123.3 121.5 119.1 123.3 126.2 130.1 135.7 142.3 152.1 161.4 169.9 177.8 184.4 190.5 194.9 198.8
274.2 271.3 265.3 231.6 205.5 190.4 219.1 240.6 257.1 268.4 273.8 273.7 272.5 269.6 261 238.5 214.9 220.9 239.3 257.3 269.6 275 276.1 275.6 274.5 261.1 253.5 267.4 272.2 277.7 279.9 281.3 281 277.9 275.6 272.1 267.8 267.3 266.5 264.3 260 254.7 247.5 235.5 219.3 200.4 183.7 165.5 154.7 143.6 133.6 130.4 134.1 128.3 134.7 133.5 131.6 126.7 117.1 107.1 111.5 113.4 112.9 111.2 119 125.1 128.8 132.7 135.2 137.8 139.6 142.6 145.3 148.4 151.5 157.6 168.2 180 189.8 197.1 205.5 219.5 232.6 240.8 244.5 243.3 241.6 237.1 232.2 216.5 194.2 185.3 201.3 216.4 232.8 241.9 249.4 255.4 258.8 265.2 271.1 271.3 267.1 261.5 253.6 234.7 211 184.9 166.6 141.2 133.3 149.9 173.6 195.9 219.6 238.4 251.4 264.7 273.4 278 280.8 283.7 284.9 284.3 283.4 282.1 280.4 279.3 278.3 276.1 276.9 277.5 277.5 274.7 271.3 267.6 263.8 256.5 241.3 217 192.2 178.7 167.4 164.3 161.7 158.2 157 153 148 141.9 140 138.3 132.8 129.8 125.1 122.6 120.4 116.1 123.1 128.5 135.8 142.1 146.4 148.8 146.9 142.6 137.9 131.8 126.6 121.7 117.4 111.6 86.1 83.7 110.2 118.3 121.3 123.1 123.2 124.4 125.3 124 123.4 123.1 122.4 113 118.4 122.7 126.6 132.1 138.5 148.1 157.4 165.5 173.9 181.3 186.6 191.6 195.9 199.8
280.6 278 268.7 239 209.8 182.4 200.1 220.3 239.8 254.6 264.3 266 266.8 267.2 263.7 248.9 224.7 201.1 219.3 240 259.8 265.8 268.7 268.7 262.3 245.3 236.6 243.5 249.3 251.5 258.3 266.3 273.6 271.7 269.2 263 261 258.9 256.2 251.8 244 235.6 226.7 218 203.5 187.6 171.2 159.1 149.7 140 132.7 132.4 129.8 122.2 123.3 125.8 126.6 123.4 118.5 106.5 108.9 110.2 109.4 112 121.7 126.4 130.5 134.6 137 140.3 143.9 148.6 155.6 160.2 165.2 171.9 180.2 189 198.5 207.7 220.3 235.6 243.5 248.1 248.2 247.1 241.9 236 229.1 214.6 193.9 180 192.1 209.1 230.6 240.1 247.2 252 256.2 263.5 268.7 268.3 262.7 257.7 253.1 237.3 213.1 186.8 166.9 142.8 131.8 145.9 169 192 218.7 240.2 255.7 266.3 274.2 277.3 279.7 281.4 281.6 280.5 278.9 277.3 275.7 274.1 272.2 271.5 272.6 273.4 271.6 268.7 264.5 263 257.8 246.1 226.6 202.4 186.5 181.1 180.5 180.3 179.5 176 171.9 167.9 160.2 155.8 150.7 147.2 144.8 141.6 137.5 135.4 131.4 128.8 121.1 108.5 121.1 130 137.5 141.8 140.7 137.2 130.3 127.1 123.6 119.5 115.8 107.1 84 86.4 110.3 114.7 116.7 117.5 118 119.2 120.4 118.6 117.7 117.5 109.4 113.7 119.3 123.3 128.4 135.1 142.6 152.6 162.2 170.8 178.3 185.1 190.9 194.7 197.7 200.7
285.3 277.9 268.8 244.4 211.9 184.2 186.7 204.9 221.3 237.2 249.3 257.7 261.5 262.7 263.6 258.4 233.5 205.4 198.8 218.3 232.7 243.3 247.6 247.1 240 222.4 233.7 257.5 263.4 258.8 257 250 252.2 253.2 251 246.3 246.3 244.4 238.5 230 221.9 213.9 207.3 197.4 185.6 172.8 161.7 152.9 144.1 135.4 134.9 134 130.4 124.8 117 116.7 118.1 117.5 117.2 105.6 106.4 107.2 107.2 112.7 120.4 125.1 130.1 136.2 139.4 143.2 147.8 157.8 165.7 173.1 181.3 186.9 193.1 201.5 213.5 225.8 236 243.3 248.7 251.2 251.3 248 242.2 235.6 227.5 212.9 193.2 176.8 184.4 199.8 223.7 237 244.7 247.3 250.5 256.2 261.1 263 257.5 253.3 240.8 223.5 204.3 185.3 165.6 141.8 129.4 144.4 167.6 189.8 215 240.3 257.7 267.9 273.1 276 277.5 278.1 277.4 275.6 273.9 272.2 270.7 268.7 265.7 268 269.4 267.4 266 264.3 264 262.1 255.7 240.1 227.7 218.1 207.8 206.9 206.8 204.8 203.4 199.1 193.5 189.1 183.7 178.9 172.3 165.9 161.5 157.3 153.3 149.7 142.7 135.7 129.8 122.2 100.6 114.5 128.3 133.4 132.3 126.8 123.4 122.4 115.9 114.2 112.7 108.6 83.3 91.5 107.5 109.6 110.4 111.1 111.4 112.3 112.9 109.5 107.6 108.2 113.3 116.8 121.1 126.5 133 142.1 150.1 159.1 166.8 174.4 181.7 188.8 194.1 197.4 200.6 201.2
287.9 279.3 264.5 239.4 221.3 196.2 177.4 187.1 201.2 215.9 230.1 243.9 254.6 258 262.1 260.6 241.9 214.1 177.7 194.3 208.4 212.7 222.5 225.2 213.7 208.8 231.3 252.3 264.9 268.4 268.3 268.4 262.4 253.3 246.6 235.3 225.3 222.3 216.1 207.7 199.7 190.4 181.6 173.8 167.6 160.9 154 146 138.4 139 139.3 135.1 130.4 123.1 121.9 118.4 113.8 111.5 111.7 110.7 106.4 106.2 106.1 111.5 118.4 125.1 131.6 136.9 142.8 148 153.8 165.1 173.3 185.4 192.1 198.6 206.5 217.4 228.6 237.9 244.2 249 252.3 253.2 250.7 248 243.3 237.7 227.4 209.2 190.1 174.4 179.5 190.7 214.9 236.1 239.3 241.4 243.7 248.1 248.4 249.9 244.6 235.7 221.4 207.3 191.1 175.9 157.3 138.3 127.5 144.1 168.8 192 216.4 241.7 256.9 266 270.2 273.1 274.7 274.9 272.3 270.7 268.4 265.3 265.2 263.3 258.9 262.9 263 262.2 264.4 266 266.5 264 259.3 252.7 244.7 242.3 234.6 232.8 232.3 227.2 219.3 206.7 197.2 189 183.3 178.7 174.3 170.5 167.7 166.2 162.5 160.1 152.1 141 134.6 128.3 118.8 96 107.2 124.7 123.6 117.6 116.4 111.7 110.7 108.3 106.1 104.1 94.8 83.6 99.1 103.4 104.2 104.8 106.4 107 105.1 101.8 107.3 112.2 115.7 119.3 123.5 129.9 137.2 146.1 155 162.3 169.5 177.3 184.8 191.5 195.6 199 201.1 200.8
291 283.5 271.9 264.6 239.2 212.5 192.4 172.7 182.5 192.5 206.7 226.5 240.5 249.6 261.2 257.9 242.9 221.1 190.4 165.4 177.6 179.4 186.4 194.4 185.8 206.5 235.4 253.7 262.8 264.7 266.4 266.8 266.3 262.4 253.8 241 219.4 199.3 192.6 188 182.4 176.2 168.8 161.7 156.4 151.2 145.2 143.3 143.1 142.8 134.7 132.1 130.2 131.1 129.1 125.1 122.2 119.5 116.3 110.4 105.6 104.7 102.9 109.8 116.5 122.7 132.2 139.4 146.2 153.5 163.2 173.9 185.8 194.6 203.7 210.9 220.8 228.6 236.8 242.9 249 252 253.2 253.1 250.2 247.6 242.9 235.4 222.4 201.7 185.7 171.2 178.9 188.3 210 227.1 230.6 228.7 227 224.8 224.1 221.1 217.8 211.3 203.1 189.8 175.9 160.8 144.8 130.4 130.1 150.1 174.6 197.9 221.7 242.5 256.2 264 267.8 270.2 269.9 267.1 264.3 259.8 256 254.1 255.4 254.3 254.8 256.6 261.4 264.5 268.3 269.2 267.3 265.7 262.5 259.2 254.4 251.5 249.4 248.2 243.5 237.2 213.5 195.6 184.6 179.8 175.7 171.7 168.6 166.3 166.5 165.9 163 154.2 144.2 137.7 131.7 127.7 120.8 112.8 92.2 104.7 113.3 109.1 107.7 105.9 107.9 102.3 97.1 93.8 86 79.3 91 95.3 98 99 100.9 98.5 101 107.4 108 114.4 117.7 121.4 125.8 132.5 140.8 148.5 157.5 164.6 172.3 180 187.7 193.7 197.3 199.3 200.2 199
295.9 292 287.5 279.6 257.7 232.5 210.8 193.6 178.5 168.2 180.3 196.3 211.4 224.4 236.4 243 235.7 223 205.7 186.5 164.2 150.9 163.4 169.1 189 214.6 238.8 253 258.5 260.6 262.8 263.9 265.8 262.4 257.4 243.2 222.5 199.7 188.9 179.4 171.5 166.9 160.1 157.5 155.3 152.2 150.3 148.7 146 136.5 139.6 139.2 136.8 136.6 133.8 130.6 127.1 122 117.8 115.1 111.3 108.2 103.6 103 111.6 122.3 129.7 137.9 149.7 161.1 172.1 184.9 194.7 205.1 214.1 223.1 230.8 236.9 243.1 248 251.4 253.1 253.7 252.8 250.5 245.8 239 231.4 212.4 194.4 180.2 167.6 175.4 186.3 205.2 207.3 202.2 197.2 196.4 194.4 193.7 192.7 192.9 193.7 189.4 178.1 164.6 148.7 136.3 124.6 134.5 159.3 181.6 204.3 225.2 243.8 254.3 262.4 265.3 265.3 261.2 256.9 250.5 245.2 240.4 240.4 240.3 246.4 253.2 259.2 263.9 268.4 269.1 268.6 267.3 265.6 264.6 262.4 259.5 258 257.3 255 250.4 232.8 203.2 180.1 172.3 168.5 165.2 163.3 161 159.8 158.7 154.7 145.4 139.5 134.7 130.1 124.8 121 113.3 108.6 104 89.7 100.5 98.6 97.1 96.5 95.5 91.9 88.3 84.7 78.4 80.7 83.5 87.2 87.9 92.5 98.4 104.1 108.3 110.9 113.4 116.3 119.3 122.2 126.9 135.7 144.2 152.6 162.3 170.3 178 184.6 191.1 195.1 198.3 199 198 196.5
300.7 297 292.9 286.2 280 255 235 219.4 204.1 181 162.5 172.7 187.4 200.8 215.9 219.6 217.4 210.2 201.2 194.2 178.1 160.1 149.3 169 189.4 211.1 228 242.3 248.9 252.8 256.2 260.4 262.6 263.7 257.8 244.1 227.7 217.7 204.6 190.2 180.3 173.6 169.2 166.9 163.6 159.6 155.1 152.6 148.7 144 150.2 149.1 146.2 143.4 138.6 134.7 130.3 124.9 119.7 118.1 116.2 111.6 106.5 101.7 106.7 116.4 124.8 133.3 151.1 162.5 174.7 185.7 200.2 210.9 219.4 227.1 234.1 239.5 244.7 250 252.2 253 253.8 252.5 248.1 241.8 234.4 226.9 203.2 187 171.6 160.7 169.3 179.9 188.3 186.5 184.9 193.4 190.2 186 180.6 179.3 183 185 178.7 173.4 158.4 142.2 125.5 126.5 143.7 168.3 188.9 211.1 229.3 243.9 252 255.2 253.3 249.3 243.2 236.9 232.4 225.2 225.9 234.8 246.6 252.2 258.8 264 266.7 268.4 269 268 266.3 265 265.1 265.3 264.5 262.1 259.7 254.7 239.1 218.6 190.7 168.9 152.9 155.6 155.1 153.6 151.5 149.6 143.4 136.2 130.6 128 125.5 119.7 112.8 106.1 100.2 97.6 95.3 85.4 91.2 91.5 91 89.7 88.5 86.4 83.6 80.3 74.9 82.2 88.1 91.6 96 98.7 103.3 105.9 109 111.5 114.2 117.2 123.5 128.8 134.4 143.2 150.1 159 167.1 173.9 181.2 188.1 192.9 197 198.3 197 193.9 189.1
304.4 300.5 295.8 290.3 284.7 277.7 262.1 248.9 229.4 200.7 177.5 161.7 164.2 179.1 189.4 191.6 188.6 183.9 178.1 170.1 160.7 151.1 142.2 159.1 176.7 188.4 207.5 222.6 230.5 238.7 246.9 253 260.3 263.7 260.2 252.7 246.3 239.6 226.6 210.5 197.2 190.8 185.7 180.9 174.7 168.7 163.3 158.2 153.6 152.4 160.2 160.7 157.3 151 144.2 140.1 133.9 128.8 124.6 121.8 119.8 115.7 110.1 105 102.8 109.7 116.7 126 143.4 155 165.6 178.1 192.7 210.1 219 227.6 235.1 240.7 245.9 249.6 251.5 252.5 252.6 249.2 244.1 237.1 229.6 216.2 193.8 181.3 167.1 157.3 163.2 168.1 174.5 189.4 203.3 210.4 206.4 199.4 198.7 194.2 188.4 186.8 186.4 178.5 160.1 139.1 122.8 125.3 148.9 172.3 194.4 215.7 231.5 242.9 246.7 241.2 230.2 220.6 216.3 212 206.4 212.2 230 241.4 252.9 258.7 261.1 264.3 267.5 268.8 266.6 265.2 265 266.9 268.6 269 264.2 262.4 258.7 239.1 221.3 200 176.9 155.2 137.5 141.6 144.6 143.8 138.4 133 126.4 121.9 118.2 116.3 112.9 105.3 98.2 91.6 90 88.7 86.6 78.5 84.1 85.8 85.3 84.4 83.4 82.2 80.8 77 75 81.5 86.3 91.7 97.3 100 102.6 105.3 108.5 111.5 114.3 120.9 129 136.1 142.5 149.5 156.6 165.1 173.1 179 186.2 190.8 195.2 196.1 194.6 191.1 186.8 181.1
306.2 303 298.4 292.7 287.9 283.6 278.4 271.4 248.2 221.4 200.7 179.1 160.1 156 162.4 161.9 159.1 154.2 150.1 147.1 143.4 141.4 139.5 147.2 156.6 165.3 181.5 198.8 208.9 218.9 230.2 241.5 252.3 259.9 263.5 260.8 256.9 252.7 243.2 229 216.8 209.5 203.7 197.5 191.2 184.3 174 164.7 156.5 157.9 169.5 172.1 167.5 160.9 153.3 146.9 140.8 134.6 129.5 125.7 123 119.7 113.9 107.2 102.4 103.5 107.7 116 130 142.1 152.6 168.6 187.1 205.9 217.1 226.4 234.2 240.3 244.5 246.5 247.4 248 247.4 243.9 238.4 230.3 224.3 208.1 190.4 174.7 161.4 155.4 163.9 172.4 185.5 201.8 213.5 228.7 239.6 227.5 228.8 224.5 215.5 202.8 195 183.9 161.7 138.1 118.7 131.1 151.7 173.4 193.7 215.9 230 236 233.1 218.7 205.4 195.4 189.3 186.4 200.2 222.3 237.2 248.1 256.2 259.1 261.3 264.7 262.2 259.8 258.4 261.5 264.7 265.6 263 259.4 256.7 251.2 235.1 218.4 199.2 180.2 165.1 149.2 132.8 130.7 133.9 130.9 123.6 117.9 111.3 107.4 102.8 100.9 96.6 92.4 85.3 83.2 84.1 81.7 78.1 75.5 74.9 76.6 77.8 76.9 77.4 77.3 76.7 74.7 77.2 81.3 87.4 92.5 95.9 98 101.2 103.3 106.1 108.9 113.8 122.7 131.8 140 148 155.9 162.9 170.5 176.7 182.6 189.1 192 193.8 192.3 187.6 183.7 179.8 166.8
305 302.9 299.9 295.2 291.2 286.4 280.9 274.1 265.1 242.7 222.1 201.5 180.1 159.7 151.1 149.4 148.2 147.2 143.6 144.4 149.2 150.9 151.3 138.1 136.3 147.9 164.2 179.2 188.6 201.9 221.4 239.9 254.2 263.9 267.6 267.7 266 259.7 251.4 243.3 235.7 226.3 219.8 211.1 202.4 187.7 175.5 165 160.1 165 182.8 186.6 180.7 173 165.7 160.6 152.6 145.2 138.7 135.8 130.8 126.3 121.1 113.4 107 101.9 100.1 106.5 116.2 128 141.8 161.8 182.7 201.5 212.5 223.7 232.7 237.6 239.5 239.9 241.6 241.5 240.4 236.1 228.8 222.3 211.2 195.3 180.9 164 152.3 160.6 167.9 178.6 192.5 207.1 220.7 235.1 248.4 250 253 251.6 241.8 227.9 208.6 189.9 165 140.1 117 132.1 153.1 170.8 190 211.3 224.9 226.4 212.6 197.3 181.6 172.3 166.5 183.9 210.6 230.6 242.4 251.9 256.9 258.8 260.3 256.1 251.2 247.8 245.4 254.5 254.1 253.9 250.8 246.6 237.3 219.9 208 195 179.5 167.3 154.6 139.2 122.3 120.5 120.7 116.2 110.8 102.6 98 92.8 90.4 85.5 80.8 78.5 72 71.3 72.4 71 69.4 72.3 71.3 72.3 73.1 73.7 72.4 70.4 71 73.2 76.3 78.6 83.2 90 94.2 97 98.6 101.4 103.6 106.8 113 121.3 130.9 141.6 150.8 159.8 168.5 173.6 179 184.8 190.7 190.5 188.3 184.7 178.6 175.4 160.7 143.7
303.1 300.7 298 295.1 291.7 287.4 281.8 275.7 270.2 262 243.4 224.5 207.7 191.3 180.4 174.7 171.3 170.3 171.2 172.9 174.4 173.2 171.6 153.9 136.4 138.8 156.5 173.9 188.7 207.7 229.5 248.7 261.5 270 272 270.4 267.3 263 257.8 249.9 242.4 233.6 225.2 210.3 194 177.9 170.9 164.6 165 177.7 196.1 200.5 196.8 187.9 185.1 178.8 170.4 161.2 158.3 154.3 148.5 142.6 136.4 128.3 118.3 111.2 103 98.8 105.3 116.4 133.6 150 170.4 192.5 207.3 217.8 225.1 229.1 230.2 230.8 231.6 230.1 224.9 219.1 212.5 201.9 190.5 177.9 165.8 151.9 157.5 163.2 169 183.1 194.2 209.3 224.5 237.7 249.7 250.2 249.2 246.6 241.3 233.9 214.5 187.9 166.8 140 118.5 131.6 145.7 168.8 188.2 205.5 212.5 207.1 194 177.8 161.2 162.4 180.6 198.5 219.4 238.3 249.4 256.8 258.4 259.8 257.3 249 237.2 228.3 228.8 239.1 238.5 236.3 229.1 221.6 211.7 198 184.9 175.1 163.6 154.4 142.4 128 112.9 110.1 105.8 101.8 92.2 86.3 84.4 80.8 78.5 77.2 69.2 72 71.9 71.1 73.9 72.3 73 74.5 75.2 75.9 76.7 77.6 77.4 77 77.4 79.2 77.5 73.2 73.7 75.5 78.6 85.2 96.3 97 100.1 104.8 111.6 121 131.5 141.8 150.3 161 169.7 173.2 179.1 184.5 189.7 186.6 180.4 173.4 165.6 152 137.5 131.6
301.3 298.2 295.9 292.8 288.8 285 280.6 276.3 271.5 264.3 255.8 241.4 228.5 217.3 207.3 200.9 197.3 196.4 194 194.9 194.3 190.5 179.9 153.6 135.9 140.7 163.2 184.2 202.6 221.7 240.5 257.7 265.5 271 272.2 272.4 268.6 263.6 257.3 250.2 244.5 234.3 215.2 196.9 182 172.8 170.5 172.1 173 190.6 206.7 209.6 209.1 205.8 201 197.8 190.2 182.8 178.4 173.4 167.3 160.5 154.3 149.6 139 126.5 112.8 102.3 95.5 105.7 121 138.3 156.6 178.4 194.7 203.7 209.2 212.1 215.3 220.3 220.8 214.3 201.9 198.8 191.5 180.4 170.8 159.5 149 155.1 159.1 163.6 169.5 185 196.5 215.1 230.7 243.1 248.2 248.6 247.9 244 238.2 231.9 212.4 186.7 164.8 138.4 117.8 125.2 142.9 164 184.9 195.7 195 187.4 176.3 161.7 152.9 172.7 189.8 208.3 228.9 246 253.1 256.1 257.4 257.3 253 240.7 220.2 205.4 218.3 221.2 217.8 213.3 206.6 197.7 186.7 177 165.4 157.7 148.5 139.5 128.6 115.3 103.2 98.8 92.8 85.4 76.3 75.6 75.2 72.3 72.3 68.6 71.9 72.1 73.3 73.1 73.7 72.8 74.3 75.7 76.1 76.3 77.7 79.6 80.1 80.7 83 86.8 86.1 84.1 81.3 80.5 77.3 77 84.1 93.4 98.7 104.2 111.7 121.4 133.9 140.6 148.1 158.3 165.8 172 177 179.7 176.2 173.6 168.6 159.9 146.3 131.8 126.3 122.7
299.2 296.2 293.5 289 284.3 280.4 273.8 266.2 260 256 253 247 245.3 238.1 229.1 224.2 220.4 216 212.8 210.5 205.7 194.8 179.7 147.8 134 143.6 170.1 194.8 215.3 234 248.8 260.9 267.5 271.4 272.3 271.3 268.1 262.8 257 249.4 237.4 220.9 202.7 185.3 179.6 179.9 182.6 184.9 193.1 199.7 214.3 219 219.3 217.6 214.9 208.3 206.1 201.8 197.5 192.6 187.1 178.6 172.4 167.2 157.9 145.5 127.6 112.6 102.2 96.9 110 126.3 144.9 164.3 176.6 181 184.9 191.9 198.9 206.6 207.3 198.2 184.2 176.5 170.2 163.4 153.2 140.8 155.4 157.2 160.9 165.3 175.8 190.8 204.5 222.8 238.5 246.8 247.4 248.2 247.4 241.6 235.1 227.8 209.6 182.5 160.2 137.5 117.1 119.6 136.8 155.3 171.6 177.9 176 170.5 158.2 147.4 162 180.3 197.8 218.1 235.8 246.8 250 252.2 252.2 247.8 240 226.2 200.3 182.5 197.1 195.1 192.5 188.2 182 175.5 167 158.3 148.7 139.1 131.5 122.6 112.6 101.2 93.4 85.7 81.4 74.8 74.1 74.3 73.9 71.2 68.9 71.3 71.5 72.6 72.7 72.3 73.1 73.5 75.6 76.8 77.6 78.7 83.5 85.6 86.8 89.3 91.2 93.3 93.7 91.9 90.3 82 80.6 77.4 82.6 93.9 98.5 102.3 110.9 120.5 131.9 140.4 145.7 151.9 158 163.9 165.4 164.2 163.1 160.4 154.8 141.5 128.8 122.3 118.7 114.9
296 290.8 287 283.8 277.5 262.9 246.9 234.6 231.2 228.9 225.5 225.5 225.4 223.3 221.1 216.7 213 208.7 206.4 204.8 203.1 191.5 174.2 146.7 132.5 147.5 173.3 198.5 213.8 235 251.9 261.8 267.5 270.4 270.9 270.8 267.5 263.7 258.1 241.6 224.9 207.1 197.9 198.1 197.6 198.4 200.7 205.9 210.3 213.9 218 221.3 225 224.1 223.4 220.8 219.6 217.7 214.6 209.7 204.2 195.9 188.7 180.6 171.5 157.8 141 121.2 108.9 100 100.4 115.7 134.4 150.7 156.6 162.1 169.6 177.2 189.7 193.1 191.3 180.2 169.8 161 152.9 146 137.9 152.9 156.1 158.9 163.6 168.2 181.3 197.6 214.4 231.9 246.6 246.8 247.3 248 246.1 239.7 230.2 221.9 206.7 178.5 158.6 135.9 117.2 113.5 128.5 146.3 154.9 158 155.4 149.9 142.7 151.8 170 188.1 207.1 226 237.4 242.8 244.7 245.1 240.4 234.1 225.8 214 187.9 160.4 174.3 171.8 168.8 164.5 159.9 153.2 145 139.7 132.8 123.1 114 103.4 91 84.5 80.9 77.6 76.1 74.5 73.4 72.3 68.2 70.9 71.9 71.4 71.4 72.4 72.5 72.4 72.7 74.7 76.5 80.8 86.6 92.5 95.5 97.7 95.9 97.3 97.5 98.6 99.6 98.1 97.2 83 80.9 74.8 81.3 91 92.3 99.1 112.4 120.3 126.1 131.8 136 143.7 149.4 149.8 150.7 152.6 151.9 146.1 133.9 122.4 117.4 113.6 110.9 105.2
287.2 281.8 278.8 270.8 256.8 238.7 221.4 204.7 198.6 197.6 195.5 195.2 196.1 194.3 194.5 192.8 190.1 187.2 183.6 182 182 179.8 168.3 143 131.9 147.6 168.4 185.6 205.7 225.9 247 260.4 265.8 268.1 270.8 271.5 269.9 265.5 258.9 243.5 225.5 222.9 220.1 221.3 222.9 221.6 222.1 222.1 222 222.3 221 220.3 224.7 226.9 229.4 231 230.7 230.2 227.6 223.4 216.2 208.8 200.5 191.2 176.3 161.6 146.7 130.9 114.2 100.8 94.3 109.2 123.4 138.1 146.8 154.4 160.8 169.3 176.1 175.9 171.1 159.7 154.2 143 139.3 135.2 140.9 153.5 156.8 159.8 164.6 176 192 207.8 224.2 241.2 245.9 247.7 247.2 246.7 243.5 236 227.1 214.3 195.3 170.5 150.4 131.8 122.1 108.2 123.3 135 140.2 137.9 136.3 133.6 145.6 160.8 179.9 199 217.4 232.2 238.2 238.8 237.8 233.5 227 220.3 211.2 197 171.6 148.8 147.6 149.7 145.7 142.4 139.3 132.5 125.8 121.7 115.1 106.9 95.2 84.5 78.5 75.6 74.6 72 68.2 68.8 71.6 73.1 73.6 75.4 73.3 71.6 71.5 71.7 72 72.6 75 81.6 86.9 93.9 98.9 101.6 104.7 104.7 101.7 102.5 101.7 102.5 103.3 103.6 91.3 90.9 96.1 76.7 74.7 74.9 75.6 79.6 90.3 116.7 118.2 119.1 122.4 129.2 133.7 137.4 143.5 145.7 138.4 125.7 117.7 112 108.2 105.3 94.7 84.7
278.4 272.1 255.4 240.1 231 212.5 196.8 175.5 168.6 167.5 166 161.5 160.9 160.4 160.7 163 162.5 160.9 158.6 157.6 158.5 158.6 155.4 140.3 131.3 136.3 155.7 173.6 191.4 210.8 232.9 254 262.7 267.2 270.7 271.5 269.6 263.9 258.6 249.7 243.6 242.6 241.6 241.5 240.6 237.2 235.3 231.7 230.6 226.8 223.7 218.7 222.9 229.3 234.3 238.3 239.4 239.1 237 232 225.9 218 208.5 199.8 187.1 171.9 156.3 139.9 119.8 103.1 92.7 108.4 120.7 133.3 145.1 153.9 157.5 159.7 161.6 159.9 153.2 140.5 128.4 128.9 130.8 138.2 144.7 148.3 150.8 161.2 170 187.7 203.3 217.7 232.1 243.2 244.9 246.8 246 244.4 240.3 233.3 224.1 211.3 191.1 165.7 162.6 149.3 132 116.2 113.7 117.9 120 122.8 128.5 141.9 155.9 171.5 190.9 210.4 228.5 233.9 235.4 234.3 231.3 223.9 214.1 200.1 188.2 171.5 151.8 138 121.1 130.2 128.4 126.4 120.4 114.5 107.4 103.4 96.4 86.5 78 73.9 70.2 68.4 72.1 73.8 74 74.2 75.1 76.3 75.6 76.9 75.6 74.2 75.6 76 79.8 85 95.4 105.1 113.3 116.6 116.8 114.2 112.1 110.6 105.4 107.4 106.6 106.5 106.6 106 91 106.1 105.7 105.3 89.1 74.4 73.9 75.5 80.5 95.7 105.7 106 108.5 115.3 124.4 134.5 140.7 129.7 118.2 112.6 107.9 105.7 98.7 86.5 77.2 82.6
260.7 242.6 226.8 210.6 197.9 183.9 179.5 190 195.6 193.4 187.8 183.5 178.1 173.1 168.6 163.3 158.8 155.4 151.5 148 144.8 139.9 137.5 136.9 130.1 129.1 137.9 157.6 172 198.6 220.8 244.2 259.5 263.7 267 267 264.9 261.8 258.3 255.6 255.1 254.3 252.9 250.9 248.2 246.1 243.9 239.6 234.4 230.2 223.8 214.3 221.7 230.1 237.4 241.5 244 243.8 242.1 236.3 230.4 223.3 214.6 205.7 195.8 182.4 165.6 148.8 127.4 105.9 97.8 113.1 123.4 134.3 148 152.1 157.4 160.4 154.6 141.9 128.2 124.5 134 136.7 143.1 147.7 152.3 156.5 159.6 162.6 174.8 189.5 208.3 217.8 230.8 239.5 242.4 244.9 244.9 241.9 237.5 230.3 221.7 212.7 197.1 180.3 168.6 161.3 140.3 121.2 106.5 116.1 124.9 135.4 143.1 153.9 167.5 185 204.5 222.2 227.8 228.5 228.9 228 222.9 215 200.1 176.4 165 149.2 139.3 128.4 113.6 112.2 110.6 107.1 101.3 93.7 87.8 84.8 80.1 73.8 71.6 66.9 71.2 73.2 73.7 73.9 74.2 74.9 76.1 77.2 78.1 78.6 79.9 83.7 87.4 91.4 97.7 107 120 130.6 138.5 143.6 141.4 132 122.2 113.8 111.7 116.8 115.6 114.4 112 111.8 97.7 113.3 113 112.7 112.2 108 95.2 71.8 75.2 83.2 93.9 101.3 105.2 108.8 116.3 123.8 118.7 111.4 105.6 101.3 98.9 90.7 80.1 81.1 83.6 85.3
232.4 219.3 203.8 189.6 195.1 197.6 205.9 215.6 223.5 221.3 214.3 208.7 203.8 198.8 193.7 186.2 177.3 175.2 171.7 168.4 162.2 152.8 147.6 142.5 136.7 132.3 126.8 140.4 160.8 182.1 206.3 231 251.3 258 261.2 261.2 261.1 259.4 258.4 258.6 258 258 256.6 254.6 253 252.1 251 245.5 238.8 230.9 218.2 209.3 220.7 230.9 238.6 243.1 246 244.8 243.2 238.2 233.1 228.1 220 211.4 202.1 188 171.2 153.3 130.7 103.6 96.6 112.3 122.2 134 150.1 150.7 151.3 147.5 136.1 124.5 124.3 135.8 141.4 144.1 149.8 155 158.5 165.3 167.3 173.8 177.7 187.6 204.6 214.8 226.9 235.4 239.7 242.7 243.2 239.5 235 230.5 223.6 215.3 205.5 187.7 169.5 160 142.7 119.5 101.6 119 131.7 142.9 155.2 168.7 184 198.7 213.9 218.3 221.8 222.2 222.1 219.2 213.1 204.5 189.9 161.3 143.6 133.2 126.1 114 102.6 85.9 94.4 87.7 80.9 77.8 75.1 73.2 71.4 69.7 68.3 71.1 72.6 73.3 74.1 74.1 74.3 75.5 76.2 78.1 81.5 84.8 90.5 94.6 99.8 106.1 115.5 128.8 141.1 152.6 159.1 159.4 156.9 149.3 137.2 117.5 116.7 121 122.5 121.9 121.5 120.5 104.9 116.4 119 120.6 123.6 121.9 116.2 107.9 83.3 77.4 86.1 100.9 102 104.6 106.6 107.9 105.8 99.8 93.1 86.3 81.6 75.5 82.4 86 89.5 88.4
204.5 200.5 207.7 210.3 213.3 215.3 220.9 232.3 239.4 239.5 236.6 233.6 228.2 223.9 217.7 208 198 196 192.8 189.1 184.8 174.7 167 161 150.9 137.8 129.9 128.7 150.7 172.4 194.8 214 239.4 251 256.4 258 258.3 257.4 257.2 257.8 258.5 258.5 258.4 257.9 256.7 256.2 253.8 246.5 238.9 225.6 206.9 206.3 219.2 231 239.4 244.2 246.1 245 242.4 238.5 235 229.6 222.8 214.4 204.1 190.4 173.5 151.7 126.5 97.3 96.6 112.2 121.9 130.6 140.3 140.3 135 129.7 128 115 125.6 138 145.6 148.5 154.2 160.2 165.8 173.1 182.5 191 197.8 194.1 201.5 214.1 224.3 234.2 237.2 239.9 242.4 236.8 232.2 228.2 223.8 218.2 211 195.8 167.9 156.9 141.5 120.6 102.4 117.4 134.4 151.6 170.1 183.5 198.1 204.9 210.5 213.5 216 216.5 214.8 209.5 202 190.5 173.5 154.9 128.1 120 109.9 101.1 92.5 86.2 78.7 75.3 74.1 72.3 71 70 69.5 67.3 71.1 72.4 73.5 73.8 74.3 74.5 74.5 76.1 79 85.3 91.6 92.2 101.1 107.5 114.8 123.2 132.4 144.3 156.4 162.4 164.8 163.3 158.1 149.5 135.2 120.5 123.4 125 126.7 127.5 128 128.3 118.8 109.1 125.6 131.6 134.3 134.7 129.3 120.1 111 84.4 75.8 79.7 81.8 84.5 86.7 87 86.1 81.6 80.1 75.9 81.2 85.2 92.1 99.5 103.2 106
224.8 228.3 233.1 239 241.1 239.3 240.2 250 256.6 258.8 257.2 254.7 249.4 243.1 239.8 228.1 220.7 216.9 212.4 210 207.9 194.2 183.9 175.8 165.7 155 131.6 125.6 146.5 165.4 187.3 213.3 234.1 248.5 254.4 256.1 255.9 253.9 254.2 255.2 255.8 256.8 258.8 260.5 260 257.2 252.3 244.9 235 212.2 197.4 202.5 215.5 228.5 238.3 243.8 244.8 244 241.4 238.3 234.1 229 222.3 215 205.2 190.5 170.1 149.3 125.5 101 92.9 109.8 117.9 122.6 124.3 125.3 130.5 120.5 114.9 118.3 126.5 135.3 143.6 150.4 158.8 166.8 178.1 189.6 199.6 209.2 209.5 199.9 199.5 212.5 222 233.3 235.5 238.3 236.6 231.2 228 225.8 223.5 218.5 211.1 200 167.9 153.8 137.9 118.1 100.6 115.9 136.9 159.2 181.1 192 196.8 201.6 206.1 209 210.8 210.7 207.9 198 188.2 172.6 157.7 141.1 123 99.6 97.7 90.8 87.9 83.4 74.6 73.3 72.8 71 69.1 68.4 68 71 71.9 73.2 74.3 74.4 74.7 76.8 81 85.3 92.8 98 102.9 106.1 113.6 118.8 126.2 136.1 144.5 155 163.2 165.5 165.2 160.7 154 144.3 131 123.8 127.6 130.3 130.6 132.9 134.6 135.5 131.9 105.1 131 140 144.3 145.4 142.3 133.3 126.6 115.7 97.3 84.7 84.5 80.8 80.1 71.6 67.3 67.7 70.5 81.9 94.2 97.2 105.6 108.9 112.4 116
258 260.1 262.7 263.5 265.3 262.9 260.3 266.3 268.3 268.9 268.2 263.7 258.8 256.2 253.3 240.8 236.9 236.4 231.6 226.6 219.8 209.9 196.8 182.1 166.1 147.9 131.2 124.8 145.8 168.6 189.9 218.6 237.1 249.6 254.8 254.6 252.6 246.6 247.2 249.6 251.5 255.7 259.4 261.2 258.4 253.8 248.1 241 230.6 205.8 190.8 192.6 205.5 220.2 233.9 241.1 243.3 242.5 239.8 234.6 228.6 222.6 217.6 212.4 201.7 182.4 167 151.4 131.1 108.4 91.4 106.7 110 111.3 111.7 116.8 115.1 108.6 113.5 122.9 133.3 141.3 149.1 154.6 170.2 179.1 191.8 205 214.5 217.7 213.5 203.2 197 206.9 219.6 228.7 231.5 231.4 228.8 224.8 225.2 224.8 221.7 215.5 207.3 194.3 164.8 152.4 136.8 116.8 106.3 115.5 134.9 156.5 176.2 184 189.5 194.9 199.4 204.6 208 206.6 200.5 185.3 171.5 157.4 142.8 127.1 111.5 96.5 90.1 84 81.1 79.1 72.4 72.1 71.2 68.7 68.5 69.8 70.4 70.8 71.6 73.2 74.9 76.6 83.6 91.1 97.7 104.9 110.6 115.9 121.4 125.8 122.2 130.1 137.1 145.5 152.8 159.6 165.9 166.1 163.8 156.9 148.7 138.1 131.5 130.2 134 136.4 139.1 140.7 141.4 140.5 134.8 113.9 132.5 145.8 151.5 151.3 148.3 143.5 139 133.9 125.3 116.8 112.3 106 102.8 92.3 90.5 102.2 105.7 106.8 107.7 109.5 112.9 116.3 120.6 125.9
285.1 284.6 284 282.8 281.5 278.7 274.7 274.8 273.4 271.6 268.4 264.8 261 258.3 253.4 249.2 246.1 243.2 236.9 223.2 214.4 204.3 185.4 172.1 158.4 144.7 130.8 127.3 146.1 165.9 191.4 221.4 239.3 250.2 253.7 251.9 246.6 233.6 235.6 242.9 250.8 256.5 258 256.8 253 248.2 242.3 236.4 224.4 203.7 184.9 179 191.3 204.5 222.6 236.2 239.9 239.1 236.5 227.6 212 204.8 203.8 202 190.1 178.5 167.3 154.9 134.6 107.7 90.7 99.4 98.5 100.5 101.8 102.3 106.9 116.5 123.5 132.9 142 149 161.5 173.5 187.4 198.4 208.7 215.4 220.4 220.5 213.9 202.6 193.2 198.9 213.2 221.9 224.4 224.4 221.6 223.1 223.5 221.2 215.9 210.5 203.5 188.5 162.1 149.8 134.9 115.7 104.1 114.9 130.7 151 165.6 174.1 181 187.6 194.7 201.1 202.2 195.8 182.7 169.8 156.3 142.1 127 114.9 102.7 93.4 83.4 75.5 72.9 71.6 71.3 71.8 66.9 67.1 69 69.5 70 70.4 71.7 74.8 83.3 88.5 95.5 105.2 114.3 122.1 129.5 133.6 135 132.2 129.2 139.3 146.3 153.4 158.6 162.6 165 164.4 160.7 154.3 144.7 137.5 135.9 140.5 142.8 144.8 148 150 150.1 147.2 139 124.8 126.7 144.4 150.5 152.7 151.9 149.6 146.4 143.6 137.9 129.2 119 112.2 106.3 83.9 99.1 106.5 109.2 110.9 113 114.6 118.4 121.8 129.3 136.6
292.5 291.6 290.8 290.2 288.5 285.5 282.8 281.1 278.4 275.1 270.1 264.5 258.4 255.1 249.7 247.1 239.7 227.9 217.3 204.6 196.6 186.1 171.6 156.8 143.2 134.9 128.9 126.4 149.3 168.3 192 220.5 239.8 248.9 249.6 245.7 238.3 221.3 231.8 240.1 250 253.5 253.3 251.5 247.8 244 236.6 228.5 218.9 201.8 181.3 168.6 175.7 186.8 205.3 224.7 233.6 235.7 233 223.1 196.5 184.6 181.4 179.4 179.4 174.5 169.5 155.6 129.7 96.9 95.1 98.4 104 106.5 111.3 117.7 123.8 130.2 137 146.3 156 165.1 178.2 193 204.2 211.7 217.7 221.5 221.5 219 212.8 202.5 190.3 192.3 205.3 212.8 216.4 217 219.2 220.9 220 216.4 211.2 205.6 198.8 181.9 157.1 147 129.3 113.1 102.2 113.8 128.1 142.8 154.6 161.4 174.4 182.1 188.5 190.9 186 177.2 165.6 154.5 141.3 128.7 118.3 105.9 96.5 85.2 79 71.4 70.3 70.6 70.9 66.7 69 68.7 68.9 69.9 69.7 70.7 76.5 85.9 95.6 105.4 118.5 128.7 134.3 136.8 140.4 143.5 143.1 135.6 135.4 145.6 153.1 158.7 160.7 162.8 163.2 161.5 158.2 152 142.5 139.5 143.6 147 149 153.3 157 158.5 157.9 155.3 147.6 128.3 125 137.6 150.4 155.6 154.1 152.4 151 149.8 143.8 135.9 126.2 117.7 106.9 84.7 111.3 112.4 114.4 115.5 120.7 124.2 129.5 136.1 142.9 148.7
299.4 297.8 296.6 295 292.8 290 287.4 285.3 281.8 277.4 272.8 264.4 254.2 246.6 236.8 228 217.2 205.5 195.6 185.6 175.6 164.2 154.4 141.1 134.8 133.4 126.9 126.5 148.3 165.6 187.5 211.5 232.4 242.1 243.3 238.7 230.2 211.9 219.1 234.8 247 249.7 249.8 247.8 244.4 239.1 230.2 221.2 208.5 189.9 180.9 170.2 160.5 173 189.8 210.2 226.1 230.4 229.3 221.9 196.9 176.2 161.3 160.4 164.4 170.8 163.4 150 117.5 88.7 99.7 102.6 106.6 113.8 121.3 129 135.1 142.1 151 160.2 171.3 183.8 197.1 207.8 215.7 222.7 223.5 222.7 220 215.8 209.8 202.3 189.3 185.1 197.9 202.5 210 213.5 215.3 216.5 214.9 211.4 206.6 200.6 192.5 169.4 143.7 140.8 122.6 109.4 97.6 111.6 120.9 133.4 147.7 160.5 172.4 176.6 178.2 174.4 167.2 158.7 148.5 138.9 129.8 119.1 113.5 105.1 95.9 83.8 71.1 68.5 68.6 68.5 68.3 68.8 68.8 68.3 68.9 70.5 75.8 83.7 93.5 108.7 116.8 128.9 137.8 140.3 143.4 147.2 148.7 148.1 146 139.9 140.2 150.6 157.7 160.4 161.3 161.2 160.1 156.5 152.6 145.7 144.2 145.8 148.9 152.7 157.4 161.8 166 167.6 164.8 162.5 155.1 137.4 126 135.4 148 153.9 155.9 157 157.8 154.7 148 140.6 131.6 122.9 112.3 88 113.1 117.3 119.8 123.2 127.1 134.4 140.6 145.2 151.6 156.7
302 301 300 297.9 295.3 293 290.3 287.3 282.5 277.8 271.8 261.1 246.4 222.2 208.3 200.6 190 179.1 171.6 164.8 156.4 148 141.1 144.4 149.1 139.3 127.1 123.7 141.6 161.2 180.2 199.8 220.2 232.5 236.5 228.9 214.4 200.5 210.4 230.6 242.7 246.3 245.9 243.5 239 234.2 225.9 213.2 199.4 201 197.9 176.4 158.1 162.4 178.1 198.8 216.1 224.7 224.1 218.4 201.7 179.8 158.6 143.2 147.2 153.7 150.1 136.8 109.6 91.1 100.3 103.2 108 117.4 126.6 137.5 146.2 158.3 168.6 175.4 190.8 205.7 214.7 219.6 226.3 225.6 222.2 220.4 217 211.9 205.8 197.8 183.8 174.9 186.7 197.5 204.7 208 210.4 213.1 211.2 207.1 202.7 196.2 173.1 151.3 137.5 129 117.3 105.2 99.5 111.8 124.7 140.9 155.4 166.7 171.7 169 163.9 157.3 149.9 142.7 136.3 128.4 119.4 111.1 106.1 97.3 89.3 76.7 68.9 68.2 68.3 67 68.2 68.3 68.4 68.3 71.9 78.9 88.1 97.6 111.9 124.8 137.3 145.1 148.2 150.3 152.4 154.9 154.8 152.6 147.4 138.6 144.5 151.4 157.4 160 162.7 161.2 158.5 154.3 148.9 148.8 149.6 153.3 158.4 165.2 170.1 171.4 175.2 176 173.3 168.9 160.1 144.2 129.9 140.3 148.2 155.4 158.8 161 161.5 158.2 152.6 145 133.9 125.1 99.5 90.7 116.3 120.5 123.2 127 131.4 137.7 147.2 153.9 158.6 162.9
303.1 302.3 301.1 299.1 296.7 293.5 290.6 287.6 282.5 275.6 267.3 253.7 230 201.4 188.6 184.4 180.7 172.8 169.2 164.5 161.9 160 162.3 166.8 165.2 148.7 128.7 117.3 133 146.5 169.6 188.7 206.6 224.2 230.5 216.6 196.5 185.6 208.2 231.6 239.1 242.9 243.4 240.5 236.6 231.3 222.8 216.1 216.8 215.1 206.4 183.3 161.1 152 171.2 189.4 205.2 216.1 217.1 214.6 206.4 189.6 162.5 146.8 128.6 131.6 129.8 121.6 106.7 90.6 99.1 102.6 109.4 118.9 130 143.8 154.7 168.3 180 191.6 209.2 219.6 224.2 226.9 229 225.2 222 216.6 210.5 205.2 198.2 186.5 166.1 173.5 179.7 189.9 198.9 204.7 207.7 208.4 206.5 202.9 198.3 181.6 156.8 138.3 134.4 122.7 109.2 99.9 105.7 118.2 134.2 152.4 169.8 175.7 169 160.8 149.9 140.5 133.1 130.2 126.1 118.9 111.9 105.9 99.1 91.8 82.7 76 67.6 67.7 65.5 67.8 67.7 68.3 68.6 68.9 79.6 89.3 102.3 116.7 129.8 139.3 149.8 157.1 159.8 161.1 161.7 161 156 151.3 145.5 143.2 146.7 154.4 157.9 160.8 162.5 161.2 157.7 155.3 154.7 154.8 157.8 162 168.3 175.3 179.5 179.3 181.4 182.1 178.6 170.9 159.6 132 136.1 144.6 151.4 157.7 161.1 162.2 161.9 160.8 154.9 147 134.7 117.5 91.8 119.2 124.5 126.3 127.5 130.4 135.8 140.5 147.9 156.8 163.3 168
