ncols 200
nrows 82
xllcorner 250000
yllcorner 242800
cellsize 50
200.3 198 193.8 189.2 181.8 177.5 174.8 171.3 166.3 159.9 155.8 148.4 137.5 137 143.5 151.6 158.1 162.6 164.8 166.3 168.2 166.8 165.4 164.7 165.9 166.5 167.5 167.5 167.3 166.7 166 165.2 164.3 161.5 159.8 158.3 157 155.9 154.6 153.6 153.1 153.4 154.3 156.8 158.7 159.8 161 162.3 163.8 163.8 163.5 162.5 161.1 159.3 156.5 151.5 147.8 146.5 146.1 145.6 145.4 143.1 141.6 137.7 131.4 127.9 126.4 124.7 124.2 113.2 108.5 108.5 109.3 109.7 110.6 119.4 122.5 124.7 129.8 136.4 146.2 144.9 143.9 143.1 141.7 139 134.2 127.8 122.3 118.2 116.1 115.1 113.9 112.2 111.1 111.2 111.2 111.1 111 110.9 110.6 110.3 110.4 110.5 109.6 109.5 109.8 110 110.3 110.5 110.5 110.6 110.6 108.7 107.1 107.8 107.9 107.9 107.9 108 108.1 108.3 108.4 108.2 108.8 109.3 109.7 109.8 109.8 109.7 109.7 109.7 108.8 109.1 109.2 109.5 109.3 109.6 110 111.5 112 112.6 112.5 112.8 113.1 114 114.8 115.5 116.3 117.1 118.1 118.1 117.8 116.4 117.7 118.1 118.6 119.4 120.6 125.2 134.7 135.6 141.5 144.9 144.3 143.7 145.3 145.3 147.1 147.6 147.6 149.3 149.2 149.6 152.6 153.3 153.6 154.1 155.2 156.9 157.3 156.8 155.8 156.4 155.1 155.5 164.7 168.4 171.9 177.4 186.1 196.6 202.7 208.7 216.4 224.4 230.7 234.6 241.3 246.3
193.7 190.2 185.3 178.1 177.4 170 168 164.9 160 156.5 153.2 146.1 136.7 135.9 141.4 147.5 153.8 158.5 161.5 163.7 164.6 162.6 161.3 160 161.3 162.8 164 164.9 164.4 163.3 162.4 161.5 160.5 158.3 157 155.7 155 154 152.7 152 152.1 152.4 153.9 156.2 157.9 158.4 159.2 161.3 161.1 160.8 160 158.5 156.9 155 150.3 146.9 145.9 144.8 144 143.2 142.2 139.6 137.5 132.8 128.7 126.4 125.2 124.3 123.7 116.5 108.5 108 108.5 109.2 109.8 120.9 123.2 123.6 125.5 128.9 133 137.3 138.9 137.6 134.8 130.8 124.1 120.9 116.9 115.4 114.8 113.9 112.7 111.1 110.7 110.5 110.4 110.1 110.3 110.5 110.6 109.9 109.9 110 109.5 108.9 109.1 109.2 109.2 109.4 109.6 109.7 109.2 108 107.7 107.8 107.9 107.9 108 108.2 108.3 108.4 108.5 108.3 108.7 109.2 109.7 109.8 109.8 109.7 109 109.4 109.2 109.1 108.8 108.6 108.6 108.8 111.5 111.6 112.1 112.8 113.9 114.1 113.7 114.4 115.3 116.2 117 118.3 119.3 120 119.7 118.8 118.9 119.3 120.5 122 126 135.1 141.2 150.4 159.6 160.1 154.2 155.8 155.9 154.6 153 152.5 155.2 156.9 155.9 154.3 156.9 156.4 156.1 156.5 156.9 158.4 159.3 158.7 158.1 159.9 161.3 159 163 169.9 174.8 180.5 189.7 198.6 204.7 211.4 219.1 225.8 231.8 237.5 241.8 247.5
184.6 181 175.6 170.9 168 164.7 159.6 158.6 156.8 153.7 150.5 144.9 137 134.9 138.6 142.3 148.5 153.2 155.3 158.2 159.8 158.1 155.2 156.8 158.5 158.2 161 162 160.8 160.2 160 158.5 156.6 154.9 154.7 154 153.3 151.9 151 151.1 151.3 151.4 153.3 154.7 155.8 156.9 157.8 158.7 158.2 157.8 157 156 153.4 149.8 145.6 145.3 144.6 143.4 141.1 140.8 139 135.5 132.5 129.8 126.8 125.9 125.1 124.3 123.5 120.3 107.8 107.7 108 108.5 110.3 122.2 123 123.2 123.7 124.1 126.7 129.3 129.3 126.8 123.6 122.2 116.2 114.3 113.1 113.6 113.2 112.7 111.5 110 110 109.6 109.4 109.3 109.6 109.8 110.1 109.6 109.6 109.5 108.7 108.4 108.6 108.6 108.4 108.1 108.5 108.8 107.9 106.8 107.4 107.8 107.9 107.9 108.1 108.3 108.4 108.5 108.6 108.4 108.6 109.1 109.3 109.5 109.4 108.8 108.9 109.4 108.1 108.5 108.5 108.6 108.7 108.8 111.4 112.1 112.2 113.3 114.3 114.1 114.2 115.4 116.2 117 117.7 118.4 119.3 120.3 120.5 120.2 120.3 120.5 123.4 127.9 139.1 152.3 158.5 170.4 172.9 170.2 168 165.6 162.9 158.5 156.8 157.7 160.2 159.7 159.6 159.6 159.8 159.8 158.4 159.6 160.5 160.9 160.7 160.8 160.5 162.2 164.4 166.1 162.5 169.7 176.5 183.1 192.3 199.2 205.6 212.3 220.5 227.7 233.4 238.4 242.5 249.3
175.7 172.4 169.1 163.1 160.2 157.3 154.3 154.4 153.9 154.2 150.9 145.4 139.5 133.9 135.3 138.1 141.2 145.9 148.2 151 153.7 151 148.7 153.1 154.5 156.6 158.1 158.1 158.5 158.2 157.7 155.4 153.3 153.4 155 154.7 152.6 150.8 150.1 150.3 150.6 150.9 151.7 152.4 153.5 154.7 155.5 155.7 155.5 155.1 154.4 152.4 149.4 146.4 144 143.4 142.4 140.9 138.9 137.7 136.3 133.5 130.4 127.4 125.7 125.6 124.2 123.4 122.1 121.4 108.1 107.5 107.4 107.5 109.7 121.2 122.3 122.8 123.1 122.7 123.5 124.1 123 120.8 118.5 115.3 110.9 110.6 111.1 111.5 111.2 111 110 109.3 109.4 109.5 108.6 108.7 109 109.2 109.5 109 108.8 108.8 108.3 108.1 108.3 108.4 108.6 107.9 107.8 107.9 107.4 107.1 107.3 107.8 107.9 108 108.2 108.4 108.5 108.6 108.7 108.5 108.5 108.4 108.6 109.1 108.8 108.9 108.7 109.1 108.8 109 108.4 108.7 108.9 109.3 110.8 111.9 112.6 113.1 113.7 114.7 115 116.5 117.3 118.1 118.8 119.5 119.9 120.4 120.9 121.5 121.7 123.3 127.6 136.7 154.2 166.1 176.3 181.1 181.4 180.1 175.6 173.2 168.4 162.3 161.3 161.9 162.5 162.8 163 162.5 162.4 162.6 161.5 161.8 162.6 163.4 163.1 162.5 163.2 164.1 166.2 168.5 169.1 169.7 177 183.6 192.9 199.3 205.1 211.7 220.4 227.7 233.8 238.2 242.4 250.5
168.9 164.9 160.3 156.3 154.4 151.2 151.1 151.4 154.5 154.1 151.7 147 141 134.2 133.4 134.9 137.1 139.9 141.9 143.6 143.3 143 144.4 147.2 149.4 152.3 154.3 156 155.6 155.9 155.3 153.5 152.9 155.3 156.7 155.5 153.8 150.8 149.6 149.2 149 149.1 149.5 149.9 151.1 152 152.6 153.3 153.5 152.8 151.8 148.6 146.5 144.3 142.5 141.1 139.8 138.5 137.2 136 133.7 132.6 129.3 125.5 124.9 124.7 124.4 122.8 122.2 120.4 108.1 107 107.1 107.9 109.1 117.8 121.3 122.6 122.4 122.4 122.2 122.1 120.2 117.2 114.4 108.7 108.8 108.5 108.8 109.1 109.1 108.8 108.3 108.6 108.8 108.9 109 107.9 108.3 108.6 108.9 108.4 108 107.9 107.6 107.6 107.6 107.5 107.5 107.4 107.1 106.8 107.1 107.4 107.6 107.8 108 108.1 108.3 108.4 108.5 108.6 108.7 108.7 108.3 108.3 108.3 108.7 109.4 108.5 108.1 108.9 109.4 109.4 109.1 109.1 108.6 109.5 111.6 111.3 112.8 113.5 114.2 114.9 115.8 117.3 118.4 119.2 119.9 120.6 121.2 121.5 122.2 122.9 123.1 125.7 132.6 143.7 160.8 176.1 182.9 186.3 187.2 185.2 182 178.5 173.7 167.2 164.9 164.8 165.1 165.6 166.4 166.5 165.5 165 164.2 164.2 165 165.6 165.9 164.9 165.1 166.1 168.2 170.7 173.3 170.7 175.5 179.7 187.9 195.9 202.2 208.4 215.1 220.7 227.4 232.4 238.9 246.3
160.6 158.2 154 149.9 148 146.1 146 150.6 153.6 153.2 152.4 148.4 143.3 136.8 132.1 133.6 134.4 134.9 135 135.4 136.6 138.3 138.4 140.1 143.7 147.1 150.1 152.5 152.9 152.4 152.3 152.2 153.2 155.5 156.8 156.1 153.8 151 148.6 147.7 147.3 147.1 147.5 148 148.3 149.5 150.2 150.8 151 150.2 148.6 146.5 145 143.4 141.3 139.3 138 136.9 136 134.8 130.8 131.4 127.2 124.8 124.4 124.2 123.4 122.5 121.3 118.4 109.9 106.7 106.9 106.8 108.2 116.9 120.4 122.2 121.8 122.2 121.9 119.9 117.7 110.5 108.4 107.9 106.7 106.5 106.6 106.7 106.7 107 107.5 108 108.4 109.3 109.5 108.2 107.5 107.8 107.6 107.5 107.2 107.4 107.5 107.4 107.3 107.3 107.3 107.2 107.6 107.8 107.9 107.8 108 108.1 108 108 108.1 108.3 108.3 108.4 108.5 108.7 108.5 108.3 108.1 108.6 108.3 108.4 109.1 109.6 109.5 109.5 109.9 110.8 111 111.2 111.7 111.9 113 113.7 114.5 115.3 116.5 118.1 119.5 120.3 121 121.7 122.4 122.9 123.5 124.2 124.4 127.5 137.2 149.9 167.3 180.1 187.3 189.9 190.6 189.2 185.3 182.3 177.8 172.1 167.9 167.1 166.9 167.1 168.2 169.3 168.9 167.4 166.7 166.6 167.3 168.1 168.3 167.6 168.7 169.7 171 173.3 176 169 174.6 178.8 179.7 188 195.1 200.6 205.3 211.2 218.1 223.5 229.2 236.6
154.4 152.7 147.2 143.8 142 145.8 149 150.7 152 152.6 151.4 148.4 143.3 138 132.8 131.6 131.6 131.7 132.5 133.4 134.5 135.5 136.3 138.2 140.7 143.2 147.1 149.5 150.7 151.3 152.2 152.6 153.4 155 156.1 155.1 153.2 150.9 148.4 147 146.6 145.6 145.3 145.7 145.7 146.1 146.8 147.4 147.4 147.5 146.3 145.2 144 142.2 139.8 137.6 136.4 135.4 134.3 132.3 128.6 127.7 125 124.4 123.9 123 121.8 120.9 118.9 115 107.5 106.3 106.3 106.4 108.2 118.1 121 122.3 122.2 121.8 119.8 117.8 114.4 109.8 108 106.7 106.3 105.9 105.8 106 106.3 106.6 107.1 107.5 107.4 107.9 108.3 107.4 107.1 107 107 107 107.2 107.3 107.4 107.3 107.2 107.2 107.1 106.6 107.4 107.8 108 108.2 108.2 108.2 108.1 107.9 108 108.2 108.1 108.2 108.2 108.5 108.7 107.6 108 108.5 107.9 108.7 108.9 109.3 109.5 109.5 110.4 111.1 111.4 111.5 112.2 112.1 113.4 114.3 115.1 115.8 117.1 118.7 120.1 121 121.8 122.5 123.6 124.2 124.8 125.3 126 129.5 140 152.5 166.2 176.9 185.3 192.1 195.1 192.8 190.1 185.9 180.8 178.1 173.9 170.3 170 169.3 170.2 171.3 172.4 170.6 169.8 169.8 170.6 171.6 172.3 172.6 172.7 173.1 174.2 176.2 178.4 179.7 180.8 179.9 185.2 189.6 188.3 193 197.7 205.4 214.7 218 223.6 229.7
149 146.2 139.1 138.7 142.3 145.3 147.1 149 150.9 151.8 150.1 146.2 141 137.3 131.9 130.8 130.8 130.9 131.8 132.8 133.5 134.8 138.6 142.4 147.3 148.8 151.1 152.5 155.1 156.1 155.4 154.7 154.6 155.6 155.2 153.6 152.2 149.7 148.1 147.6 147.7 146.8 144.8 143.4 142.8 142.1 142.7 144 144.9 144.9 144.7 144 142.9 141 138.3 136.3 134.8 134 132.2 130.4 127.1 125.6 124.5 123.5 123.3 122.8 119.5 116.6 114 110.2 106.8 106.4 105.7 108.5 117.6 121.3 121.7 121.9 122 120.2 117.3 113.8 109.5 107.6 106.3 106.1 105.9 105.6 105.7 105.9 105.9 106.3 106.7 106.8 106.7 106.8 106.9 107.1 107.2 106.9 106.9 106.9 107.2 107.3 107.3 107.2 107.1 107.1 107.1 106.8 107.3 107.8 108.1 108.3 108.3 108.2 108.1 108 108 108.1 108 108 108 108.2 108.9 107.5 107.8 107.9 108.8 108.6 108.8 109 109.3 109.5 110.5 111.3 111.7 112.1 112.6 112 114.2 114.9 115.6 116.4 117.8 119.2 120.5 121.6 122.3 123.1 125 125.3 126 126.8 127.8 130.7 137.7 145.2 158.6 171.8 182.5 190.6 194.4 194.5 192 187.7 183.6 181.4 179.4 173.7 172.3 171.8 172.6 173.8 175 173.5 172.6 173 174.3 175.4 175.3 177.9 177.7 180.8 182.6 185.4 185.1 184.2 185.6 186.6 186.3 191.4 195.4 199.1 200.7 202 201.6 212.6 219.9 227.2
143.9 139.1 134.9 138.5 142.2 144.3 146.8 149.7 150.6 151.3 150.1 144.3 136.8 134.5 132.1 130.1 130.3 130.6 131.6 132.3 134.8 139.4 145.7 150.1 153.6 156 157.8 157.5 158 158.1 157.3 156.7 156.2 156.2 154.5 152.5 150.8 148.6 147.6 147.6 147.7 147 145.5 143.5 141.4 140.2 139 139.5 141.9 142.7 143.3 143 141.8 139.7 136.7 135.1 133.6 131.4 129.7 127.3 125.3 124.8 123.9 122.7 120.8 120.8 116.9 114.7 110.8 107.3 106.2 105.9 105.5 115.6 120.9 121.9 121.6 121.8 119.9 116.6 112.5 108.6 107 106.5 106.2 105.8 105.5 105.3 105.5 105.7 105.9 105.9 106.1 106.2 106.4 106.3 106.3 106.7 107.2 107.2 106.7 106.8 107.2 107 106.6 107.1 107.1 107.1 107.3 107.2 107.4 107.8 108 108.2 108.2 108.2 108.2 108.1 108 108 107.2 107.5 107.4 108.1 108.3 107.7 108.5 108.6 108.6 108.6 108.8 109.1 109.3 109.4 109.5 110.5 112 112.4 112.6 112.8 114.5 116.1 116.2 117 118.4 119.6 120.9 122 122.9 124.5 126.5 126.5 127.2 128.1 128.9 131.8 137.8 143.5 154 169.3 180.5 187.9 194.1 196.6 193.4 190.2 186.9 184.3 182 178.8 176.1 175.2 175.9 176.9 177.3 177.2 177.9 179 178.9 179.6 180.5 183 186.2 188.4 189.8 193.1 196.5 198.4 197.9 192.9 192.2 193.4 197.5 202.1 205.9 210.7 213.8 204 215.1 221.5
136.9 133.2 133.8 138 141.9 144.9 148.9 151.7 153.5 154 152.3 146 136.2 131.7 130.3 129.5 129.7 130.3 131.5 135.4 140.7 145.9 150.5 153.5 156.2 158.6 159.8 159.7 159.6 159.5 159.3 158.6 157.9 157 154.8 152.6 150.1 149 148.1 147.5 147.3 146.5 145.4 143.4 141.5 139.7 139 137.8 136.1 141 142 142 140.4 138 135.3 133.8 132.2 129.2 127.2 125.5 124.3 123.8 123.3 122.6 120.1 116.5 114.7 113.6 110.3 107.1 105.8 105.8 109.7 115.4 119.5 120.6 117 116.7 113.4 110.4 107.8 107.4 107 106.5 106.2 106.1 105.7 105.3 105.4 105.6 105.8 105.8 105.8 106 106 106.1 106.4 106.8 106.8 107.1 106.7 106.8 107.1 106.7 106.2 107.1 107.1 107.3 107.4 107.5 107.5 107.7 107.9 108.1 108.1 108.1 108.1 108.1 108.1 107.3 107.5 107.6 107.9 108.3 108.6 107.3 108.8 109.4 109.4 108.9 109.2 109.7 109.5 109.5 109.4 112.3 113 113 113.2 113.6 114.2 115.9 117.4 117.5 119 121.2 123.2 124.7 125.3 126.2 127.9 127.7 128.5 129.3 130.3 132.2 137.2 142.3 148.9 162.8 175.5 184.7 194.6 198 195.9 193.7 190.2 187.4 185.1 182.5 180.4 179.8 180.3 181.2 182.1 182.6 183 183.7 185.9 187.3 188.8 189.6 192.2 195.1 197.4 200.2 202.3 205.8 206.8 203.9 198.8 199.8 200.7 204.3 209.9 213.3 216.6 218.9 220 213.8
130.8 130.5 133.7 137.9 143.1 147.5 150.6 153.6 155 155 153.2 146.9 137.2 131.1 130.1 128.7 129.2 130.6 134.9 140.4 145.2 148.6 153.1 155.3 157 160 161.1 161.9 162.1 162.7 161.8 160 159.3 158.4 156.7 153.8 150.5 149.6 148.7 147.8 146.8 146.2 145.2 143.3 141.7 140.8 140 139.2 137.1 136.3 138.9 139.9 138.3 135.7 133.3 131.3 129.3 127.4 126 124.5 123.8 123 123 122.5 119.5 115.2 111.6 111.2 109.4 106.4 105.2 105.4 108.7 112.8 116.7 113.2 111.5 110.6 109 107.7 107.2 107 106.9 106.4 106.2 106.1 105.9 105.6 105.4 105.6 105.6 105.6 105.9 105.8 105.9 106.1 106.7 107.1 107.2 105.6 106.4 106.2 106.8 106.4 106.7 107.2 106.7 106.8 106.6 105.6 107.3 107.5 107.7 108 108 107.9 108 108 106.5 107.6 107.9 107.2 108.3 108.3 108.5 108.1 109.1 109.8 110.3 109.3 110.3 111.4 111.1 110.5 110.1 113 113.6 113.7 113.8 114.3 115.6 115.8 116.5 118.6 120.4 122.8 124.8 126.5 128.2 128.9 130.2 130.6 129.7 130.8 131.9 133 136.1 141.6 148 157.8 168.8 180.1 190.3 194.1 195.3 194.2 191.5 188.9 186.9 186 184 183.3 183.7 184.8 186 186.4 186.7 187.1 187.8 191.5 192.6 195 196.7 199.7 202.3 204.8 208.9 211 212.4 212 209 206.7 206.7 208.6 210.3 215.9 220.4 222.1 223.6 226.2
127.9 130.7 134.3 138.3 143.8 148.4 151.9 155 157.3 156.4 153.6 147.6 138.6 130.3 129.9 128.2 129.3 131.9 137.1 142.5 145.8 150.5 154 157.4 159.6 161.6 162.5 163.4 164.3 165.4 164.3 162.4 160.6 159.7 158.7 155.5 152.7 150.2 149.2 148.1 146.9 146 145.2 143.7 142.4 141.7 141.3 142.2 139.8 136 132.8 134.8 134.7 133 131.5 129.3 127.5 126.2 124.8 123.3 122.7 122.1 122.8 123.5 117 113.2 108.9 108.1 105.8 104.9 105 104.6 105.6 105.1 105.1 107.5 106.3 105.9 106.3 106.8 106.7 106.7 106.7 106.4 106.2 106 105.7 105.8 105.6 105.6 105.2 105.4 106 105.9 105.8 106.6 106.8 107.1 105.8 106.8 106.9 106.9 107.1 107.1 106.6 107.5 107.4 106.1 106.8 106.9 107.2 107.4 107.3 107.8 108 107.8 107.8 107.9 107.8 108.2 108.5 108.5 107.7 108.1 108.3 107.3 108.8 109.5 110.5 110.3 111.3 112.4 112.5 112.1 113.2 114.1 114.1 114.1 115 114.7 116 117.2 117.9 119.8 121.9 123.8 125.5 127 128.8 130.7 131.6 133.3 133.2 132.2 133.9 135 135.6 140 144.9 153 162.4 171.3 180.2 186.5 190.3 190.7 189.1 188.8 187.5 186.9 186.2 186 187 188.2 189.5 189.8 189.6 190.2 190.7 194 197.1 199.9 201.4 203.4 206.4 209.6 210.5 213 215.6 216.2 213.9 211.9 212 212.7 214.6 218 220.5 223.8 226.2 228.4
126.7 130.9 134.8 139 144.5 148.5 152.6 156.4 159 159.6 154.7 145.7 134.4 129.1 128.3 127.7 129.5 132.7 136.7 141.2 148.5 152.9 155.9 158.7 160.8 162.8 164.5 165.9 167.1 168 166.7 164.5 162.7 161.2 160.1 157.9 155 152.1 150.6 149.4 148 147.1 146.5 145.9 143.1 141.6 142.3 143.4 139.3 134.5 131.2 128.9 129.8 130.1 128.8 128.2 126.3 124.9 123.6 122.2 121.4 120.8 121.3 119.7 114.6 111.1 105.4 105.5 104.9 104.6 104.6 104.2 103.4 104.1 104.7 104.9 104.9 105 104.1 105.9 106.2 106.7 106.6 106.4 106.1 105.7 105.3 105.4 105.4 105.6 105.5 105.7 105.9 106.2 106.3 106.8 106.8 106.9 106 106.6 106.7 106.9 106.3 106.3 106.4 107.5 106.1 107 106.7 107.2 107.3 107.4 107.7 106.9 107.5 107.2 106.2 107.5 106.6 110.1 113.9 113.6 112.3 113.1 106.9 108.6 108.3 109 110.4 111.3 112.1 113.2 113.9 113.6 113.9 115.3 114.9 114.5 115 116.2 119.2 119.3 118.8 120.6 122.7 124.5 126.2 127.6 129.4 131.6 132.7 134.6 137.1 135.9 135.5 135.9 138.9 138.5 140.3 147.5 153.6 161.3 169.9 176.9 181.9 184.8 185.6 185.4 186.7 186.8 185.2 185.3 188.2 191.5 192.8 193.1 193.2 193.1 193.6 197.1 200.7 204.4 206.7 210.2 213.8 214.8 214.7 215.9 218.2 220.2 220 218.7 216.9 216.6 217.8 220.9 223.5 222.7 226.8 228.8
125.5 131.3 135.6 139.2 144.1 147.9 152.4 157.5 160 159.9 152.8 139.3 130.1 128.4 127.5 127.9 129.7 131.9 135.9 144 150.9 154 156.8 159.4 161.5 163.7 166.1 168.8 169.4 169 168 166.7 165.2 163.4 161.3 159.4 157.2 154.3 152.9 152.3 150.2 149.8 151.4 149.7 145.5 143.2 140.9 140.9 137.3 133.3 130.3 128.3 125.7 125.9 125.9 125.4 125.2 124 122.7 121.5 120.2 119 120 116.7 110.2 104.2 104.5 104.8 105.2 105.2 103.2 103.9 105.4 106.5 106.7 107.5 108.5 109.8 106 104.6 105.4 105.8 106.1 105.4 105.6 104 105.2 105.7 105.8 105.8 105.7 105.8 106.2 106.5 106.8 106.5 106.4 106.7 106.3 106.4 106.9 107.2 107 107.1 107.1 107.5 107.7 106.9 107 107.4 107.8 107.7 107.4 107.4 108.6 110.5 112.7 117 117.3 119.5 119.8 118.4 116.7 115.1 112.3 109.6 109.2 109.6 110.7 111.5 113 114 114.8 115.1 115.1 115.9 116.8 116.3 116.4 119.1 120.9 120.6 119.3 121.3 123.7 125.3 127.5 129.6 130.4 132.2 134.1 136 138.6 138.7 138.4 138.4 139.7 140.8 141.5 142.6 146.7 152.9 159.1 165.5 171.3 174.9 176.8 177.2 181.8 181.7 183 187.8 190.9 194.7 197.2 196.7 196.9 196.6 197.4 201.2 204.8 208.3 211.1 216.8 218.8 218.5 219.5 220.8 222.8 224.2 225.9 225.7 224.8 225.9 224.6 224.4 226.2 227 228.5 228.8
125.6 129.6 134 137.6 142.9 148.7 153.9 158.1 160.4 156.6 147.6 133.2 128.8 127.5 126.7 128 129.8 132.3 138.2 146.9 151.7 154.8 157.6 160.1 162.2 165.2 168.8 170 170.5 169.8 169.8 168.8 166.7 164.5 162.6 160.5 158.6 156.4 155.2 155.4 155.8 155.3 155.2 152.6 147.2 140.6 139.3 137.5 135.3 131.8 130.3 128.3 126 123.5 122.6 122.5 123.5 123 122.2 121 118.9 117.7 118.2 114 103.2 103.7 104.4 104.5 104.6 102.9 104.9 111.2 116.3 114.4 110.5 112.4 114.7 113.4 110.4 107 105.1 104.4 104.9 104.8 104.4 104.5 105.3 105.8 105.7 105.8 105.9 105.8 106.1 106.5 106.6 106.3 106.2 106.8 106.8 106.2 106.7 106.9 106.9 106.9 107.8 108.4 108.5 108.5 108.2 108.2 108 107.8 111.1 114.7 113.1 116.2 120.4 123.9 123.4 123.6 123.8 122.1 120.1 118.2 115.2 110.3 109.3 112 112.1 113.2 114.1 114.6 116.1 115.9 116 116.5 119.7 120.1 120.7 121 121.6 121.6 119.8 121.6 124.2 128 132.1 133.7 135 135.4 135.5 136.9 138 139.6 141.5 142 138.5 143.7 145.1 145.5 146.2 148.4 153.8 158.5 162.2 163.6 167.9 172.1 178.6 181 187.4 191.9 193.6 198 201.3 202.2 202.3 202.5 203.5 206.9 210 214.1 217.6 219.2 220.8 220.6 224.2 225.9 227.4 229 230.1 231.3 233.5 235.6 234.7 230.7 230.1 230.4 231.3 231.7
124.5 126 131.9 135.9 141.6 148.2 154.1 157.9 158.6 153.8 138.3 131.7 127.7 126.7 126.1 128 129.9 137.9 141.9 146.5 151.7 155.1 158.5 162.5 166.2 168.7 170.5 171.8 172.1 171.3 171.6 170.7 167.9 166 164.8 163.3 161.8 160.8 159.7 159 159.5 159.7 158.1 153.7 147.8 140.8 138.1 136.3 133.4 130.6 129.2 128.1 126.5 124.4 121.4 120.6 121.7 121.3 120.9 120.1 118.8 112.6 114.6 102.4 106.7 107.1 104.5 104.1 106.8 110 116.7 121.4 123.2 122.3 120.8 118.5 117 115.8 113.2 110.3 107.2 104.4 105.3 105.3 104.7 104.1 105.4 105.8 105.5 105.4 105.8 105.9 106.1 106.4 106.1 106.4 106.2 106.8 106.9 106.2 106.5 106.5 107 107.6 108.7 109.5 109.8 109.8 109.8 109.9 109.7 111.9 120.3 124.2 125 126.3 131.1 132.3 132.7 130.9 128.8 126.4 123.6 121.4 117.9 115.6 114.4 115.3 115.5 117.1 117.9 118.6 118.7 118.4 117.3 117.6 119.6 120.7 121.6 121.1 121.2 121.1 121 123.8 126.2 130.3 134 135.3 136.7 137.9 138.1 138.4 139.2 141 143.3 145.4 144 144.3 146.8 149.7 149.9 148.7 150.5 153.8 157.6 161 167.9 171.1 178 181.8 189.2 193.8 197.5 197.3 203.1 208.7 209.9 209.9 210.8 213.8 216.6 219.8 222.6 225.1 226.9 226.1 228.4 230.3 231.1 234.2 236.6 239.6 241.7 243.2 243.5 241.3 237 234 234 234.5
124.3 124.1 129.1 134.5 139.1 148.1 153 156.3 154.7 148.9 134.7 130 126.7 126 126.3 128.7 131.9 138.2 142.2 146.5 151.4 156.9 160.5 165.8 167.9 170.1 172.2 172.9 173.3 172.8 172.8 172.4 169.8 168.1 167 165.8 165.3 164.9 164.7 163.3 163.9 162.5 159.4 153.8 146.7 141.4 137.1 134.9 131.6 129.4 127.5 126.7 126 124.2 121.8 118.3 117.5 118.7 119.4 119.2 119.5 115.2 102.2 104.2 111.9 114.7 117 120 120.8 121.7 121.7 122.1 121.8 121.4 121.2 119.2 117.4 117.1 115.7 113.5 110.4 108.4 103.7 103.4 103.7 103.8 105.4 105.7 105.4 105.4 105.4 105.8 106 105.9 105.1 106.1 106.3 106.1 106.2 106.3 106.5 107.1 107.6 108.3 109.5 110.5 111.1 111.1 111.1 111.4 114.1 118 126.6 132 134.3 136.8 141.1 141.3 139 137.1 133.6 130.4 128.8 127 122.6 118.7 117.9 119.9 122.9 123.9 124 122.4 121 120.5 118.9 118.6 118.8 119.3 121.4 120.5 120.4 120.5 124.1 126.3 128.8 131.5 135.4 137.3 138.5 139.9 141 141.8 142.5 143.9 146.3 147.6 148.3 147.3 148 145.3 151.7 152.3 151.5 152.6 154.8 160.2 165.9 171.1 177.9 187.6 189.8 193.8 198.2 202.4 216.2 221 221.1 220.9 221.4 222.7 225.2 227.2 226.7 228.7 229.8 231 233.7 235.4 236.6 238.1 241.6 245.6 246 247 248.6 248.5 246.9 245.6 242.4 238.2
124.3 123.1 125.7 129.2 137.1 146.4 150.6 152.3 149.5 144 133.5 128.7 125.8 125.5 126.4 128.8 132 136.6 141.6 147.3 152.8 157.4 163.4 166.7 168.5 170.7 172.2 173.2 174 174.2 174 173.1 170.7 169.6 168.8 169.2 169.2 168.5 167.9 168.4 168.4 165.9 159.6 152.3 144.6 140.4 136.5 133.2 130.3 127.7 125.9 125 124.4 123.1 120.7 118.4 115.5 115.3 118.5 118.7 116.2 104.9 102.9 111 116.4 119.1 119.7 120 121.1 122.1 123.2 123.3 123 122.8 121.5 119.5 117.6 116.5 116.7 115.6 114.5 113.1 110 107.1 105.4 104.8 105.6 105.6 105.3 105.6 105.1 105 105.2 105.8 104.7 104.5 105.1 105.3 106.1 106.5 105.2 107.2 108.1 109.1 110.3 111.5 112.4 113.2 113.3 114.7 118.6 122.7 132.5 136.9 142.4 146.4 149 147.8 145.2 141.3 137.4 135.1 133.6 131.5 128.4 122.5 122.2 125.3 126 126.2 126 124.8 123.6 122.2 121.3 120.4 121.3 120.9 121.7 121.4 120.9 121.7 124.7 127.5 130.5 133.6 136.6 139.2 140.6 142 142.7 143.3 144.6 146.4 148.7 149.8 151.3 152.4 152.9 153.7 152.7 154.5 155.7 154.9 155.9 160 165.3 171.6 180.9 187 186 199.5 204.2 220.5 224.7 229.9 231.8 232.4 233.7 233.8 232 233.9 234 233.2 234.1 236.3 237.5 239.3 241.4 243.3 246.8 249.9 250.7 250.5 251.7 252.3 251.3 252.8 253.3 250.2
123.2 122.7 124.1 127.8 133.2 140.5 145 147.1 145.2 140.4 135 128.5 125.1 124.5 125.7 128.2 130.9 135.8 142.2 148.3 155.8 162.1 165.6 167.8 169.4 171.2 172.2 173.2 174.2 174.5 173.9 172.9 171.7 171.5 171.4 171.5 172 172.1 173.3 173.6 171.9 167.1 159.2 150.5 142.9 138.6 134.4 131.3 128.4 125.7 124 123.2 122.3 121 119.9 118.6 116.2 114.2 114.7 114.9 105.2 102.6 112.1 116.4 120.3 120.1 119.7 120.3 121.3 122.4 123.8 124.2 123.5 123.6 123.1 120.7 120.8 119 117.8 118.7 117.9 116.9 114.7 115.2 111.7 105.1 105.4 105.7 105.4 104.6 105.5 105.5 105.6 105.7 105.8 105.5 105.5 104.1 105.4 105.9 105.7 107.1 108.5 110 111.3 112.8 113.4 114.5 115.5 119.2 123.2 132.2 140.6 143.8 147.9 152.2 153.6 153 150.1 145 141 138.1 135.8 133.7 131.9 128.6 128.4 127.7 127.9 127.8 127.5 126.1 123.5 121.5 122.3 122.6 122.4 122.3 122.6 122.2 121.8 121.9 124.5 128.8 131.9 136.1 138.7 140.8 142.1 143.4 144.1 144.9 146.5 148.6 151.1 152.8 154 155.1 156.1 157 157.5 156 157.6 161.1 160.1 161.4 165.7 173.6 180.5 181.7 191.8 206.5 220.7 227.3 232.5 237.6 241.8 242.9 244.1 243.5 241.6 240.3 242.6 243.5 242.1 241.9 242.9 243.8 245.9 247.8 250.8 253.2 253.9 254.5 254.9 256.6 257.4 258.6 260.5 260.5
124 122.4 123.2 125.1 128.5 133.6 139.1 142.7 143 137.6 131.7 126.1 124.3 124.6 125.5 128 131.1 136.7 142 150.9 159 163.8 166.5 169.1 170.5 171.6 171.9 172.9 173.9 173.9 172.9 171.9 171.4 171.5 171.9 172.3 173.9 175.4 176.7 176.1 172.1 166.2 159.3 149.8 139.8 135.9 132.4 129.3 126.3 123.8 122.2 121.3 120.3 118.9 118.4 117.3 116.9 113.1 111.6 106.2 101.8 110.4 113.9 117.9 120.7 120.5 120.4 120.1 120.7 122.1 124.1 124.9 124.2 124.3 122.2 123.2 124.2 123.1 122.4 121.6 120.3 118.8 117.4 116.7 114.7 105.2 104.8 105.7 105.3 105.6 105.3 105.5 105.7 105.7 105.7 105.9 106 104.4 106.3 105.1 106.7 108.7 110.2 110.8 112.5 114 114 115.3 117.9 123.8 129.9 142.3 149.3 149.8 154.5 158.7 159.3 158.6 155.1 148 143.9 141.3 138.6 136.7 134.3 133.7 131.1 129.9 129.6 129.5 129.2 127.1 124.7 122.3 122.9 122.9 122.9 123.3 123.5 123.4 123.2 124 126.8 130.2 134.8 138.1 140.2 142.4 143.5 144.7 145.8 146.9 148.8 150.8 152.4 154.5 156.2 157.7 158.1 158.5 159.5 160 160.3 158.9 164.6 162.8 165.7 172 176.6 185.7 201.6 217.1 224.7 231.6 238.7 244 249.6 250.9 251.7 252 251.8 250.3 250.2 249.9 250.2 249.6 248.9 250.1 251.6 254.5 254.9 255.4 256.6 257.9 259.6 261.1 263.7 265.9 267.8 269
123.2 121.3 122.1 123 124.9 129.1 132.9 138 138.9 136 129.9 125.1 123.8 124.7 125.5 128.4 131.5 137.5 145.3 155.1 160.8 164.6 167.5 170.2 171.8 172.2 172.3 172.3 173.2 172.8 172 171.1 171 171.3 171.8 173.1 175.8 178.3 178.4 176.5 171.1 165.1 158 147.6 138 133.9 130.1 126.8 123.8 121.8 120.4 120.3 119.6 118.3 116.3 116.4 115.9 110 104.5 101.8 106.5 113.4 116.5 118.9 120.4 120 119.7 119.3 119.9 121.8 123.7 124.7 124.3 122.2 121.4 121.8 124.3 123.2 121.9 119.7 118.4 119.1 118 116.3 110.9 104.9 105.3 105.5 105.6 104 105.3 105.6 105.8 105.8 105.7 105.8 105.9 105.7 105.8 107.5 110.1 111.6 112.6 113.3 114.5 114 114.6 117.2 118.5 125.6 136.3 149.6 153.5 157.6 162.3 164.4 164.1 161.9 160.5 155.2 147.6 144.3 141.5 141.1 139.7 136.6 133.4 133.1 132.3 131.8 131 129.8 128.3 126.5 123.5 123.7 124.1 124.5 124.7 125.2 125.7 127.8 130.9 133.8 137.7 140 142.2 144 145 146.1 147.4 148.8 150.6 152.4 154.2 156.7 158 159.1 159.6 160 161.1 162.1 162.6 163.5 163.5 166.2 167.2 173.7 181.5 191.4 204.7 214.5 223.7 232.4 241.9 249.3 253.9 256.2 257 258.1 259 258.9 257.2 255 253.8 254.4 254.7 256.2 257 259.6 260.9 263 264.7 264.1 263 264.8 267.2 270.3 273.2 274.7
122.6 121.2 121.7 122.1 122.5 125.6 130 133.8 136.4 134.5 129.2 124.1 122.8 123.8 125.4 127.8 132.8 140.3 149.7 156.7 161.1 164.9 167.9 170.5 172.1 173.2 173.2 172.9 172.2 171.7 170.9 171 171.1 171.2 172.4 174 178.2 179.4 178.6 174.9 169.4 163.6 155 143.8 136.4 131.5 128 124.7 121.9 120.2 119.3 119.6 118.7 116.4 113.7 112 108.8 104.2 103 104.1 111.4 115 117.1 119 119.5 119.2 119 119.4 119.7 120.9 122.3 124.1 123.2 121.2 122.3 122.1 122.5 119.4 117.2 115.5 111.7 109.9 109.8 110 108.3 104 105.3 105.3 105.2 104.8 104.8 105.7 105.9 105.8 105.7 106.2 106.7 109.2 118 119.4 116.5 115.9 116.5 117.5 118.8 121.6 120.7 117.6 120.1 126.6 135.1 146.7 154.2 160.7 165.6 167.6 170 172.6 171.8 166.9 159.1 147.7 145.4 144 140.8 138.4 136.3 135.3 134.4 133.7 132.8 131.5 130.3 128.7 125.1 124.9 125.3 125.7 126.2 127.9 129.5 129.8 132.4 136.7 139.7 142.3 144.3 145.9 147 148.2 149.4 150.8 152.6 154.8 157.2 158.6 159.7 160.4 161.1 161.7 162.8 164 164.8 165.9 166.7 167.2 170.4 176.8 184.1 192.4 202.6 209.5 221.1 234.8 245.4 251.5 255.4 258.4 260.9 262.5 262.3 262.5 261.1 259.3 258.1 259.1 259.7 260.1 262.1 264 265.2 267.5 270.1 270.4 268.7 267.9 269.8 272.6 276 276.9
123 120.8 120 121.2 121.7 124.3 128.3 131.9 134.5 133.4 128.8 123.7 122.5 123.5 125.5 128.7 134.4 144.4 152.2 157.7 161.6 164.9 168.1 170.6 172 172.1 172.3 171.6 170.3 169.5 168.3 169.2 169.9 170.9 172.7 174.8 178.5 179 177.7 173.8 169.4 163 152.9 142.4 134.5 130 125.5 123.1 119 117 116.7 117.2 115.8 112.9 109.2 107.3 104.1 102.7 103 108 114.5 116.6 118.6 118.8 118.7 119 119.2 119.7 119.8 120.6 121.5 122.9 121.1 117.8 117.7 117.6 113.3 111 114.8 113.7 108.6 107 107 107 107 105.7 104.3 104.1 104.9 105.9 105.6 105.5 106 106.1 107.1 110.1 113.2 120.9 126.4 131.5 130.8 126 123.8 123.3 122.3 124.6 124.6 120.1 120.5 128.5 135.2 145.4 154.6 163.1 168.9 173.7 176.8 180.2 180.8 179.1 171.8 156.8 148.6 145.9 142.1 140 138.9 137.5 136.3 135.6 134.5 133.3 131.9 130.4 128.4 126.1 126.5 126.9 127.5 129.8 131.6 133.1 134.1 138.2 140.5 142.7 145.1 147.7 149.2 150.6 151.9 153.1 155.3 158.3 161.7 162.4 162.7 163.1 162.5 163.4 164.5 165.8 167.4 168.7 169.5 168.7 172.9 178 184.5 190.7 198.6 210.8 220.1 232.3 240.6 249 255 259.4 262.4 263.8 265.3 265.7 264.6 263.5 263.1 262.9 263.9 264.8 265 268.6 269.8 270.4 271.9 273.1 272.4 271.5 272.9 274.9 277.5 278.8
122.6 120.4 119.5 120.2 121 123.1 126.5 129.8 134.6 132 127.6 122.8 120.8 123.3 125.3 129.6 137.6 146.7 153.6 157.7 161.6 165.3 168.5 171.2 171.9 172 171 169.6 167.8 166.7 166.5 167.4 168.5 170.4 172.2 174.2 177.4 177.6 177.1 173.5 168.5 161.4 150.9 140.5 132 127.8 122.6 119.5 116.7 114.8 112.3 111.9 110 106.8 105 102 103 101.6 103.1 112.9 115.9 117.6 119 119.9 119.6 118.4 119 120 120.6 120.6 121.1 118.7 115.2 111 111 111 111 111 112.6 115.9 114 107.2 106.7 106.5 106.4 106.1 105.3 105.7 105.6 105.9 106.5 107.1 108.3 109.3 111.3 117.6 123.8 128.5 133.2 138.7 144.8 139.7 132.4 128.3 126.9 126.7 126.5 123 122.3 128.9 137 146.4 154.4 164.8 172 176.1 182.3 186.8 189.2 189.6 182.8 171.2 156.9 148.5 144.7 142.2 141 139.3 138.1 137.4 136.1 134.7 133.1 131.5 129.2 127.3 127.8 128.5 128.4 130.7 133.5 133.5 136.3 138.8 140.9 143.1 145.3 147.6 149.5 153 154.6 156.2 158.7 161.1 163.2 164 164.9 167 166.4 165.7 166.7 168.4 171.2 172.7 172.8 172.8 173.5 179.3 185 190.7 197.8 208.8 219.9 229.8 237.3 245.5 253 258.5 262.4 265.3 267.1 268.5 267.2 267 266.1 266.3 269.5 270.4 271.3 273.5 275.3 275.2 275.8 276.4 276.8 276.3 276.4 279.3 281.4 284.1
121.6 119.6 118.7 119.7 120.4 121.5 124.2 128.4 132.9 128.1 124.5 121.5 120 123.1 125.2 131.1 139 147.3 152.5 156.7 161.2 165.5 168.8 171 171.8 170.7 169.6 167.6 165.6 164.5 164 164.9 166.8 169.2 171 174.3 176.9 176.5 174.6 171 165.9 158.7 148.7 137.7 130.7 125.6 120 116.1 114 111 107.4 105.6 106.4 105.4 102.2 103.2 102.4 101.9 103.3 113.8 117.4 119.9 121.8 120.7 119.5 118.3 119.2 119.9 119.1 118.6 117.9 111 111 111 111 111 111 111 111 115.8 119.8 110.8 106.3 106.1 108.2 108.3 107.3 108.4 109.8 108.7 110.7 114.4 118.7 122.7 130.5 134 136.1 137.5 141.8 149.3 154.4 150.7 141.2 132 130.3 129.4 128.7 123.7 124 130.6 139.3 148.2 156.9 164.4 171.1 178.9 186.4 192 194 195.5 190.9 182.3 170.9 156.9 149.5 145.6 142.8 141 140 138.7 137.4 135.9 134.4 131.8 128.7 129.2 129.6 129.6 129.4 132 134.1 135.5 137 139.9 141.8 143.7 145.7 148.7 151.5 153.7 156.4 159.3 161.4 163.4 164.7 166.5 168.6 170.6 171.2 170.9 171.4 172.6 174.8 176.4 176.9 176.7 174.9 176.5 184.2 191 197.6 206.7 215.7 226.8 237 245.2 251.5 256.8 260.9 264.8 268.4 271.1 272.5 271.9 270 270.6 273.4 275.1 276.7 278.9 280.6 281.8 282.3 281.9 282.7 283.6 284.7 286.1 288.5 293.3
122 119.3 118.2 118.8 119.7 120.3 122.4 125.5 126.7 124.2 122.4 120.8 119.6 122.3 125 130.8 137.8 146 151.2 155.8 160.6 165.1 168.3 169.6 169.7 169.1 167.6 165.6 163.6 161.4 161 162.3 164.5 166.7 171.1 174.4 175.6 173.9 171.3 167.5 161.7 154.7 145.1 132.9 127.7 123.5 118.1 112.9 108.6 106.3 105.8 106.1 106.5 101.9 101.9 102.2 103.2 103.3 103.7 113.4 118.3 119.5 120.2 119.5 118.6 118.5 119.4 118.8 118.1 117.1 111 111 111 111 111 111 111 111 111 116.5 118.3 114 110.3 112.2 114.7 113.9 115.8 121.3 121.2 122.8 130.5 136.6 140.9 146.5 153.7 156.6 153.5 150.2 151.5 157.8 161.5 157.8 151 139.8 133.5 132 130.6 126 126.4 130.2 138.8 147.4 153.6 159.9 169.7 177.1 183.8 189.6 194.1 198.7 196.7 190.6 182.4 166.3 155.5 148.5 145.4 142.6 141.1 139.9 138.7 137.3 135.8 131.6 131.1 131.5 130.6 131.5 132.3 132.7 134.7 136.9 138.7 140.4 141.9 143.8 146.8 149.4 151.8 154.1 156.4 159.6 162.9 164.6 168.2 170.5 172.3 173.9 174.1 175 175.7 177 178.4 180 181.3 180.9 181.8 183.6 183.8 190.6 196.5 203.5 215.1 224.8 233.3 243.6 249.4 254.2 260 264.4 268.6 271.1 272.7 273.1 273.2 274.6 276 277.8 280.2 282.7 285.2 286.7 288.3 288.7 289 289.5 290.9 291.9 297.3 302.9
121.7 118.8 117.9 118 118.6 119.4 120.6 121.5 122.1 121.3 120.3 118.3 119.6 121.9 124.5 129.7 135.6 142.3 149.5 154.9 160.1 163.8 166 167.2 167.1 167.1 165.7 163.7 161.4 158.9 157.7 160.4 163.7 166 169.4 171.6 172.4 169.9 166.3 162.4 156.8 148.6 139.2 131.4 125.3 120.7 112.9 105.3 104.7 105 105 105.6 103.6 102.2 102.8 103.6 103.9 103.8 103.5 115.7 118.8 120.2 120 119.3 118.6 118.8 118.5 117.8 117.1 115.5 111 111 111 111 111 111 112 115.8 115 117.9 119.8 123 126.4 129.5 132.7 134.4 138.4 140.1 138.3 146.9 156.3 157.3 159.7 166.2 173.4 173.6 170.5 163.7 160.7 163.8 165.4 162.7 157.9 149.6 136.7 134.4 132.1 127.3 128.8 130.5 135.4 142.2 149.4 157.2 164 171.9 178.5 185.6 191.8 197.3 199.3 197.3 188.9 175.9 163.1 154.1 147.4 144.7 142.2 141.2 139.9 138.8 138.2 134.6 133.2 132.4 132.1 133.5 134.3 134.3 135 137.1 139.5 141.3 142.8 144.2 146.7 149.5 151.9 155.1 157.5 159.6 163.4 168.2 171.6 174.8 177.1 177.9 177.3 177.9 180.1 181.3 182.4 184.1 185.8 186.5 186.4 187.5 189.6 187.5 195.4 201.9 210.5 218.8 226.4 237.9 246.9 254 260.9 265.1 267.8 269.7 271.3 272.1 272.7 274.8 276.9 278.3 280.9 284 287.1 289.9 292.1 293.9 295 294.5 294.6 296.9 303.1 309.4
120.6 118.1 117.5 117.8 117.7 119 119.3 119.4 119.4 119.4 118.5 116.6 118.4 120.6 123.2 127.6 134.2 140.6 146.7 152.7 157.3 160.8 162.9 164.1 164.5 164.4 163.4 161.7 159.5 156.8 153.9 158.1 161.6 164.7 165.8 166.8 165.2 163.9 162 156.7 150.2 142.2 135.7 130.1 123.7 116.4 102.7 102.3 103.4 104.3 104.5 104.1 102.2 103 103.3 103.5 103.7 103.2 105.8 118.6 120 119.7 118.5 118.5 118.6 118.2 117.9 117.2 117.9 116.8 111 111 111 111 111 111 117.5 122.1 123.1 124.3 127.2 140 148.9 152 151.9 155.4 160.6 160.4 161.1 164.4 167 171.9 173.7 180.8 186.7 186.4 179.7 174.1 169.5 167.7 168.3 167.6 165.2 152.7 139.3 136 132.7 129.9 129.8 131.5 133.6 138.1 145.1 152.3 158.8 165.9 172.8 179.7 185.5 193.1 196.8 198.4 193.8 184.1 172.6 161 152 146.5 143.6 142.2 141.3 140 139.6 136.3 135.1 134.7 134.2 134.7 135.3 136.3 137.6 139.2 141.1 142.7 144.4 146 147.6 149.9 153 155.6 157.9 160.6 165.3 171.6 176.9 180.7 183.3 184.2 182.8 181.9 183.9 185.1 186.3 187.6 188.7 188.5 189.4 192.3 194.3 195.9 196.4 202.1 206.8 212.8 218 229.5 240.2 249.3 257.1 260.5 263.4 265 265.8 268.3 271.4 272.8 275.1 277.6 282.6 285 288 291.2 294.7 296.5 297 296.6 298.2 301.8 308 313.5
120.7 117.5 116.5 116.7 117 118.3 118.3 118.4 118.4 117.6 116.2 115.7 116.6 118.8 121.3 126 132.6 139 143.4 148.5 153.9 157.2 160.1 160.8 161.7 161.8 161.2 161.1 159.1 154.8 147 153.6 157.7 160.1 160.8 161.1 160.2 158.3 154.6 150 143.8 138 133.2 127.6 121.7 104.3 101.7 102.1 102.5 102.9 102.4 101.8 102.4 103.1 103 103.2 103.3 103 119 119.7 119.5 119.4 118.5 118.5 118.9 117.1 116 117 117.2 116.6 111 111 111 118.1 116.8 121 123.6 125.8 128.9 135.1 150.7 159.7 164.3 168.4 170.9 173.6 175.8 176.5 175.9 177.4 178.4 181.7 184.2 191 196.5 193.5 186.6 180.7 178.3 172.3 173 172.9 171.5 155 141.7 138.1 134.2 133.7 133.7 134.5 135.7 137.9 142.3 149.2 156.2 160.5 166.9 172.8 179.2 186.1 191.6 194.6 194.2 188.5 182.5 169.6 158.8 148.9 145.1 144.4 144 142.2 140.7 137.9 136.9 136.4 136.6 136.1 136.5 137.5 139.2 142.3 144.6 145.8 146.5 147.8 150.1 151.6 153.8 156 158.3 161.8 168.4 176.5 182.7 187.3 190.2 193.6 192.4 189.1 189.7 189.6 189.5 190.1 190.6 191.6 193.8 198 201.2 201.3 195.2 202 206.8 210.7 214.5 218.9 226.3 233.6 239.5 244.8 249.5 254.3 257.7 261.1 264.8 267.6 272.4 276.7 282.1 285.6 288.2 290.5 294.1 296.2 297 297.5 298.7 304.1 311 317
120.5 117.7 116 115.5 115.7 117.6 118.1 118.1 117.3 114.8 114.9 115.1 115.5 116.9 119.2 123.6 129.2 134.2 138.5 144.9 150.6 154.2 157.5 158.2 158.7 159.2 159.1 158.6 157.3 152.3 144.4 148.8 152.6 154.6 155.2 155.3 155.3 152.3 148.2 144.3 139.3 134.7 130.6 122.4 103.9 101.6 101.9 102.3 102.6 102.7 101.3 102 102.6 102.9 102.9 102.9 104.9 117.9 119 119.2 116.6 115.3 115.9 116.2 116 115.3 114.4 113.6 114.1 115.7 115.7 117.3 117.6 123.1 124.2 125.9 127.8 138.3 143 151.2 163 169.8 176.7 183.5 186.1 187 187.3 187.9 187.4 188.8 189.3 191.6 194.7 199.7 203.7 201.3 197.6 193.3 188 181.5 181.4 179.9 174.3 158.5 143 139.6 135.7 136.3 137.2 139 141.7 146.3 149.5 151.4 157 159.9 161.9 169 173.1 179.4 185.2 189 191.5 189.9 188 180.1 167.8 159.5 149.8 147.8 146.7 144.6 141.9 139.7 138.4 138.1 137.3 137.6 138.1 139 141.2 144.4 147.5 148.8 149.3 149.8 151.5 153.8 155.2 156.9 159.3 164.4 173.5 181.7 188.5 194.8 198.3 200.6 202.5 199.9 196.1 193.6 193.2 193 193.1 194.2 196 200.5 204.9 204.3 204.2 202.1 203.2 209.1 212.7 216.7 219.3 221.9 225.5 229.3 235.4 241.1 246.8 251 255.1 260.8 266 270.6 277.8 282.2 285.3 287.8 290 292.6 296.2 299.5 301.6 309.6 318.2 321.6
119.5 117.8 115.6 115.3 114.8 116.5 117.9 117.6 115.4 114.6 113.9 114.2 114.6 116.2 118.1 121.4 126 130.4 133.9 141.8 146.9 150.6 153.8 154.7 155.8 156 153.4 150.5 150.6 145.3 140.3 143.5 145.5 148.7 150.2 150.1 149.4 147 144.6 140.8 137.1 132.4 128.3 105.8 100 101.5 101.8 102.3 102.7 102.8 100.9 102.8 103.2 104.9 105.6 111 120.7 121.2 120.5 116.7 112.6 109.7 112 112.7 113.5 113.3 114.2 113.7 115.4 116.4 118.9 119.3 122.6 124 125.9 129.9 137.9 148.5 152.2 160.6 168.1 174.6 185.7 194.5 198.7 198.1 197 196.8 197.8 198.6 199.3 199.9 201.8 206.7 209.2 209.1 207.4 202.4 196.8 191.9 188.7 187.6 179.6 160.5 145.3 140.7 137.6 138.7 140.7 145.4 152 158.4 160.7 161.7 161.4 162.1 164.8 167.8 171.1 175 179.9 184.9 188.2 189.7 189.7 184 177.7 170.9 162.8 152.5 149.6 147.3 144.3 142.2 140.8 139.5 138.9 139.1 139.8 140.9 142.8 146.6 149.7 150.6 151.7 152.1 153.2 155 157.7 159.6 164.2 171.4 180.2 187.9 194 199.5 203.7 205.5 207.9 209 206.1 200.1 197.5 196.1 196.4 197.8 200.6 203.7 206.4 206.4 206.8 207.6 209.3 207.7 210.3 211 216.1 220.6 223.7 226.3 229.1 230.9 233.5 238.5 243.4 248.2 255.1 259.2 266.7 274.4 279.7 283 287.3 292.5 298.5 302.8 308.2 317.4 323.1 324.6
118.6 117.8 114.9 114.3 114.3 115.7 116.8 114.6 113.8 113.9 113.6 113.7 114.4 115.5 117.7 120.7 123.4 127 131 135.3 140.8 145.3 147.5 148.9 149.4 147.5 144.5 140.1 135.5 135.7 137.4 139.9 142.4 144.8 145.3 146.4 145.3 143.1 140.9 139.2 135.2 129.8 124.9 100.1 101.1 101.9 100.3 102.4 102.6 102.1 102.7 113 118.1 119.4 112.9 114.1 121.4 120.2 116.5 112.7 108.9 108.5 108.9 108.9 109.7 109.5 112.8 112.1 115 118.3 119.2 119.6 122.2 125.4 128.6 134.9 143.7 153.1 163.2 167.2 171.8 181.6 193.4 202.9 205.5 205.4 203.1 202.2 205.2 207.3 208.6 212 219.3 218.4 217.4 216.1 213.8 210 204.3 199.9 194.8 192.7 183.5 161.7 147.9 142.2 140 141.2 146.1 153 162.9 170.1 172 172.9 172.2 170.1 168.5 169.9 171.6 174.2 176.8 180.3 183.4 185.6 187 184.9 183.1 180.3 174.4 164.7 152.4 149.4 146.5 144.4 142.7 142.1 142.2 142.1 141.5 142.1 143.7 148.3 150.4 151.9 153.2 154.4 156.5 157.2 160.8 165.3 172 179 185.8 192.3 198.2 203.3 207.3 209.9 212.6 214.2 215.6 211.7 205.7 200.2 199.4 201.2 204.1 206.2 208.2 209.3 209.5 209.9 211.3 213.5 215.8 217.7 218.5 217.5 221.8 223.6 226.1 228 230.1 232.9 235.6 238.9 243.9 252.1 256.7 265.9 272.7 279.6 288.1 295.8 302.9 307.3 314.3 321.3 324.2 325.5
117.7 116.1 114.2 113.7 113.9 114.7 114.2 113.4 113.2 113.3 113.3 113.8 114.7 115.2 116.7 119.3 122.1 124.8 127.9 131.5 134.2 137 138.3 136.3 134.4 132.1 129.4 129.8 131.4 133.1 135.6 137 138.8 141 142.7 143.8 142.6 140.9 139 137.1 133.1 128.8 121.8 100.5 102 102.1 104.5 104.1 103.6 111.5 118 117.4 119.4 117.2 112.6 112.8 114.8 115.4 113.4 110.7 108.2 106.9 106 106.4 107 108.3 110 110.7 113.6 116.4 118.7 120.5 123.8 127.5 137.2 144.4 151.2 156.5 164 169.8 176.2 185.1 196.1 204.4 207.2 206.6 207.2 208.8 213 214.5 218.4 223.7 228.1 227.9 225.9 222.6 220.2 214.9 209.1 203.9 199.4 194.5 184.6 164.6 151.6 145.3 142.7 143.7 151 161.9 174.1 178.2 181.3 183.7 183.1 180.4 178.4 176 175.4 176 177 179.1 181.2 183.3 186 186.3 186.9 186.5 183.6 175.2 165.9 154.7 150.6 148.5 147.3 146.2 144.9 143.7 143.3 143.9 145.3 150 152 154.1 155 156.9 159.3 160.6 163.6 168.7 175.3 181.6 188.1 194.9 200.5 205.6 210.3 213.4 216.5 218.2 219.4 220.5 219.4 214.2 207.9 205.1 206.6 208.2 210.4 210.8 210.8 211.2 212.2 214.5 218.5 220.7 221.6 221.3 220.8 221.4 224.3 226.8 228.4 232.1 234.5 237.2 242.6 247.7 252 257.1 265.6 282.4 293.6 299.7 305.9 312.1 319.3 323.3 325.1 325.8
115.8 114.6 113.6 113.4 113.6 114.1 113.5 112.8 113.3 113.2 113.5 115.1 115.6 116.2 117.2 118.4 120.6 122.4 124 124.3 124.6 123.9 122.5 122.7 123.2 124.3 126.1 127.3 128.8 131.2 133.5 135.1 137.3 139.7 140.9 141.2 140.5 139 137.1 135 131.9 127.5 121.5 100.4 101.7 101.9 102.2 107.9 113.9 116.3 117.4 117.6 117.4 113.2 112.2 113.6 115.9 113.9 110.7 107.6 107 105.7 105.5 105 105.1 107.1 108.9 109.3 110.5 113.4 119.8 123 126.8 140.6 151.3 156.9 157.8 160.1 165.4 169.7 175.1 184.4 189.9 199.2 202.5 207.6 208.1 210.7 215.4 220.1 226.8 230.6 233.1 232.7 232.3 227.9 223.5 219.1 213.4 208.2 204.1 196.3 186.6 168.2 156.4 150.3 146.3 148.1 155.8 167.7 178.6 184 188.5 191.1 192.6 192.5 189.9 187.3 183.5 182.5 181.7 182.1 183 185.4 187.3 188.4 192.2 191.6 190.8 186.3 178.9 167.3 159.3 154.8 152.4 151.2 150.1 149.2 147.7 147.6 146.3 150.6 154.2 156.6 158 159.6 161.7 163.5 167 171.5 176.8 182.2 189.7 196.2 201.2 207 212 215.6 218.8 221.4 222.8 223.8 224.7 224.6 218.8 212 212 211.9 211.6 212 212.2 212.3 213.1 216.4 220.2 223.7 224.5 224.6 224.7 225.3 225.7 226.6 227.3 231.4 234.3 237.9 240.7 244.2 248.6 255.3 263.2 282.4 292.5 302.7 310.8 318 322.2 324.3 324.8 325.3
113.7 113.2 112.5 113 113.5 113.2 113 113.3 113.6 114.2 115.5 117.5 118.1 117 116.6 117.4 119.1 120 121 120.7 120.4 120 119.1 119.4 120.1 121.6 123.1 124.9 127 129.1 131.3 133.5 135.7 138.3 138.9 139.2 138.8 137.2 135 133 130 126.1 120.8 110.5 99.8 101.6 101.6 103.1 115 115.9 119.3 118.5 113.9 111.4 112.2 112.3 113.1 111 107.9 106.6 105.5 105 104.9 104.9 105.2 106 107.7 108.3 111.5 116.3 122.8 126.2 137.8 149.2 157.9 156.2 155.1 156.9 159.9 165.8 172.6 177.9 180.8 185.7 190.6 196.5 205 211.7 219.4 228.1 232.6 234.4 238 239.2 238.2 234.7 229.5 223.4 218 213.2 207.8 198 186.5 171.3 161.3 155 149.9 149.8 159.4 170.3 180.2 186.7 193.3 198.3 201 201.1 200.4 198.5 194.9 191.8 189.2 187.7 188.1 190.5 193 195.5 199.3 201.7 200.8 197.5 192.3 184.1 177.7 171.9 165.7 161.1 157.3 153.6 153.6 153.1 152.2 149.4 154.8 158.7 160.4 162.1 165.3 168 169.9 172.6 176.5 182.3 188.2 194.3 200.4 206.1 211.5 215.4 219.4 223.7 226.2 227.6 229 228.9 227.7 221.5 219.6 218.9 214.9 213.6 213.6 213.6 215.5 219.2 222.7 226 227.7 227.9 227.8 228.3 228.5 229 231.1 232.6 232.9 235.7 239 242.2 246.7 254.8 265.8 283.1 293.4 305.7 315.2 319.9 322.5 323.6 324.4 325.2
111.4 111.3 111.8 112.3 112.9 112.9 115.3 116.1 115.8 117.8 119.8 121.1 121.1 121 117.2 117.2 116.8 118.1 119.2 119.5 118.9 117.7 116.5 116.6 118 119.7 121.3 123.2 125.5 128 130.6 134.4 136.7 137.4 138.1 138.1 137.3 135.5 133.4 131.5 128.5 124.8 119.7 114.7 105.7 100.9 101.5 101.1 107.6 111.1 112.8 113.4 110.2 110.5 110.9 110 109.3 107.8 107.3 106.3 105.6 105 105 105 105.3 106.2 107.6 110.2 116.4 124.5 129.4 132.3 141.6 153.3 152.3 146.7 148 149 154.3 161.3 167.7 169.7 171.8 177.2 187.5 195.8 207.2 216.2 224.9 231.9 236.4 240.2 244.8 246.3 245.5 241.1 236.8 231 225.1 219.2 212.4 201.3 187.2 172.9 163.4 157.6 153.4 149.8 161.2 171 182 190 196.2 201.5 205.7 208.7 211.3 211 208.8 205.8 204.1 201.7 200.8 200.4 202 204.6 209.4 210.6 210.5 208.3 204.4 198.8 194.3 188.8 181.5 176.9 171.9 167.3 162.5 159.7 158.2 155.7 155.8 157.2 162 164 167.2 170.6 173.5 175.5 177.2 182.2 185.7 191 198.1 205.5 210.7 215.4 219.7 224.7 229.1 232.1 233.7 233.6 233.5 233.2 225.3 224.5 220.6 217.3 216.3 216.9 218.8 221.3 223.4 227 229.6 230.5 231.1 231.3 231.7 232.3 233.7 234.8 236 236.6 237.7 241.2 245.3 249.6 261.3 276.5 285.8 302 311.6 318.7 321 322.4 324.1 325.5
110.5 110.6 111 111.6 112.2 115.9 119.7 121.4 121.5 123.7 125.1 127.7 128.2 127 119.5 116.8 116.7 117.3 118.8 119.3 118.6 117.9 115.5 115 116.6 118.2 120 122 125.8 128.1 131 134.8 136.4 136.7 137.4 137.4 135.7 133.8 132.4 129.6 126.7 123.4 117 114.4 112.5 103.5 101 101.3 100.9 101.1 106.5 109.2 108.8 109.6 109.3 107.2 107 106 106.1 106.4 105.7 105.2 105.2 105.2 105.5 107.5 110.2 114.7 122.1 131.7 138.1 145.7 143.9 139 135.9 135.6 137.3 141 144.7 151.9 156.4 160.2 170.9 177.9 185.2 190.9 205.2 216.5 225.7 231.8 235.8 241.2 245.3 247.9 247.4 245.7 242.5 237.9 232.5 227.2 217.3 207 190.8 173.8 165.5 161.7 157.9 155.1 160.7 174.5 183.6 191.9 198.8 203.9 208.3 212.7 218.2 220 219.9 219 218 216.8 214.3 212.1 211.5 215.1 219.1 219.2 219.4 218 214.4 209.8 205.4 200.6 195.9 192.4 188.8 185.5 180.5 174 165.1 161.5 159.4 160 160.3 165.4 168.6 171.9 175.3 178.6 180.9 184.4 186.8 189.2 196.8 203.8 209.9 215.7 220.9 226.3 231.4 236.4 237.7 238.1 240.3 241 239.2 235.4 229.2 221.4 220.5 221.8 223.4 224.9 227.2 229.3 231.4 232.6 233.9 235.8 236 236.4 237.6 238.6 238.9 239.8 239.7 241.1 244.7 248.7 254 262.7 273.2 289.8 303.4 311.9 315.5 321.3 326.1 327.6
110.2 110.4 110.6 111 112.8 119.8 123.2 125.1 127.1 128.8 130.5 131.2 131.1 129.6 122.9 117 116.1 116.7 117.7 117.5 117.9 116.8 114.4 114.2 115.1 117 119.2 122.5 126.2 128.4 131.8 134.4 136.2 136.5 136.8 136.8 134.4 132.5 130.2 127.5 124.6 120.1 115.8 114.1 112.5 110.1 100 101.4 100.8 100.4 100.7 101.7 107.1 106.1 107 105.7 105.9 106.1 106 106.4 105.8 105.4 105.3 105.5 107 110.7 115.2 124.8 140.9 142.7 146 133.7 128.8 127.6 129 131.8 134.6 138.1 141.5 145.1 149.8 157.4 165.2 175.9 183.4 189.5 199.7 212.5 219.7 226.1 231.4 233.4 240.1 245.3 247.5 247.2 244.6 241.1 237.1 229.9 223.1 212.5 193.9 176.6 167.6 164.7 164.6 161.8 156.5 173.8 184.2 192.9 199.4 204.5 208.3 214.7 221.8 224.2 225.5 225.9 227 227.5 227.2 225.2 222.7 226.8 229 228.7 226.4 224.5 222.5 218.2 213.6 211.3 208.5 208.1 206.2 202.7 196.3 187.5 173.5 165 163.1 164.4 163.5 165.2 170.5 173.5 176.6 180 183.3 186.1 189 191.4 196 202.5 208 214.6 220.5 227.8 234.9 240.1 243.4 245.3 246.9 247.2 246.4 244.4 234.6 228.1 227.8 227.5 229.3 229.3 231.2 233.4 235.5 236.9 239.9 241.9 242.2 241.7 244 243.2 243.8 243.8 243.9 242.1 244.3 248.2 253.2 258.7 264.3 273.3 285.4 299.2 312.3 321.2 327.2 331.6
109.4 109.9 110.2 110.1 117.4 124.2 125.3 127 129 131.4 132.6 133.3 132.7 131 125.8 118.4 116 115.8 116.1 116.7 117.1 116.4 113.9 112.5 113.4 116 120.6 123.7 126.3 129.2 131.6 133.8 135.9 136.3 136.5 136.3 133.9 130.6 127.6 125.5 122.5 118.9 116.6 114.8 112.4 106 102.5 100.4 100.4 100.3 100.8 100.8 100.6 100.6 100.3 101 105.3 105.7 106.1 106.1 106.2 105.6 105.6 107.3 108.3 113.7 120.5 133.9 137.8 135.9 128.9 124.9 124.4 126.2 129.6 133.5 138.1 142.1 145.4 148.3 152.3 155.5 158.8 167.2 177.8 187.1 195 205 213 219.1 223.2 227.7 235.4 239.9 243.3 244.6 244.9 243.9 239.5 232.9 225.9 213.7 194.4 180.5 171.4 168 169.5 167.6 163 169.4 182.7 189.9 196.3 201.4 205.2 213.8 222 226.7 229.9 230.7 233 235.6 235.4 234.2 234.4 235.9 238.8 238.4 235.1 232.8 229.8 225.8 222.4 220.6 219.2 220.9 220.6 217.3 209.8 199.1 181.8 168.5 165.8 166.7 169.1 165.7 167.6 175.4 178.5 180.7 184.8 187.1 190 191.8 195 199.8 207.6 214.1 218.6 224.7 235.9 245.9 252.5 256 257.1 256.7 255.7 250.4 241.6 237.4 238.7 237 235.2 235.1 238.2 240.4 242.1 244.4 247 250.3 251.4 254 253.5 252.5 253.3 252.4 250.5 248.5 244.6 246.7 250.7 255.5 260.9 266 275 291.4 309.9 320.8 327.4 334.8
108.7 109 109.5 114.3 122.1 127.2 128.8 130.1 131 133.4 134.2 135.3 134.4 132.5 129 123.4 118.5 116 115.5 116.3 116.3 115.1 113.8 111.3 112.3 115.4 120.4 122.9 125.8 129 131.2 133.4 135.5 136.8 137.5 136.6 134.2 129.8 126.1 123.7 121.6 118.7 117.8 115.7 112.4 102.9 102.3 101.9 100.8 99.9 100.5 100.4 100.6 100.8 100.4 100.6 100.9 101 102.4 104.9 105.7 106.2 107 108.9 110.3 115.1 118.2 123.3 124.3 121.3 121 122.2 125.8 129.5 133.5 138.6 143.5 150.6 156.6 159.8 159 162.2 165.7 169.8 175.5 183 191.6 198 203.9 211.2 217 221.9 227.5 233.6 239 243.7 246.7 246.7 242 236 228.5 215.2 196.5 184.8 177.1 172.3 173.8 172.4 169.3 164.3 175.6 185.8 192.6 198.1 203.2 211.5 219.8 225.9 229.9 232.6 237.2 240.6 240.8 240.5 242.6 244.9 247.3 245.3 243.5 240.9 237.2 234.2 233.1 231.5 229.9 231.9 230.6 226.4 217.3 204 187.6 172.8 169.6 169.8 171.6 174.1 175.3 173.3 175 179.5 184.3 187.5 190.2 193.3 195.5 201.1 205.1 212.6 217.9 223.2 231.2 248.1 259 263.9 267.1 267.6 265.4 258 249.6 247.2 249.7 246.5 243 243.5 245.1 246.9 252.2 257.4 260 260.7 261.6 264.2 264.8 264 262.3 260.9 258.7 255.8 252.1 249.2 247.7 252.3 257.7 262.7 269.8 283.7 303.1 318 328.3 339
107.9 108.1 112.4 121 127.6 130.6 132 132.2 133.3 135.4 135.8 137.7 137.7 135.5 130 127 122.1 117.2 117.1 116.1 114.3 112.8 112 110.6 111.5 115.2 119.3 122.2 125 128.6 131.1 133.3 135.5 138.1 138.8 138.3 134.5 128.9 125.1 121.8 119.9 119.2 117.7 116.4 109.6 102.3 101.8 101.4 101.3 100.4 100.2 99.8 100.5 100.9 100.5 101 100.9 100.6 100.6 101.4 103.5 105.2 107.3 109.6 111.1 112.2 114.5 116.4 118.2 118.1 119.9 123.9 129.1 134.6 141.2 148.3 159.5 166.4 172.8 176.2 175.7 177.5 179.9 181 186.8 191.2 196.5 201.7 205.8 210.2 215.2 220.5 224.4 231.6 237.9 243.6 246.7 248.3 244.3 240.1 232 218.9 202.4 192.8 184.2 180.5 178.4 177.8 175.5 174.9 168.5 178.6 186.8 194.2 200.2 208.7 215.4 220.7 225.8 232.3 237.9 243.5 244.2 247.7 249.1 252.5 252.9 250.4 252.4 250 244.7 245.7 245.5 242.4 241.7 242.9 239.5 232.9 223.2 208.9 191.4 176.2 172.4 173.1 173.9 177.1 179.2 180 179.1 184 187 188.8 190.7 193.5 196.8 201 205.6 211.6 217.9 225 231.9 242.2 258.1 266.1 269.9 271.8 270.8 268.2 262 259.6 258.1 255.4 253.3 250.6 250.9 253.3 260.1 265 266.2 267.9 268.6 271.4 274.7 275.7 276.7 273.7 268.3 263.1 258.7 257.2 253.2 252.5 255.2 261.6 268.3 279.5 294 313.2 329.4 342.5
107.6 109.7 119.8 124.6 129.5 131.7 132.9 134.2 135.4 135.7 136.5 139.1 139.2 136.6 132.6 128.5 124.9 119.8 117.1 113.8 111.6 112 111.8 109.9 110.3 112.9 116.8 121.6 124.9 127.8 130.5 134.1 136.8 139.2 139.5 135.6 131.7 126.5 122.1 119.9 119 118.8 116.6 115.7 104 101.7 102 101.6 101.4 101.3 101.4 100.4 99.5 99.5 100 100 99.7 99.6 99.7 100.8 100.9 106.7 108.6 109.1 111 112.3 113.7 115.4 117.6 119.6 122.3 128.5 136.5 142 152.3 163.7 173 181.4 189.9 196.4 196.5 195.1 201.4 201.9 203.4 206.5 209.1 209.3 213.4 215.6 218.4 220.4 224.4 231.5 237.1 241.9 246.2 249 247.4 243.3 236 225.1 213.2 204.9 200.7 194.5 187.1 184 182.1 181.8 180.8 172.5 177.9 186.6 194.8 202.8 209.3 215.2 221.6 227.8 236 241.9 246.1 250.2 253.5 255.8 255 255.6 257.7 254.9 252.5 254 252.5 251 252.6 251.5 247.2 238.9 227.1 212 193.8 179.9 176.1 176.6 177.6 181.4 185.5 186.3 186 185.9 190.7 192.9 194.8 197.8 201 202.1 204.6 210.6 216.7 224.6 230.6 238.2 249 264.6 270 273.3 274.8 275 272.3 269.7 266.7 262.9 261 258.5 257.2 262.2 265.7 268.9 272.2 274.7 275 275.8 279.6 285.4 288.5 285.9 279.3 270.4 265.7 261 257.8 256.4 254.1 261.2 267.7 278.7 293.2 311.7 328.9 341.4
107.1 113.9 120.5 125.8 128.8 130.6 132.3 133.6 134.6 135.6 136.7 137.5 137.7 136.2 134.5 130.8 125 120.2 115.9 113.3 112.6 112.1 111 109.1 108.6 111.7 114.9 121.6 124.5 127.4 130.6 134.3 137.4 136.9 135.2 130.4 126.5 122.8 120.3 119.6 119.4 119.7 116.2 110.7 101.7 101.6 101.9 101.3 101 100.9 101.2 101.1 99.8 99.7 100.3 99.6 100.4 101.3 100.7 98.9 100.7 103.6 107.8 108.4 111.8 115.4 118.3 122.5 127 129.7 134 140.6 147.7 157.3 167.5 176 185.2 194.6 204.2 211.7 217.4 220.5 222.5 221.2 220.2 221.9 222.9 223.3 223 223.6 225.1 224 227.7 231.4 236.5 241.3 245.1 248.5 249.6 247.6 241.2 234 222.8 217.3 214.7 209.5 200.2 193.8 189.8 187.3 186.4 185.2 181.2 185.7 186.4 195.9 203.5 211 217.9 224.1 231.3 236.9 242.2 247.7 251.6 254.4 256.8 258.9 259.3 257.1 259.6 258.6 257.5 259.4 259 256.9 251.2 240.9 228.3 211.5 193.9 183.7 179.6 180.5 181.8 185.3 188.5 189.9 190.4 189.3 192.8 196.4 198.9 200.6 202.9 204.7 206.6 207.9 216.5 223.1 230.1 236.4 243.6 257.9 268.3 274.5 278.4 280.7 279.7 277.6 275.1 270.4 266.4 264.1 263.1 266.5 269 271 272.8 278.8 280.9 281.3 284.7 290.3 294.8 295.2 287.2 277.4 268.5 263 260.2 257.7 255.1 259 264.4 272.9 285.8 305.3 320.6 336
110.5 117.8 120.6 123.9 126.6 128.6 130.3 132.1 133.1 133.8 134.5 135.5 136.4 136.2 134.9 131.9 125.7 121.4 117.1 113.7 112.1 110 108.4 107.8 108.3 111 114.9 119.9 123.4 126.7 129.6 132.6 132.3 130.7 127.3 125 123.1 120.6 119.1 119.7 119.6 117.9 113.6 98 98.5 98.7 101.6 100.9 100.5 100.8 100.9 100.8 100.4 99.9 99.5 98.9 100 101.2 101.1 99.4 101.2 102 110.3 112.5 119.5 124.3 127.8 134.3 138.7 142.4 149.5 156 164.4 173.1 182.4 188.6 198.1 208.4 213.9 220.3 226.3 230.9 233.8 236.1 234.4 236.7 237.4 237.5 237.2 235.5 233 232 232 233.8 237 241.1 245.4 250.5 249.9 251 248.5 241.4 232.6 230.9 227.8 223.5 214.4 206.7 199.3 194.2 191.8 190.1 190.1 186.6 193.8 194.1 192.9 203.2 212.4 217.7 224.7 231.6 236.9 241.8 246.8 251.3 257.1 258.8 257.4 260.4 262 262.5 262.1 263.4 261.8 260 250.7 239.1 225.7 209.5 192.6 186.6 183 180.4 185.3 188.2 191.5 192.9 194.1 194.5 193.6 198 201.5 204.2 205.9 207.7 210 212.7 216.4 222.4 230.6 237 244.3 250.5 258.7 272.5 279 283.2 285.4 284.5 282.1 276.4 273.8 271.6 270.9 271.2 270.9 271.8 273.3 276.5 283.3 286.7 290.4 296.1 301.4 300.4 290.3 280.1 269.9 263.2 259.6 257.3 255.7 259.2 263.2 270.8 283.7 293.2 298.6 327.7
113.9 116.5 119.3 121.6 124.2 126.4 128.3 129.8 130.7 131.8 132.7 134.2 135 134.8 134.1 132.6 130.9 127.1 118.7 115.6 112.1 109.6 107.8 107.4 107.6 109.6 114 119 121.4 123.5 123.6 124.6 124.1 123.8 123.9 121.9 119.2 118.7 119.2 119.9 117.9 113.6 102.2 99.1 99.4 98.6 99.3 99.9 99.1 100.6 100.7 100.6 100.5 99.8 99.2 98.8 99.4 100 100.9 100.4 105.9 109.8 112.9 113.6 121.4 132.2 140.4 145.4 149.8 157.1 162.5 169.8 179 186.8 195.7 203 210.1 217 225.4 232.2 236.3 239.4 242.3 244.6 245.6 247.2 248 248.8 248.7 247.2 245.1 242.8 242.4 243 243.7 246.4 250.7 252.4 255.5 254.3 252.2 248.5 243.7 241.5 240 236.5 226.4 217.6 209.5 202.5 197.9 195 194.2 194.4 195.6 198.1 198.4 199 207.2 214.6 220.3 226.2 231 235.1 240.1 247.4 252.2 254 256 260.2 263.9 264.5 264.9 263.5 261.9 258 246.4 233.7 220.9 205.8 194.8 190.1 186.5 185.8 188.3 191.6 194.3 195.2 196.4 196.3 196.5 200.1 205.7 209.8 212.9 213.4 218.8 219.4 223.7 228.5 230.5 237.4 243.6 249.1 255.9 267.1 277.4 283 285.8 287 285.7 284.4 282.4 279.5 278 277.1 276.5 275.7 275.8 278.7 286.2 287.5 294.2 301.5 306.2 299.5 289.8 280 269.7 261.9 259 256.9 256.8 258.2 262.2 269.2 278.8 281.8 307.1 323.9
105.1 113.5 117 118.4 121 123.8 125.9 126.7 127.4 127.8 129.5 132 133 133.3 133 133.5 134.5 129.9 124.3 115.8 112 109.3 106.8 106.6 107.1 108.9 111.5 116.2 118.3 118.5 118.6 119.5 119.5 118.9 118 116.1 115.1 119.2 120 120 115.2 105.4 98.2 98.9 99 98.3 98.3 98.5 98.3 98.5 100.6 100.7 100.1 99.3 99.2 99.7 99.5 99.5 98.9 103.4 107.2 111.6 117.3 126.7 133.1 140.9 148.3 154.7 160.1 167.6 173.4 178.9 191.3 197.6 205.4 209.7 221.5 229 235.3 241.2 244.5 247.3 250.2 252.3 253.5 253.9 254.3 254.7 255.7 255 253.7 251.7 251.8 250.9 252.1 252.7 255 257.8 258.2 258.2 256.3 254.7 252.2 251.8 250.6 245.8 237.8 227.6 219.2 210.1 202.6 199.3 197.7 198 195.5 200.5 203.3 204.2 204.4 213.4 218.7 222.8 227.1 230.5 234.1 240.2 245.6 249.7 253.5 259.6 264.1 265.3 265 263.2 262.2 254.9 242.6 229.9 216 203.4 196.3 192.6 190.5 189.8 190.8 193.6 196.4 197.4 199.1 198.8 198 203.1 209.7 216 223.7 227.2 230.7 233 233.5 236.9 237.1 238.9 243.4 248.9 256.2 261.9 271.1 279.4 286.2 288.3 290.7 290.8 289.1 286.7 285.1 283.6 285.1 286.7 286.6 287.6 287.9 291.3 296 302.2 305.1 299.5 289.4 278.3 268.7 261.5 258.2 257.2 257.5 258.2 261.5 267.7 277.4 284.6 302.9 311.7
104.4 111.8 114.3 115.8 118.2 121.3 122.5 123.5 124.5 125 126.3 128.8 129.9 131.2 131.5 131.6 130.6 127.1 119.3 115.2 111.5 108.4 107.7 105.9 105.8 107.8 109.2 110 113.5 114.8 114.2 112.1 112 111 111.7 114.2 116.1 119.3 119.8 116.3 113.6 99.5 98.7 98.7 98.7 98.6 98.7 98.8 99.5 99.7 98.7 100.2 98.9 99.4 99.9 100.4 100 100.1 100.4 107.2 110.6 117.6 128.4 134.9 140 147.5 154.6 161.8 167.2 173.3 179.9 186.9 191.5 198.7 206.7 214.6 226.6 237.1 242.7 246.9 250.4 253.5 257.4 258.6 258.9 259.1 258.9 258.8 259.7 260 260.8 258 259.6 258.2 257.6 257.7 257.9 259.6 259 260 259.9 260.3 260.1 260.2 259 252.1 244.4 237.6 226.8 217.9 206.6 204 202.9 202 201.5 202.2 208.5 210.3 210.2 209 215.2 219.6 222.7 225.6 229.4 234.9 240.6 247 252.4 257.7 260.6 261.6 263.4 262.9 259.2 251.7 239.2 226.4 212.2 205.2 199.7 195.8 193.9 193.3 193.3 194.4 196.8 198.9 201.4 202.5 199.8 205.5 212.5 222 230.2 237.3 241.7 244.1 247.7 248.7 242.7 243 245.9 247.9 254.3 260.6 265.2 273.1 282.5 288.9 294.4 294.2 292.8 290.6 290 291.9 294.7 296.9 297.4 296.7 294 294.6 299.2 301.3 302.8 299.8 290.7 278.3 267.9 261.6 259.7 258 257.8 259.4 261.7 266 270.3 280.3 288.9 298.2
106.4 110.5 112.9 114.5 115.3 117.3 118.3 120.6 121.5 122.1 123.4 124 125.8 127.7 129.6 130.6 128.8 124.5 119.9 115.2 111.6 109.1 107.2 106.3 105.2 105.3 106.9 108.8 111.5 114.4 111.5 109 108.8 109.3 112.4 118.8 119.4 119.6 119 112 113.1 99.2 98.6 98.3 98.9 99 99.1 99.2 99.6 100.1 99 98.3 99.4 99.6 99.9 100.4 100 100.2 101.6 111 118.1 124 132.8 139.6 145 151.2 159.8 166.5 172 179.2 185.4 190.1 195.9 203.5 211.1 219.8 228.6 241.3 247.2 252.1 255 257.8 259.3 260.9 261 260.8 260 260.2 261.6 263.1 263.7 265.8 266.7 264.1 262.6 261.1 260.2 260.4 261.4 262.7 263 265 269 267.9 264.1 257 250 244.1 236.5 228.5 216.7 209.4 209 208 206.9 206.9 210.9 213 213 213.2 213.3 217 219.6 223.8 227.9 231.9 237.5 244.7 250.1 254.7 258.9 261.1 262.7 261.7 256.3 248.9 237.1 224.1 214.5 209.5 206.1 201.1 198.3 196.9 196.9 197.1 198.4 200.9 203.3 205.3 205.7 207.9 216.1 225.9 235.2 245.4 252.1 257.5 259.2 259.1 254.5 247.2 249.6 253.3 254.2 259.8 264.7 270.7 280.8 291.2 296.2 297.6 295.1 293.5 295.1 300.4 303.7 305 304.5 301.6 297.8 296.6 299.5 301.8 301.6 299.7 292.2 280 268.2 264.1 262.2 260.1 259.2 261.7 263.9 266.9 269 273.5 281 286.8
106.5 109.7 111.4 112.1 112.9 114 115.9 117.2 118.6 119.3 120.3 122.5 125 127.5 129.9 130 128.5 124.6 118.5 115 112.1 110 108.1 106.3 105 104 105.6 107.4 109.9 115.9 110.8 107.8 108.2 109 113.7 116.2 116.6 115.2 104.8 102.2 100.9 97.9 98.1 98.1 99.4 99.6 99.6 99.8 100 100.3 99.3 98.8 99.4 99.8 102.4 103.2 100.5 102.9 111.5 116.7 121 125.9 133.8 142.6 149.1 155.2 164 170.6 177.3 182.8 187 191.8 198.1 205.7 213.5 222.3 231 240.4 248.2 253.7 256.2 258.5 258.6 260 259.9 259.4 259.3 260.7 264.3 266.5 270 271.9 270.1 267.8 265.2 263.8 261.6 263.3 265.5 264.8 266.8 272 275.2 272.9 268.1 261.2 256.6 251 243.9 235.8 226.5 216.6 214.1 213.1 211.6 212.5 211.7 214.7 215.7 216.4 216.9 218 219.5 222.1 225.5 229.1 234.7 241.6 248.2 252.6 256.9 259.3 260.8 260.3 255.9 248 237.4 226.2 218.4 213.5 210.6 208.7 205.6 202.6 200.6 201.5 202.2 202.9 205.3 207.5 210.8 211.7 217.4 225.6 234.4 245.1 257.2 264.6 267.6 269.1 265.8 254.9 254.1 257.7 259.1 260.8 264.8 270.5 281.5 288.6 291.7 295.3 295.8 295.8 300.1 305.9 310.6 313.5 312 306.3 301.2 299.7 300.4 302.7 302.1 299.5 293.5 283 269.5 268.7 265.1 262.3 262.6 264.8 265.2 265.6 267.7 272.8 278.9 282.4
108.6 107.2 108.1 109.3 112 113.4 115.1 116.3 117.3 118.8 119.6 122.5 124.6 127.6 130.1 129.5 127.4 123.7 118.5 116.3 113.7 111.5 109.6 107.6 105.9 104.7 103.7 105.2 108 117.3 111.8 109.2 108.4 108.1 109.1 105.5 104.9 104.2 100.3 100.1 98.8 97.7 98.3 98.3 99.4 100.2 100.3 100.6 101 100.8 99.8 100.1 107 107.3 106.6 105.9 107.3 112.4 116 121.1 123.7 129.1 140 145.7 151.8 160.7 166.4 173.4 179.1 183.5 188.3 192.9 198 204.4 214.1 222.1 230 238.7 247.4 250.6 252.5 253.8 254.1 254.7 255.4 255 256.9 260.6 265 269.5 271 270.7 270.3 269 265.9 264.9 264.6 267.2 267 268.1 270.8 276.6 278.5 276.4 271.6 265.2 262.6 256.5 250 240.8 233.4 221.3 218.6 216.9 216.2 215.8 214.9 216.9 217.1 218.7 219.3 220.1 221.7 222.1 224.1 227.7 232.2 238.1 244.9 250.2 254.1 256.7 259.1 258.7 254.7 247.6 238.6 228.6 221.2 218.8 218.4 216 213.6 210.3 205.5 206.4 206 206.1 207.7 210.8 213.2 215.4 216 222.5 232.9 242.1 253.2 264.4 272 274.1 273.6 269.3 261.9 261.4 263.5 265 267.1 272.6 277 281.8 286.1 291.6 297.6 301.1 305.2 309.3 313.1 316.7 318.3 315.1 306 302.8 302.7 303.6 303.2 298.3 289 280.6 275.6 271.1 268.7 268.2 268 268.9 269.5 269.1 266.1 271.8 277.4 280.1
103.8 106.7 109.7 112.3 113.8 115.1 116.5 117.2 118.2 119.2 121.2 124.1 125.9 127.7 130.1 128.6 126 122.8 120.4 118.6 115.7 113.5 111.2 109.3 107.7 105.8 104.4 103.2 103.3 114.4 116.4 117.1 116.8 111.1 107.2 104.9 101.2 99.1 98.4 97.6 97.2 98.3 98.2 98.4 99.6 100.7 101.1 101.5 101.3 104.7 108.2 109.6 111.1 109.1 109.1 109.9 114.1 117.9 120.4 124.8 127.7 132.9 141.9 146.9 153.2 161.3 167.3 173.2 178.5 183.2 187.1 191.2 197.1 203.8 210.5 217.6 225.7 232.9 238.3 243.4 248 248 248.2 248 248.6 250.2 253.8 257.4 261.3 264.8 267.4 267.9 267.6 266.2 265.1 265.1 266.4 268.2 267.7 270.9 274.6 280.1 280.7 278.9 273 269.7 265.6 259.7 255.2 247.6 238.6 226.7 222.4 220.5 218.9 218.4 219.4 219 218.9 220.2 221.8 222.5 223.7 225 225.4 228.8 232.3 235.7 241.8 247.8 251.7 254.9 257.3 255.6 252.7 247 241.1 231.5 228 225.9 225.5 224.2 222.1 218.5 213.6 212.2 212.5 212.5 211.7 213.9 215.8 219.1 224 228 233.1 240.6 249.1 257.2 267.5 273.3 275.4 275.4 271.1 270.8 268.9 268.4 269.3 271.4 274.6 278.3 282.6 289.5 298 305.1 307.6 310.9 314.3 317.5 323 325 317.2 306.7 304.7 303.9 301.5 294.1 284.7 282.5 278.1 275.2 273 273.4 274.6 275.7 276 274.3 272.1 271.3 274.3 277
107.5 109.8 112.2 114.2 115.5 116.7 118 119 119.7 121.6 123.7 125.4 127.6 129.4 130.6 127.9 125.4 123.7 123.3 121.1 118 114.5 112.1 110.1 108.3 106.8 105.1 103.9 102.4 106.3 115.1 117.9 118.3 115.5 107.7 102.7 99.3 98.1 97.7 97 98 98.2 98.2 98.6 100.4 102.2 101.8 103.2 103.6 104.8 114.3 117 114.2 111 112.4 116.6 119.6 123 123.7 126 129.7 135.9 143.3 149 156.6 161.4 165.3 170.4 175.3 178.9 183.7 187.8 190.9 196 203.3 211.6 218.6 224.9 232.5 239.3 241.6 241.3 239.3 238.9 240.5 244.4 246.9 250.6 254.9 258.8 261.9 264 263.9 262.1 262.3 263.1 265.1 267.3 268.7 272.5 276.4 280 281 278.5 274 272.8 267.4 263.6 260.1 252 239.6 231.1 225.9 223.5 221.2 220.7 221.7 221.8 220.7 222.1 223.9 224.8 225.6 226.8 227.9 230.8 232.3 235 239.3 245.3 250.3 252.6 253.1 252.7 251.3 249.2 243.9 237.2 234.8 234.3 233.8 232.7 231.3 228.6 225.8 224.4 224.5 225.7 226.1 223.5 224.6 226.3 231 234.5 238.6 243.6 249.5 255.6 259.5 266.6 272.9 275.8 275.3 275.5 274 273.2 273.6 273.8 274.8 278.3 281.7 287.1 296.2 302.9 304.6 311.7 316.1 322.8 331.2 333.2 325.8 314.6 305.7 302.8 298.4 289.4 287.2 285.5 283 280.6 280 281 281.7 282.9 280.9 275.9 275.7 273.2 272 274.7
108.1 111.3 113.9 116.8 117.9 118.8 119.7 120.8 121.9 123.4 125.4 127.4 129.2 130.9 131.4 129.2 127.3 126.4 125.8 123.6 119.3 115.8 113.1 112.2 111.7 108.9 106.9 104.9 102.6 103.2 108.6 115.6 117.5 111.4 100.7 100.3 98.3 98.1 98.4 97.1 98 98.1 98.2 98.1 100.7 102.9 105 103.8 102.9 103.3 114 119.9 115.5 114.3 115.9 118.9 122.4 125.2 127.2 129.1 134.5 140.6 148.5 151.6 155.6 160 163.9 167.3 169.8 172.1 175.2 179.2 184.8 190.5 200.1 206.7 212.7 220.9 228.9 235 235.1 233 230.5 229.4 231.8 236.1 239.7 244.2 248.7 252.9 255.8 258.8 258.5 257.5 257.4 258.2 260.7 262.2 267.4 271.8 275.4 280.3 280.6 277.9 274.7 273.1 271 267.3 262.8 254 243.1 235.3 229.2 226.4 223.8 223.5 223.8 223.9 222.8 224 225.7 227 227.3 228.3 229.8 231 232.4 234.3 238 242.5 247.5 249.9 251.5 253.3 254.1 251.4 247.2 243.2 241.2 240.8 241.5 241.7 241.6 239.7 238.1 237.3 238 239.1 240.4 240.8 240.2 239.7 241.2 243.7 245.6 248.2 248.8 248.3 256.7 261 266.3 272.6 276.4 277.2 277.7 279.6 279.8 279.8 280 280.6 281.8 284.1 288.8 294.9 302.4 311.4 320.7 331.5 339.4 340.2 331 320.7 310.3 304.1 298 293.7 291.8 291.8 290.6 289 288.4 286.8 286.8 287.2 283.5 278.4 275.9 274.3 273.2 273.4
110.4 114.9 118.8 119.7 121.5 122.2 122.9 123.5 124.2 125.3 127.4 129.8 131.7 133.2 133.3 132.1 130.5 127.9 124.7 123 119.4 116 114 113 112.9 111.4 108.9 105.1 102.5 102.8 106.1 108.3 116.1 106 100.6 99.5 97.7 97.9 98.1 96.9 98.4 98 97.9 98.8 102.2 108.7 107.2 107.6 103.3 103.5 104.7 116 117.1 117.1 118 120.6 124.2 126.7 129.4 137.8 141.5 146.3 151.2 153.2 154.5 157.1 159.1 160.7 160.7 161.6 167.4 172.5 179.5 185.9 195.1 201.8 209.3 217.5 226.7 230 229.4 225.9 220.3 217.5 222.7 227.3 232.3 236.1 238.8 242.5 246.6 250.3 249.3 248.5 247.8 249.3 251.9 255 262.8 268.2 273.5 277.5 277.5 274.4 273.3 272.3 272.2 270.1 263.8 255.2 249.4 241.9 231.8 228.5 226.3 225.5 225.6 226.2 225.5 225.7 227.7 229.6 230.3 230.7 231.8 232.9 233.9 234.9 238 241 245 249.2 252 254.9 255.4 253.1 250.3 248.7 248.1 249.6 250.9 251.4 251.4 251.5 250.5 250 250.8 252.8 254.7 255.5 255.9 256.5 252.5 252.4 251.2 253.2 255.3 257 255.9 261.5 264.7 268.8 275.3 278.7 282.9 284.9 285.7 284.9 283.4 282.8 283.1 284.4 287.5 293.3 304.8 316 325.9 335.7 341.7 343.1 333.8 322.7 312 308.4 306.2 300.5 298.7 299.2 298.3 296.4 294.8 294 294.6 290.6 285.8 279.9 277.3 275.3 273.8 273.8
117.5 120.9 123.1 124.3 124.9 125.2 125.7 126.2 127.7 130.5 133 132.9 135.2 136 135.1 132.1 129.6 126 123.5 121.6 118.1 116 114.8 114.3 113.5 111.5 108.4 104.6 101.5 102.6 105.7 106.2 106.3 99.8 99.8 97.4 97.6 98.5 98.1 97.1 98.9 99.1 99 100.3 104.6 109.8 113.2 111.3 105.6 104.2 104 104.8 109.8 118.1 119.2 121.9 124.9 127.6 134.3 141.8 145.9 152.8 152.3 152 151.3 150.6 150 148.6 151.3 155.5 161.4 166.9 171.8 181.5 189.9 198.5 207.9 217.5 224.7 224.9 222.5 217.4 210.2 205 211.8 217 221 224.2 227.2 230.4 233.1 234.6 236.6 236.1 235.3 236.4 240.6 249.7 258.2 263.7 268.8 271.7 272 271.9 271.2 271.3 273.2 269.4 263.7 258.4 252.6 245.2 234.5 230.1 228.5 227.8 227.7 228.5 228.8 228.8 230 232.2 234.1 234.2 234.1 235.1 235.9 236.8 238.6 240.3 244.1 248.4 252.5 254.2 254.6 254.6 254.1 253.8 255.3 257.2 259.6 261.4 263.4 263.6 262.7 262.1 263.5 265.3 267.6 268.7 269.4 268.5 266.6 264.2 262 259.6 259.5 261.1 260.9 259.2 264.3 267.6 272.9 280.7 287.1 288.9 289 288 286.3 285.7 285.2 286.5 290.1 294.3 298.9 311.7 321.2 328.1 336.2 336.5 328.4 320.2 313.9 311.2 310 308.1 308.4 306.8 304.4 303.7 304.8 301 299.3 295.5 290.4 283.2 278.4 276 275 274.6
123.6 126.3 127.6 129 130 130.4 130.6 133 134.5 135.2 135.2 135.9 136.5 135.1 132.6 129.6 126.7 123.7 121.8 119.2 117.2 115.1 113.6 113.8 112 109.8 106.8 103.9 101.1 100.9 103.1 100 98.3 98.3 97.7 97.3 97.1 97.1 97.5 97.2 99.5 99.6 99.9 102.4 104.8 113.3 118.8 119.3 118.7 115.8 105.7 105.5 105.7 111.5 120.6 121.9 124.8 128.3 137.4 143.9 149.2 150.9 147.8 147.6 145 143 142.2 143.8 146.7 151.3 155.8 161.8 169.7 177.3 187.6 197.7 206.5 216 220.6 219.7 216.9 211.4 202 195.1 200.9 205.1 208.8 211.1 213 215.7 217.3 221.2 222.3 223 225.3 229.3 233.7 242.6 250.7 257.2 263.7 265.3 266.2 267.5 268.8 270.9 270.7 268.1 263.7 261.6 255.6 247 237.3 232.7 230.6 230.2 230.1 230.4 230.9 230.9 233 235.4 237.2 238.3 238.8 238.3 238.8 239.4 240.7 242.4 243.9 247.9 251 253 255.3 256.7 258 258.9 261.4 266.3 269.7 272 274.9 276.6 275.4 274.5 276.9 278 280.4 281.8 282.3 282.4 279.6 276.3 275.3 274.1 271.6 267 265.2 264.3 263.8 267.5 271.9 279.7 287.6 291.2 292.2 291.3 289.3 288.5 287.9 288 289.9 292.1 295.9 303.7 315.2 321.7 326.4 329.5 329 323.8 315.9 314.3 312.8 313.1 313.9 315.1 313.3 310.6 307.1 303.9 302 301.8 294.1 285.9 281 278.1 276.4 275.2
128.3 130.2 131.4 132.6 133.7 134.5 134.9 135 136 136.2 136.5 136.3 134.3 131.7 128.7 126.1 122.7 121.2 119.8 118.1 116.3 114.3 113.1 110.9 109.7 107.5 105 102.6 100.1 99.6 98.2 97.5 96.9 96.2 96.6 96 96.2 97.4 99 98.2 100 100.4 101.3 106.4 110.4 117.7 120.1 120.3 120.6 118.6 117 105.8 106.4 107.4 113 122.3 124.3 129.7 139.4 142 142.8 144.4 139 135 134.5 134.1 134.8 137.8 142.5 146.9 151.5 157.6 165.1 172.6 184.5 195.8 203 211.4 214.3 213.6 209.5 201.8 192.3 185.4 189.1 192.2 194.2 195.7 197.7 199.9 203.1 206.4 208.1 210.7 215.5 219.4 224.2 232.6 241.7 251.5 255.1 257 258.7 261.8 265.4 266.1 265.7 264.7 265.8 262.9 258 249.4 240.8 235.5 233.2 231.8 231.1 231.7 232.5 233.5 235.3 237.9 239.8 241.5 242.4 242.2 242.6 243.1 243.1 244.8 245.5 248.2 250.9 254.2 257 259 261.8 265 269 274.4 278.6 280.8 286.6 289 288.6 289 290.1 292.7 293.9 294.1 294 294.1 291 288.8 287.1 285.9 282.4 277.5 271 268.7 264.7 268.3 271.5 277.9 285.6 289.9 292.5 293.5 292.9 291.9 291.3 291.7 292.4 293.8 296 301.2 311.5 320.5 326.2 328.1 328.2 326.7 320.3 319.4 318.5 316.2 315.1 316.9 319.2 314.1 310.3 307.6 306.1 301.5 295.4 286 281.2 279.3 278.4 277.3
131.9 133.3 134.1 135.2 136.2 136.8 137 136.7 137.1 137.1 135.4 133.7 131.6 128.9 125.6 122.4 121.3 120.1 118.3 116.7 115.3 113.5 112 108.8 105.7 105.7 103.3 100.9 99.4 98.4 98.1 97.6 95.9 96.8 96.4 97.5 96.7 97.5 98.4 99.2 100.1 101.7 107.1 116.5 116.9 119.3 119.6 117.4 116.3 117 117.9 106.5 107.3 108.1 109 120.4 123.9 126.5 128.2 132.7 134.6 133.2 128 123.8 118.3 124.5 130.1 132.9 137.9 142.5 147.2 151.7 158 166.3 179.4 188 192 196.1 195.6 196.8 193.4 188.1 181.2 173.6 176.7 177.6 176.9 180 182.5 187 189.1 192.9 197.7 204.2 209 212.4 216.2 223.3 231.1 238.1 242.4 246.2 249.8 254.3 256.3 257.4 260 263.9 264.2 263.2 259.7 254.7 247.5 239 235.2 234 233.2 233.2 234 234.9 236.9 240 242.2 243.9 245.6 246.1 246.5 246.3 245.8 246.5 248.2 249.9 251.9 254.5 257.2 261.4 265.2 270 276.3 281.8 286.2 292.4 298 299.8 300.9 301.6 302.3 302.8 302.5 302.5 304.4 303.8 300.3 298.9 297.2 294.3 290.8 284.1 277 272.4 270.2 268.9 271.7 277.4 283.5 287.9 290.8 292.7 294.2 293.9 295.1 296.7 298.4 300.3 300 301.6 307.5 313.4 318.7 323.2 326.4 327 325.1 323.4 322.3 320.1 317.3 317 317.2 317.6 314 312.5 306.6 300.8 295.4 286.6 282.9 281 280.5 280.3
134.1 135.8 136.7 137.4 137.7 138 138 138 137.2 135.7 133.3 130.9 128.8 125.9 122.3 120.9 119.3 118.5 116.8 115.1 113.5 111.2 108.4 107 103.7 103.4 101.5 100.6 98.8 98.3 98 97.8 95.9 97 96.6 97 96.8 97.5 98.5 99.1 99.4 100.3 110 117.8 118 119.5 119.3 116.4 116 116.4 117.8 119.8 108.6 108.4 108.9 109.6 124 125.3 125.1 125.6 122.2 115.8 115.8 116.4 117.1 118.2 120.4 125.7 133.5 136.7 139.3 141.9 146.3 149.5 155.3 161.1 165 169.9 170.6 171 170.1 168.2 164.9 163.2 162.3 163.2 162.5 164.5 168 171.4 177.7 183.7 190.9 196.8 201.7 205.1 208.6 212.8 216.4 221.6 227.3 232.4 239.1 243.9 246.4 250.4 255.5 259 261.1 262.2 261.2 258.4 254.4 248.1 241.5 238.1 235.4 235.4 236.1 236.6 238 240.7 243.1 245.1 248.7 251.2 251.3 250.8 250.4 249.1 250.3 252.1 253.8 255.6 259.2 264 269.2 276 282.7 288.9 294.7 300.7 305.7 308.5 310.5 311.4 312.5 312.4 311.6 313 312.4 310.9 308.6 307.3 305.6 301.9 296.8 291.9 284.6 277 274 272.7 272.1 277.1 282.3 286.7 290.1 292.6 294.9 296.7 297.9 300.6 304.7 307.3 307.8 305.5 306.6 310.9 318.9 325.9 328.4 328.7 329.7 328.2 326.6 324.4 323.9 323.4 321 319.3 317.9 311.4 305 300 293.8 288.6 285.9 284 283 282.1
135.8 137.6 138 138.2 138.5 138.6 138.2 136.8 134.7 133.2 130.9 128.8 125.8 122.4 120.8 119.4 117.5 115.9 115.1 114.6 111.7 108.1 105 102 100.7 99.1 98.9 98.9 98.6 98.1 98.1 97.4 97.1 96.7 96.8 96.8 96.9 97.5 98.5 99.1 99.3 100.3 109.9 116.8 113.9 113.9 113.7 113.1 114.6 117.3 121.9 123.5 123.5 115.9 109 110 112.8 111.8 112.1 112.5 113.2 114.4 115.2 116.6 117.3 118 118.9 120.1 124.9 127.8 132 135 135.9 139.2 142.8 145.4 148.5 150.8 150.2 151.9 152.8 153.2 155.2 156.4 156.3 159.4 163.7 167.8 171.3 173.5 174.5 176.8 182.1 188.3 193.2 198.1 201.4 204.2 207.9 211.3 216.1 224.5 230.5 236.1 240.3 245.4 249.9 253.6 258.4 260.5 260.7 261 259 256.2 249.4 242.7 238 238 238.4 238.7 239.8 241.6 244 247.7 252.2 254.5 255.6 255.1 255.5 253.3 253.6 254.3 256.6 258.7 261.1 265.7 273.6 280.5 288.4 295.4 301.1 307.8 313.3 317.1 320.2 321.7 321.4 320.5 320.7 321.3 319.4 317 315.1 313.3 310.7 307.8 302.6 297.2 291.3 283.6 278.6 277.2 275.5 277.5 281.2 285 290 294.2 296.3 300 302.2 304.5 306.8 309.6 311.6 310.7 311.5 314.3 320.4 325 327.8 330.9 333.3 333.8 333.3 329.2 326.4 325.4 325.8 325.5 319.4 308.9 302.7 299 296.5 292.8 290.1 284.5 281.2 277.8
137.1 137.6 137.1 137.7 137.9 137.8 136.4 134.7 132.5 130.5 128.9 126.6 123.5 120.6 119.4 117.8 115.7 113.7 113.2 112.6 109.2 104.8 101.3 98 98.3 98 97.7 97.9 97.8 97.6 97.8 97.9 97.7 97.2 97.1 96.7 96.8 96.4 96.8 99.1 99.2 102.6 112.3 117.6 114.7 113.4 112.9 112.9 115.1 120.6 122.6 122.5 123 123.2 116.5 111.1 112.1 112 112.2 113.5 115.2 116.7 119 121.9 122.7 121.3 119.8 119.1 120.8 121.9 122.8 131.6 132.3 135.1 138 141 142.5 143.8 145.3 146.6 148 147.8 150.9 153.6 156.8 164.7 170.3 174.6 177.6 177.9 179.8 182.3 184.4 186.1 188 191.4 196.3 199.8 203 205.1 208.8 215.6 222.8 229.3 233.3 237.6 242.4 248.4 254.2 257.4 259.5 262.3 262.5 260.3 256.1 249.5 245.4 240.7 240.3 240.8 242.3 244.1 245.9 249.9 253.5 256.5 258.8 259.4 260.2 259.3 258.8 259.3 259.2 261.5 264.4 268.6 276.7 284.5 292.8 300 307 313.9 320.2 325 328.3 328.9 329.3 329.9 330.4 330.8 327.7 325 321.7 318.8 316.2 312.1 308.7 305.5 300.5 293.5 286.5 281.4 279.4 278.8 280.5 284.2 289.1 294 299.5 303.8 308.7 312.3 314 314.9 316.5 316.3 314.6 318.8 324 323.5 327.2 337.5 340.4 339 338.4 334.3 327.5 326.4 327 327.7 319.5 306.9 304.2 301.5 299 297 292.7 283.9 280.1 274.8
136.5 135.8 136.1 136.4 136.5 135.2 133.8 132.5 131.2 129.2 127.3 124.2 121.2 119.1 116.5 113.7 111.8 111 109.7 109.7 106.6 102.5 99.2 97.3 97.2 97 97.1 97.4 97.4 97.1 97 97.4 97.3 97 97 95.8 96.1 96.1 96 97 100.6 106.8 117.5 118.7 117.8 113.3 113.1 118.7 121.7 122.9 123.7 124 123.2 119.5 114.4 114.2 118.4 119.3 119.9 121.1 121.5 123.5 124 125.7 127.4 128.5 128.4 126.3 123.4 122.9 123.6 123.9 128.3 133.1 135.3 137.4 138.6 138.5 140.4 143.8 146.7 149.3 151.8 155 163.9 175.3 180.8 186.2 190.4 191.8 187.1 187.8 189.5 191 192.9 195.7 198.3 199.8 200.1 203.1 205.8 211 218.4 223.4 227.7 232 238 244.9 250.5 252.9 258.1 261.2 264.5 264.9 262.3 256.6 251.1 244.9 243.6 244.2 245.2 246.9 247.8 250.3 253.5 257.3 261.1 263.3 263.9 264.7 265.2 265 265.1 266.6 270.6 272.2 279.8 286.6 294.6 303.4 310.7 318 324.6 329.2 332.8 334.6 337.4 339.6 341.6 340.6 336.9 332.3 327.6 325.4 324 321.7 318 315.2 309.9 302.7 294.8 285.6 283.2 282.2 280.8 284 290.2 296.3 302.6 309.5 315.3 320.1 322.3 323.9 323.8 320.6 319.7 320.5 322.9 324.4 333.7 342 343.8 345.3 344.4 338 331.3 328.4 326.3 319 309.7 304.2 303 302.4 304.7 300.9 292.9 283.6 276.5 274.2
134.2 133.3 133.6 133.9 133.4 132.5 131.2 130 129.1 127.5 125.1 122.2 119.1 116.3 112.7 110 107.8 106.8 106.7 105.9 102.9 100.9 98.1 96.7 96.5 96.4 96.6 96.8 97.1 97 97.1 97 96.9 97.4 96.9 96.1 96.2 95.8 96.2 96.8 102.5 115 119.7 119.9 120.6 121.2 121 123.1 124.5 125.1 125.9 125.7 124 121.2 115.6 117.1 121.1 122.9 124.6 125.9 127.5 128 128.1 127.8 128.3 129.1 131 130.9 131.8 126.9 124.8 124.8 126 127.1 132.2 133.3 137.9 141.3 144.1 146.8 148.7 152.2 158 163.5 174.8 185.8 191.6 196.7 201.4 203.5 202 197.9 197.7 197.6 199.4 201.2 202.9 203.2 203.5 203.7 206.7 209.2 213.9 219 223.9 229.6 235.4 240.2 244.1 249.1 256.7 261.8 266 267.1 266.2 262.2 256.8 250.1 247.9 248.8 249.4 249.7 251 253 255.4 258.7 263.8 266.2 267.7 268.9 269.7 270.7 272.3 274.6 277.1 282.4 286.9 288.4 297.6 305.7 312.8 319.6 325.1 330.4 336.5 340.2 344.4 350.5 352.3 348.8 344.9 340.9 336.5 333.9 332.1 330.3 326.5 322.7 317.1 309.8 301.9 292.7 287.2 286.2 286 289.4 294 300.5 307.6 315.6 322.8 327.9 330.2 332.3 330.6 326.7 323.5 322.1 323.3 329.4 343.6 347.5 345.7 349.8 345 339.8 334.6 328.9 322.7 313.4 306.4 303.6 302.1 301.3 301.1 297.4 289.8 282.6 277.2 275
131.7 130.9 131.7 131.9 130.8 129.7 129.1 128.4 127.4 125.6 122.8 120 117.1 112.8 110.2 107.7 105.2 104.1 104.1 102.4 100.8 98.7 96.4 96.2 96 96.2 96.4 96.7 96.9 97.1 97.3 97.3 97 96.4 97.2 96.8 96.6 95.5 95.2 100 106.5 116.3 120 120.5 121 122.3 124.4 126.2 128.9 129.5 128.6 128.4 126.1 123.2 116.5 121.8 123.3 125.4 126.7 128.3 129.3 129.5 131.3 131.2 130.6 131 131.7 132.5 131.6 129.2 126.4 125 126.5 127.1 131.1 135.8 138.4 142.3 145.7 149 153.8 159.5 166.7 174.9 186.7 196.7 203.8 209.8 212.7 214.3 214.1 211.1 208.5 207.6 207.8 207.6 208.7 209.4 212.1 212.8 214.7 214.9 214.2 217.3 221.9 227.6 233.8 236.6 238.3 249.1 256.3 262.5 266.6 268.2 268.4 266 261.2 257.1 255.5 255.2 256 256.6 256.9 256.9 258.7 262.1 267.3 269 270.5 272 273.4 276.4 279.8 282.7 284.3 289.2 293 296.6 299.6 307.1 313.6 319.7 324.5 329.7 337.5 346.7 354.5 360 360.2 356.5 352.6 349 346 343.4 340.8 338.5 335.2 330 325.2 318.5 310.6 302.7 294 292 290.8 293.3 298.8 306.7 315.9 323.8 330.5 336.1 338.8 340.9 338.7 333.1 326.2 324.3 329.3 337.1 349 342.9 340.7 338.8 337.5 338.3 332.5 326.2 319.9 310.5 305.6 302.9 301.9 301 299.9 296.2 290.3 283.1 279 276
128.1 128.7 129.2 128.9 128.7 128.6 128.6 127.2 125.7 123.6 120.8 117 113.4 110.9 108 105.5 103.5 101.8 100.7 99.9 97.7 96.1 95.8 95.7 95.9 96.1 96.4 96.6 96.8 97 97.2 97.3 96.7 96.1 96.2 96.6 96.2 96.2 95.3 102 110.8 117.5 119.3 121.3 121.3 122.9 129.4 137.2 144.8 145 141.5 132.8 129 125.4 119.7 125 126.7 129 130.5 130.9 131.8 132.5 134.1 135.4 135.1 134.3 133.9 134.4 133.5 132.1 130.9 130.4 131.3 128.5 128.7 132.5 138.3 142.7 148.9 156.9 164.5 170.4 177 191.5 200.7 208.7 215.3 220.7 224.5 225.5 225.2 224.8 223.9 222.2 220.8 219.9 218.4 217.7 221.8 225.9 226.7 226.1 224.7 223.6 224.7 226.7 229.6 233.7 242 248.7 255.9 261.6 266 269.9 271.1 269.8 266.8 264.4 262.2 260.9 261.2 262.3 264.3 264.8 264.7 267.5 270.5 272.6 274.1 275.9 278.5 281.5 285.1 289.1 292.1 295.3 298.8 303.9 306 309.7 315.3 320 326.3 334.8 343.2 353.6 363.1 365.4 365.9 365.9 364.5 360.7 353.7 351.4 349.9 347.9 346.5 341.6 333.2 325.8 318.1 309.9 300.5 297.2 298 302.5 307.5 316.4 325.3 332.7 340.3 343.4 346.5 349.4 344.4 338.1 332.9 331.3 336.4 348.8 345.8 337.7 331.8 330.2 331.1 331.9 329.8 323.4 318.9 314.6 306.2 302.1 301.4 301.5 302.6 302.7 298.1 288.7 281.1 277
126 126.1 126 126.4 127.5 127.9 128.3 127.1 125.1 122.2 119.1 115.1 111.7 108.9 105.9 104 101.6 99.2 98 96.8 96.1 95.9 95.5 95.6 95.8 96.1 96.3 96.5 96.7 97 97.2 97 96.4 96 96 96.1 96 96.2 95.8 101.6 112.5 117.1 118.7 120.2 122.7 130.7 142.7 152.1 160.5 161 155.6 146.3 132.2 126.8 121.9 125.3 129.9 132.2 134.1 135.4 136.6 137.7 139.2 140.8 140.1 138.6 136.9 137 136.1 135 135.4 134.9 134 132.7 130.9 130.1 137.4 142.7 151.4 160.7 169.2 178.2 187.4 200 209.3 216.6 223.7 229.5 234.2 236 236.6 236.9 235.3 235.1 234.5 233.4 230.9 229.5 230.8 235.8 237.4 238.2 237.6 237.1 236.7 237.4 237.3 241.1 244 251.6 257.9 261.4 264.7 270.2 273.9 274.3 272.6 270 268 266.6 267.4 269.1 270.4 270.7 270.9 271.7 273.9 276 278.4 281.1 283.8 288.4 293.2 298 302.1 304.4 306.3 310.2 313.2 315.6 320.3 324.7 333 344.3 358 366.1 373.8 374.2 373.9 374.5 374.1 371.2 365 361 358 356 357.5 352.1 343.8 334.2 324.6 315.6 306.9 304.3 307 311.9 318.2 327.7 334.3 340.6 345.8 348.9 350.6 350.8 348.8 343 338.5 338.9 346.2 350.7 341.5 333 329.3 329.5 329.7 331.3 329.5 328 326.1 322.3 315.5 303.7 301.8 301.1 302.2 305.2 303.5 294.1 285.5 279.5
122.7 123.9 124.6 127.1 128.2 128.7 128.4 126.8 124.5 121.3 118.2 114.3 110.1 106.6 103.7 101.2 98.4 96.7 95.9 95.8 95.8 95.6 95.3 95.5 95.8 95.9 96.2 96.4 96.7 96.9 97.1 96.6 96.1 95.8 95.6 95.7 95.9 96.2 95.4 100.6 105.7 116.6 118.8 122 129.9 142.9 154 165.1 171.4 171.3 165.7 156 140.4 129.2 124.5 128.1 132.9 135.7 137.6 139 141.3 143.5 146.3 145.9 145.2 143.2 140.9 139.2 138.4 137.7 136.5 135.8 136 135.5 134.5 132 133.1 141.5 147.5 159 167.9 176.2 185.3 200.1 213.9 221.4 228.6 234.9 239.2 241.3 243.1 244.3 244.2 243.4 242.6 241.1 240.8 240.3 241.6 244 245.1 244.4 247.2 246.9 246.8 247.4 248.4 249.9 253 258.1 261.8 264 270 274.8 277.2 277.5 277.8 276.2 274.2 273.7 275 276.3 275.4 275.1 275.8 276.6 278.9 280.6 283.4 286.2 290.4 296.9 303 307.2 311.3 315.2 316.9 317.4 320.5 324 329.5 336.4 346.5 359.1 371.9 381.9 384.2 383.8 382.8 381.6 380.1 379 374.7 371.1 367.9 365.2 364.7 361.3 352.2 341.7 329.8 321 313.9 311.8 316.1 322.4 328.8 334.7 339.6 344.7 349 353.6 352.6 350.5 348.2 344 340.7 343 348.3 345.5 338.3 329.5 329 328.6 328.8 330.3 334.3 334.3 332.2 328.1 319.3 309.3 303.3 300 299.8 302.5 304.3 298.4 289.2 282.4
122.6 124.6 126.4 128 128.9 128.6 128.3 126.6 123.5 120.4 117.3 113.6 109 106.1 102.4 97.4 96.6 95.7 95.6 95.6 95.5 95.4 95.2 95.4 95.8 96 95.9 96.2 96.5 96.8 96.7 96.2 95.7 95.6 95.6 95.7 96 95.6 96.1 97.7 101.1 110 119.6 126.3 140.5 153.1 165.9 176.2 181.2 179.3 172 161.6 145.6 131.5 126.8 131 136.3 138.4 140.3 142.1 144.8 149.1 151.6 151.5 151.1 149 145.8 143.2 142.7 142.9 139.7 137.3 138.4 139.1 138.3 135.5 131.5 139.3 145.9 152.7 161.5 172.1 183.8 199.3 212.5 223.9 231.9 237.5 241.3 243.4 245.1 248.1 248.9 248.9 248.9 248.8 248.1 248 248.8 249.8 250.5 250.6 254 255.4 256.1 256.5 256.3 258.2 261 263.8 265.6 269.4 274.1 277.9 280.6 280.9 281.2 281.3 279.8 279.9 281 281.2 280.6 279 279 281.1 283.2 285 288.2 291.7 298 304.8 310.7 315.2 318.9 322.3 325.2 328.4 328.9 332.3 337.5 345.4 354.7 365.7 376.1 382.9 388.9 391.9 391.4 388 387.3 385.5 382.9 381.4 379.2 376 372.3 368.1 359.4 348.2 337 326 320.1 318.8 322.3 330.8 336.8 340.7 344.3 349.4 351.3 353 351.1 348.8 345.4 342.4 339.1 340.4 344.3 336.8 332 330 329 328.4 327.7 329.7 333.6 335 332.2 327.2 318.3 312.1 302.2 297.1 296.5 298 302 298.4 289.9 281.4
123 125.2 127 127.8 128.7 128.5 128.2 126.3 122.5 119.4 116.3 111.9 107.1 104.1 100.2 96 95.7 95.5 95.3 95.3 95.3 95.1 95.1 95.4 95.8 96.1 95.9 95.8 96.1 96.2 96.2 96.2 95.6 95.6 95.6 95.7 96.1 95.6 96.4 96.3 100.9 110.4 122.1 134.1 150.8 164.4 177.1 188.4 189.9 183.8 174 162.6 149 135.1 127.9 134 138.3 140.9 144 145.9 150.4 154.1 156.9 158.8 158.5 158.2 155.1 152 152 152.5 149 144.2 142.6 142.4 141.4 139.7 133.1 133.4 144.7 149.2 158.3 168.7 178.4 190.7 208 221.3 229.3 234.3 239 243.3 246.6 249.4 251.3 251.9 252.4 252.3 252.1 252 252.4 253.7 254.9 256.4 258.7 259.9 260.7 261.6 262.7 263.9 266.1 268.5 270.9 273.4 276.6 280.1 281.7 282.9 283.4 284.3 284.7 284.7 285.7 284.9 284 281.8 281.8 284.2 286.6 289 292.6 298.1 303.8 311.7 317.7 323.3 327.1 330.8 334.2 337.4 339.9 341.2 344.6 352.5 362.1 368.4 378.1 386 394.2 397.3 396.8 394.6 393.3 391.6 391.2 390 389 387.6 381.8 374 365.6 354.7 344.2 334.2 327.3 327.8 333.2 339.4 344 346.8 350 354 353.1 353.2 350.7 346.7 343.5 340.4 337.5 335.3 335.7 333.1 329.4 328.5 328.1 326.1 326.8 328.5 330.4 329.2 324.8 320.2 314.9 308.6 301.8 296.4 295.1 294.2 293.8 292.8 290.5 284.4
123.6 125.5 127.3 128.1 129.2 128.5 128.1 126 121.4 118.3 114.6 110.3 105.6 101 97.2 96 95.2 95.4 95 95 95 94.9 95.1 95.4 95.8 96.1 96 95.7 96 95.7 95.8 96 95.6 95.6 95.6 95.5 94.8 95.5 99 96.7 102.3 116.8 126.7 141.1 159 173.1 186.3 192.7 191.1 182.1 172.5 162.1 151.5 138.7 133.9 132.7 140 143 145.7 149.2 153.3 157.2 160.8 164.9 168.3 169.7 167.6 166.9 162.8 161.1 157.6 152.8 148.5 145.8 143.8 141.6 136.4 134.1 135.8 144.2 151.5 160.4 168.4 180.5 197.2 208.4 218.9 226.9 233.5 238.2 242.2 246.1 249 250.6 251.9 252.6 252.8 253.7 254.2 255 256.3 257.3 260.3 261 262.6 264.3 265 267.3 269.1 270.8 273 275.4 278.2 280.4 281.1 282.2 283.4 284.1 284.8 286.3 286.5 286.1 283.9 280.3 282.9 286.6 289.1 292.9 297.4 302.7 309.8 318.2 325.5 332 336.3 340.6 344.7 347.1 349.9 354.5 361.2 366.6 369.1 378.1 386.2 394.5 399.9 401 400.6 400.9 399.2 398.6 397.7 397.1 395.8 393.9 388.5 379.2 370.1 360.2 350.6 342.5 335.1 336.9 342.7 348.1 351.6 352.9 354.1 353.7 352.5 352.2 350.1 346.5 342 338.8 333.3 331.6 330.7 329 326 324.7 322.9 323.7 325.2 326.8 326 320 314.9 313.1 310.1 305.2 299.2 295.6 293.2 292.3 292.1 292.2 290.7 286.5
123.8 125.7 127.5 128.6 129.8 128.9 128.4 125.8 120.5 116.8 112.8 108.5 102.7 98.3 95.3 95.1 95.7 96.6 95 94.7 94.7 94.7 95.1 95.5 95.8 96.2 95.8 95.4 95.5 95.3 95.4 95.4 95.5 95.6 95.6 95.3 95.1 97.1 96.4 104.1 112.8 123.2 130.7 145.1 162.8 175.6 186.8 191.4 184.6 175.9 168.4 162.4 154.5 143.7 137.2 132.3 142.1 144.1 147.4 151.5 155.7 159.8 165.5 172.2 177.4 179.1 178 176.6 171.2 164.3 159.8 156.3 152.3 148.6 146 143.7 141 139.7 135.9 135.8 136.4 146.1 156 165.9 177.5 189.6 198.9 208.8 220.2 229 234.8 239.1 242.6 245.7 247.9 248.9 249.8 250.6 251.6 252.7 255.1 257.2 258.6 261.3 262.6 264.9 265.2 267.4 268.9 270.5 273.1 275.2 276.9 278.1 279.2 280.4 280.8 282.2 283.3 283.6 283.4 282.3 278.2 279.5 284.3 288 291.7 295.7 299.8 306.8 314.5 323.3 330.8 336.8 343.7 349.4 354 355.5 362.4 368.4 371.2 376.2 380.8 388.8 392.7 397.5 402.3 405.4 405.9 406.6 404.7 403.8 403 403.5 398.2 395.4 391.3 384.6 375.1 364.9 356.9 349.3 343.1 346.7 352.1 355.8 358 358 356.8 355.2 353.4 350.8 348.9 346.2 341.7 336 330.9 328 326.5 324.9 323.1 322 320.8 318.1 317.7 314.7 310.6 307.1 302.5 301.3 299.7 294.9 288.8 286.5 284.1 285 288.3 288.8 289 285.7
124 125.8 127.9 129.2 130.4 130.1 128.6 125.4 118.9 114.7 111 106 99.2 96.1 94.8 94.9 95.1 95.1 94.9 94.5 94.6 94.6 95 95.3 95.1 95.4 95.5 95.1 94.9 95.2 95.2 95.4 95.5 95.6 95.2 94.2 97.5 98.2 103.8 112.8 116.5 123.8 132.5 145.8 159.7 172.6 180.3 180.1 174 168.7 165.4 160.2 155 146.4 142.1 137.5 139.4 144.4 149 153.1 157.2 164.2 172.9 180.9 184 186.7 186 181 174.6 165.5 161.7 157.1 153.3 150.6 148.3 146.4 145.3 144.1 141.4 140.6 137.8 137.8 139.2 148.5 158.1 166.6 174.9 186.4 201.2 213.2 222.1 229.6 234.5 237.9 240.7 242.2 243.5 244 245.4 247.2 249.9 252.6 254.6 257.6 260.6 261 262.6 265.1 266.9 268.6 270.3 271.5 272.3 273.1 273.5 273.6 274.8 275.3 276.3 276.9 275.3 273.5 274.9 278.9 283.5 288.3 292.8 297.4 302.6 309.4 317.7 326.6 334.9 341.5 348.4 354.6 359.2 366.2 373.3 376.6 380.1 383.8 389 394.1 398.2 401.7 405.7 408.6 410.4 410.3 410.1 408.8 408 406.7 402.7 400 397.2 389.4 380.3 371.8 363.4 357 354.8 356.7 360.7 361.2 362.6 361 359 356.3 354.6 351.8 348.9 345.1 339.8 333.2 328.4 326.3 325.3 323.9 323.3 323 322.8 318.1 311.5 302.6 298.9 295.8 293.1 288.1 283.6 278.2 271.8 269.1 268.9 271.1 275.4 279.3 283.3 281.8
125.2 126.5 128.4 129.5 130.9 131.3 128.8 123.8 116.9 112.3 109.4 104.8 98.5 96 94.9 94.1 94.1 94.6 94.6 94.4 94.5 94.5 94.9 95.3 95.3 94.7 94.6 94.6 95.3 95.4 95.2 95.4 95.4 95.6 94.8 100.5 107.8 112.5 117.9 120 121.7 123.2 134 144.1 154 165.1 169 167.8 165.5 163.4 161.3 159.4 156.7 153 146.1 140.6 140.4 143.9 149.4 154.1 160.9 166.7 176.4 184.6 189.7 191.8 191.8 187 180.5 170.3 161.9 158 155 153.4 150.7 148.9 147.1 146.4 144.8 145.6 144.9 144 141 139.9 142.6 152.2 160.1 168.9 181.6 195.3 208.1 218.3 224.2 227.3 230.3 232.9 234.4 235.9 238.5 241.3 244 246.7 248.4 250.7 252.7 255.1 258.3 260.9 263.5 264.8 265 265.4 265.7 265.1 264 264.6 265.4 266.6 268.2 268 269.6 272.6 275.3 278.8 282.6 287.2 292.7 298.4 304.4 312.8 321.1 329.3 340.6 347.8 355.2 362.9 367.7 373.8 377.8 381.1 385.5 389.6 394.9 400.5 404.2 407 409.3 410.9 411.3 410.9 412.4 412.4 411.8 408 406.5 406.1 402.5 393.2 386.4 381.5 374.2 368.9 367.4 368 368.3 368.3 366.5 363.5 360.2 359.1 358.2 354 348.5 342.7 337.3 332.3 329.7 327.7 327.1 325.7 324.5 324.1 323.7 323.7 321.1 314.2 306 299.9 294.8 290.2 284.7 282.8 279.2 274.3 265.5 258.7 259.7 268 271.6 272.1
126.3 127.4 129 130.4 131.1 130.7 126.9 120.3 114.1 110.2 107.4 103 97.4 96 95.2 94.4 93.9 94.2 94.4 94.2 94.3 94.4 94.8 95.3 95.1 94.7 94.4 94.1 94.4 94.6 95.2 95.4 95 95.1 104.4 114.9 118.1 121.4 124.2 126.8 126.8 127.4 130.4 140.2 148.9 155.5 157.7 159.5 159.3 158.9 161.2 163.1 162.5 159.1 148.5 144.8 140.3 144.1 149.7 154.2 159.2 167.6 174.3 181 187.1 192.1 193.7 192.1 188.3 180 172.5 162.2 157 156.8 153.6 152.1 149.9 148.4 148.2 148.2 147.9 147.3 145.1 142.7 142 142.1 149.2 157.7 167.2 176.5 189.9 203.7 211 214.6 219.5 222.8 224.9 227.7 230.7 233.8 236.6 238.9 241 242.5 244.8 247.8 251.2 253.5 255.8 256.3 256 256.1 256 255.9 254.9 252.4 255.2 259 261.9 265.3 267.4 270.7 274.3 277.1 281.7 286.8 292.4 298.2 305.6 314.3 322.1 333 343.3 351.3 360.6 370.5 379.1 384.9 386.2 388.4 391.6 394.1 397.9 403.9 405.1 408.7 410.2 409.8 409.5 410.8 413.1 414.2 412.1 408.8 407.3 406.8 402.2 396.6 393.7 390.5 385.7 380.7 376.9 374.4 374.5 375.1 370.6 366.7 364.4 363.2 362.3 354.6 347.3 341.5 337.4 334.2 331.3 329.2 329.1 326.9 324.8 324.6 325 325.9 326.6 324.4 317.1 310.1 305.4 301.6 298.9 293.8 290.1 284.5 278.1 268.3 257.9 249.1 255 259.9
125.6 128.3 129.8 130.5 130.2 129 123 116.1 111.1 108.4 105.1 101.2 97.5 96.1 94.7 94.2 94.2 93.7 94.1 94 94.2 94.3 94.8 95.1 94.9 94.8 94.4 94.9 95.5 94.3 94.9 97.6 101.2 108 114.9 121.8 126.6 133.1 137.6 141.4 134.5 134.2 135.8 137.2 141.9 147.9 151.3 153 157.2 161.8 165.3 166.6 167.6 163.6 153.8 148.1 144.8 144.5 149.1 152.6 156.8 161.8 167.2 174.5 181.3 187.4 192.4 194.8 194.2 186.7 176.9 170.2 162.4 158.7 157 155.1 152.9 150.8 151 150.1 149.5 149.1 148.5 145.8 144.4 143.7 144.8 148.6 156.2 162.1 170.5 181.9 190.8 201 206.6 210.7 217.2 219.3 222.1 224.6 227.5 230.1 231.8 234.5 236.4 238.9 242.4 244.3 244.8 245.7 246.2 246.8 246.8 246.1 245.2 248.1 253 256.9 260.5 262.5 264.1 268.8 272.5 277.7 282.1 286.5 291.9 297.5 305.1 313.1 323.9 333.6 342.4 352.9 364.3 375.1 382.3 387.6 392.1 394.8 396 397.8 399.7 403.5 405 407.7 407.9 408 408.6 410.2 412.1 412.5 410.7 409 408.2 408.4 405.4 402.2 399.7 399.9 398.3 391.7 384.8 381.9 380.9 378.6 374.2 370.8 368.7 367.4 362.4 357.3 352.4 345.8 341 337.4 334.6 331.2 330.6 327.4 325.3 324.9 325.7 326.7 327.7 327.6 324.3 321.4 318.5 313.1 309.6 305.7 301.5 296.7 291 283.3 273.2 259.5 246.3 241.3
123.6 126.9 129 130 127.1 124.3 118.3 111.4 107.3 105.1 102.3 100.7 97.5 95 94.4 93.8 94.3 94 93.8 93.8 94.2 93.9 94.5 94.8 94.6 94.5 94.6 95 95.3 98 103.4 106.9 112.8 119.3 125.6 131.4 137.6 145.8 152.6 155.7 150.2 147.6 142.1 142.2 141.1 145.4 149.2 152.6 159 164.1 167.2 168.9 169.4 167.4 159.8 151.5 148.2 145.3 148.7 151.7 155.8 158.7 162.8 167.7 175.3 182.6 189.4 195.1 196.9 189.3 180.6 173.2 168.9 162.7 159 157.5 155.8 154.3 153.7 152.3 151.6 150.9 150.3 148.9 147.4 145.5 145 143.9 146.9 154.2 161 168.3 177.6 186.9 193.8 200.4 204.9 208 212 215 218.1 220.8 222.6 224.8 225.8 226.6 230.9 231.8 233 234.5 236.2 236.8 236.2 238.4 241.1 244.2 249.3 253.5 255 260.6 265.7 268.7 271.9 276.4 281.5 286.5 291.6 296.8 303.8 314.1 324.1 333 343.9 352.6 362.8 373.6 380.9 387.1 391.7 394.9 397.5 400.3 402.1 402.7 404.3 406 406.5 406.9 408.4 411 412.4 412.8 410 409.3 409.7 410.7 410.2 407.7 405.3 404.8 402.7 397.5 390.3 385.6 383.3 380.1 376.6 372.9 370.9 367.7 364.8 362.3 358.7 352.2 343.6 339.2 335.3 332.8 333.4 330.7 326.7 326.9 328 328 328.7 329.2 329.5 327.9 325.6 322.1 319.8 314.9 310.2 306.5 301.2 294.3 285.1 275 259.2 244.7
122.6 123.5 123 123.4 122.6 117.9 111.9 107.6 104.5 101.9 100.2 99.9 96.6 94.6 94.1 93.5 93 94 93.6 93.5 93.9 93.7 94.2 93.8 93.4 94 94.8 94.9 96.8 105 110.8 115.9 121.2 127.7 134.9 142.7 152.2 161.4 167.1 170.9 167.3 160 150.4 152.2 150.4 151.2 156.2 160 165.4 167.5 170.4 171.8 171.6 170.4 164.6 155.3 151.1 148.9 148.2 151 154.3 157.4 160.6 165.5 172.8 179.3 187 192.8 193.4 188.3 182.2 176.4 170.5 165.2 161.5 160.7 159.6 158.6 157.4 155.7 153.7 152.8 152.4 150.7 148.8 147.9 148.7 147.1 146.1 148.4 156.6 162.4 167.2 177 183.7 188.4 193.3 198 200.9 204.6 207.6 207.6 210 212 213.4 216.8 218.7 222 223.4 224.2 226.6 229.6 231.6 233.3 236 239.4 243.5 247.4 254.3 260.2 263.8 267 270.3 274.7 280.2 285.8 290.7 295.9 302.8 313.7 323.3 333.6 344.2 352.9 361.7 370.4 378.9 386.6 391.8 396.6 400.1 401.3 401.2 401 401.2 403.2 404.8 407.7 409.9 411.9 412.7 411 408.6 409.2 410.2 411.1 411.2 410.9 409.6 407.4 403.8 398.1 392.6 387.4 383.4 379.8 377.1 373.1 370.3 368.5 366.8 363.8 359.6 352.2 344.6 339.7 336.2 334.7 335.8 335.6 329.6 329.6 331.7 332.9 333.5 332.5 331.4 329.6 327.2 325.2 323.2 320 315.1 309.5 304.1 300.9 293.4 283.1 268 248.4
119.9 120.5 120.2 119.5 116 111.8 107.9 105.6 102.4 100.4 98.3 97.4 94.3 93.8 93.4 93 92.6 93.6 93.5 93.4 93.4 92.8 94.4 94.2 93.8 93.9 95.8 102.1 108.4 115.7 120.3 123.1 127.9 135.5 141.7 154.7 163.5 171.5 178.7 180.2 175.5 166.4 158.2 158.4 160.3 159.9 162.1 165.8 169.3 172.1 174.9 176.2 177.9 175.1 169.8 161.4 153.7 151.5 148.7 150.7 153.1 156.1 159.1 163.5 169.3 175.2 179.7 184.5 186.4 186.6 183.9 177.5 171.4 167.2 165.4 163.9 162.6 160.9 159.5 158.2 157.3 155.2 154 152.7 150.2 150.1 151.3 149.1 148.2 149.3 154.9 159.4 164.3 170.5 177.4 182.5 186.8 190.3 193.2 195.6 198.4 200.2 203.5 205.7 207.2 209 211.9 213.6 216.4 219 221.3 224.8 225.5 231.3 236.2 240.7 245.7 251.5 255.3 258.8 262.8 266.9 270.9 274.8 279.1 284.1 289.1 294.9 302.2 312.9 323.2 331.7 339.4 347 356.4 366.5 379 388.5 394.3 398.4 400.2 401.5 400.9 400.2 401 402.8 405.6 408.8 410.3 409.3 406.3 406.6 408.5 410.1 411 412.5 412.4 410.8 409.1 407.3 401.7 395.8 392 386.6 382.1 378.9 376.2 373.9 370 367.5 365.5 362.4 359.2 354 348.2 342.1 339.7 340 339.1 334.8 332.3 332.2 334.7 338.2 337.6 333.4 331.6 329.4 327.8 325.5 322 318.9 316.1 311.2 306.1 301.7 295.3 285.5 267 247.4
117.3 118.3 115.7 113 109.8 106.9 104.3 103.3 102.6 102.1 96.8 93.2 93.7 93.5 93.4 93.3 93.2 94.1 93.3 93.5 93.8 94.4 94.5 93.7 93 103.7 105.8 110.6 115.9 121.3 125.3 128.4 134.8 141.4 154.1 164.1 171.9 179.9 186.3 184 177.9 170.4 163.9 165.4 166.7 167.9 169.9 172.5 175.6 179.3 181.5 184 183.2 179.2 172.8 165 155.7 153.3 150.1 151.5 152.8 156 158.6 161.3 164.1 169 174 179.2 183.7 185.8 181.8 174.6 172.4 169.7 168.4 166.3 164.5 162.8 161.5 160.3 159.1 158.3 156.5 155.1 152.1 151.7 152.7 151.5 149.4 148.9 153.6 157.6 161.3 166.8 173.1 176.9 182.3 186 186.6 188 191.9 194.6 197.6 200 201.7 202.7 204.1 204.1 205.1 210.3 215.3 219.8 225.8 230.1 235.6 240.2 243.8 246.6 247 251.7 259.3 266.2 270.9 275.7 279 282.7 288.1 294 301.9 312.6 320.3 327.7 336.6 346.2 357.6 367.5 378.8 388.1 394.4 397.8 399.8 400.2 397.1 397.2 397.8 398.7 399.6 399.1 398.1 398.3 399.3 402.7 406.4 408.5 410 411.3 411.1 409.1 407.4 406 400.2 395 390.5 385 381.8 378.6 376.2 373.1 368.4 365.6 362.8 359.6 356.9 353.4 349.1 344 340.6 340.8 339 338 337.3 337.1 336.8 337.9 336.6 334.3 331.1 329.1 326.1 323.3 320 316.6 314.8 312.3 307.3 299.8 292.8 281.5 261.1 239.2
114.3 115 109.3 107.2 104.5 104 103.3 104 103.5 103 97.9 93.4 93.7 93.6 93.9 94.1 94.3 94.2 94.4 95.3 94.4 94.3 93.9 93 107.4 110.8 113.7 116.7 121.5 124.9 128.9 135.1 142.3 152.6 162.6 169.8 177.4 184.6 186.5 184.4 179.4 175 170 171.1 172.1 173.8 176.2 179.4 182.2 185.3 187.3 188.6 187.3 184.3 178.1 169.7 159.4 154.7 152 152.1 152.8 156.5 158.5 161 163.7 166.9 172.4 176.7 180.5 182.8 178.1 175.7 173.8 171.9 170.1 168 166.2 164.7 163.5 162.8 161.6 160.4 159.4 156.8 154.6 153.4 154.8 154.5 152 150.1 152.8 156.4 159.1 164.5 168.5 171.2 174.8 176.4 180.2 183.9 187.8 190 192.6 194.9 196.7 198.2 195.2 202.1 204.4 210 213.2 216.8 221.7 227 231.4 233.8 232 238.3 248.1 250.5 249.3 256.2 264.2 267.6 276.1 281.5 286.7 292.5 300.8 309.6 317 326.3 336.3 345.2 353.8 363.6 372.6 381.6 387.8 392.7 391.7 391.7 392.3 393.4 394.1 392.5 392.9 392.2 391.5 389.7 391.1 394.9 398.3 403.3 406.3 408.2 408 406.4 404.2 402.5 398.3 395 390.3 385.9 382.8 379.7 375.4 370.7 366.8 363.2 359.2 355.7 353.8 350.9 347.9 345.5 342.2 342.5 344.3 344.4 343.7 340.2 338.5 337.3 336.2 334 329.3 326.6 323.7 319.7 314.9 311 310.1 307.9 302 295.9 290.2 277.6 253.4 233.6
108.1 108.5 104.8 104.5 104.5 104.7 103.7 105.2 103.2 103.4 95.3 93.7 93.4 93.2 93.4 93.8 94.2 95.2 95.2 95.5 94.6 93.2 99.2 108.8 110.8 115.1 118.7 122.3 125.2 128.7 135.2 143.7 149.9 159.7 167.1 174.1 181.2 184.8 185.8 184.5 181.9 178.1 175.9 175.3 177 178.7 181.6 184.3 187.7 189.8 191.8 191.8 191.3 187.6 182.4 174.4 165.5 156.6 153.8 151.3 154.6 157.7 159.8 161.9 164.1 167.2 170.7 174.8 176.5 177.1 177.4 176 174.5 173.7 172.7 170.7 168.9 167.6 166.4 165.1 164.1 162.8 161.4 159.2 158 156.7 157.2 157.2 155.6 152 153.6 155.9 157.8 161.1 164.8 167.8 170.6 172.9 176.3 179.4 181 182.4 184.4 187.1 190.3 197.3 204.1 209.4 211.6 211 212.4 218.2 219.2 223.9 225.5 230.6 240.3 247.7 254.6 258.9 262.9 267.2 267.4 273.1 274.8 274.7 285.5 290.6 298.4 305.4 312.3 321.4 328.9 337.2 346.9 356.8 364.5 370 377.3 384.3 386.6 388 387.6 386.8 386.9 386.8 386 385.9 385.5 386.8 389.3 392.3 395.5 401.3 404.1 403.9 403.6 402 400.4 398.8 396.1 393.2 389.9 387.3 383.6 378.4 374.2 369.8 366.6 360.8 354.2 351.7 349.8 348 345.4 344.7 342.9 347.6 347.3 345.6 342.8 340.8 339.4 337.1 335.8 332.5 325.7 321.2 317.1 311.5 307 304.4 302.4 299.7 296.9 292.6 284.3 270.8 243.3 232.7
102.9 103.2 104.7 105.4 105.1 106.3 107.5 105.7 102.2 96.1 92.4 92.7 93.4 93.1 93.1 93.7 94.1 94.2 94.3 93.4 94.4 105.3 109.9 112.3 115.5 120.4 124.3 127.8 130.9 135.1 145.3 149.2 155.3 163.1 169.8 175.9 180.9 184.2 184.8 185.1 183.3 181.8 179.9 179.3 180.6 182.7 185.4 188.6 191.9 193.3 195.1 196.1 194.6 190.3 184.9 178 169.6 160.7 156.8 155.5 155.8 158.8 160.8 163.2 165.2 167.6 170.6 173.1 175.6 176.8 177.5 176.9 176.5 176.3 175.1 173.9 172.9 171.8 169.6 168.6 167.1 165.8 164 161.8 160 160.5 160.6 159.3 158.2 155.9 152.4 156.1 157.5 159.3 161.7 165.4 168.5 170.8 171.4 175.8 180.1 187.6 192.3 196.4 197.7 200.4 203.1 206.8 212.9 217.9 221.8 226.1 229.7 234.3 237.2 242.7 246.8 252.5 257.6 261.8 265.9 270 273.2 275.9 278.5 284.3 287.7 293.5 299.1 302.4 309.2 317.7 323.4 330.3 338.9 346.6 355 361.5 368.7 375.3 379.9 382.2 382.3 382.7 383.8 383.8 383 382 381.5 382.1 384.4 389.8 393.7 393.3 395.2 395.2 396.1 396.7 396.1 395.4 395.2 392.2 389.9 386.5 382.3 377.3 372.8 368.6 364.2 356.6 349.2 345.2 343.9 343.5 343.8 343.2 345.6 347 346.7 345.6 342.8 340.8 340.4 337.2 333.6 330.4 326.2 319.3 314 310.5 309.3 305.3 298.3 291.6 288.9 285.6 271.5 260.8 240.8 230.9
