ncols 200
nrows 83
xllcorner 260000
yllcorner 231150
cellsize 50
181.6 176.8 171.5 167.4 162.7 157.5 154.1 152.5 150.7 149.2 148.5 147.6 146.6 147.1 148.9 151.5 149.3 145.9 145.5 144.2 146.3 150.4 157.6 160.9 162.5 167.1 174.5 180.9 187.7 193.2 195.7 196 195.7 195.9 194.5 192.6 189 184.9 181.3 178.3 175.8 173.8 173.7 175.2 177.7 179.9 185.2 191.3 197.6 195.9 181.2 162.1 148.3 138.1 131.5 131.5 136.5 137.3 134.8 132 129 124.4 119.8 115.8 112.7 108.4 104.8 102.1 99.7 99.2 99.5 99.7 99.8 100 100.1 99.9 98.8 94.1 94.4 94.6 94.2 92.6 94.7 96.8 97.5 98.4 99.8 102.1 104.3 104.3 105.8 106.6 114.8 117.2 118.9 121.3 122.1 124.4 125.9 127.6 129.6 131.4 132.6 136.1 139.7 142.5 145.3 148.7 151.8 154.5 157.1 160 163.2 165.5 168.1 170.8 173.4 176.8 180.5 184 191.7 200.3 211.5 223.6 234.8 245.4 253.7 261.4 267.8 273.7 279 284 289.6 295.3 300.2 303 305.4 307.7 309 308.9 304.8 300.3 295.3 291.3 290.7 290.7 291.6 290.8 290.2 290.2 290.8 294.8 290.9 288 284.1 276.8 270.7 270.1 271.5 273.2 274.2 276.2 282 290.7 297.2 303.2 308.5 313.9 319.4 324.3 325.1 320.8 319.7 319.8 332.5 335.5 331.7 318.2 308.5 300.7 286.9 270.3 255.4 237.4 221.1 206.7 211.7 216.1 219.2 218.1 216.6 214.7 211.1 206.3 199.8 192.3 187.3 182.4 177.4 165.1
175.7 170 166.1 161.4 157.8 155.6 155.8 155.2 152.9 152.7 153.6 155.5 157.1 157.1 156.2 154.4 152.1 150.9 152.5 148.2 148.6 156.2 161.2 164.3 167.8 176.2 183.5 190.4 197.2 201.6 203.7 204.1 204 204.5 204.5 200.2 195.6 191.4 188.4 185.8 184.4 186 185.8 188.2 191.4 194.2 199.7 206.8 207.6 202.7 184.8 164.6 148.5 139.9 131.2 124.7 130.1 128.5 126.6 123.7 118.8 114.5 112.1 109.5 107.7 103.4 99.8 96.5 96.2 95.8 95.7 96 96.6 96.7 96 98 94.2 93.7 93.9 93.2 93.2 94 96.2 97.1 97.8 98.5 101 103.7 106 108.4 110.1 109.4 110.5 115.2 117.2 118.9 122.2 124.5 126.7 128.5 130.5 132.5 134.5 136.6 140.5 143.3 145.9 149 152 154.8 157.3 160 163.8 165.7 167.7 170.8 173.7 176.1 179.7 183.3 191.1 200.1 210.3 220.3 229.5 237.8 244.9 251.4 257.5 263.3 269.6 275.9 283.8 290.1 295.5 300.1 303.7 305.6 306.6 306.1 304.8 299.7 294.6 288.6 284.9 284.1 285.1 284.1 283.3 284.6 281.9 283.5 280.7 275.3 267.7 263.8 263.6 264.9 267.9 268 268.7 272.2 279.7 288.1 293.7 299.8 306.6 312 317.7 319.7 323.4 320.9 320.2 324.7 332 334.5 328.6 316.3 309.6 304.2 294.4 285.7 273.3 260.9 237.3 226.4 236.6 242.7 245.2 244.1 242.2 235.5 226.9 221.8 215.4 208.4 202.7 196.2 186.3 176.9
171.5 168.9 164.6 158.7 157.4 159.1 160.8 157.9 155.6 155.6 157.8 159.8 161.6 160.9 159.9 157.7 155.8 155.5 155.3 150.9 152.8 158.9 165.4 170.2 177.1 185.9 192.9 199.5 205.6 209.3 212.3 213.6 212.6 212.3 212 208 204.2 201.5 198.7 197.3 196.2 198.2 198.4 201.5 205.5 207.1 212.8 218.1 217.1 207.5 184.5 163.6 147.4 140.3 133.1 121.7 119.2 120.7 119.7 115.3 110.6 108.6 105.9 103.2 101.8 98.4 94.7 94.4 94.8 95 95.3 95.4 95.8 93.9 93.3 93.6 93.8 93.7 93.6 93.4 93.7 95.3 96.7 97.3 97.8 98.5 101.1 104.1 107.2 109.7 111.7 113.6 114.2 118.8 121.3 121.8 124.6 125.8 126.2 129.5 131.5 133.4 135.4 137.5 140.9 144 146.3 149.2 152.1 154.9 157.8 160.8 163.8 166.4 168.9 171.6 174.7 177 181.4 185.2 190.6 200.1 207.7 216 224.9 232.1 238.2 243.9 249.8 254.8 262.5 271.9 281.1 288.6 295.8 301.3 302.8 303.7 303.7 303.8 303.2 298.5 291.1 282.2 276.3 278.8 279.6 278.1 276.1 273.6 270.6 267.4 262.8 257.8 258.2 257.8 258.6 261.8 265.4 265 265.7 269.5 274.8 282.2 289.6 295.3 303 310.1 315.8 319.1 321.3 321.5 323.2 328.7 334.2 335.7 323.8 319.2 315.3 312.8 295.7 292 287.8 277.2 252.1 254.6 265.6 269.5 270.5 267.9 258.8 249.2 240.9 234.5 227 218.4 211 204 194.4 179.2
170.6 168.4 163 157.9 161.9 163.1 161.2 159.7 160 159.7 161.9 162.9 163.4 164.1 164.1 163.2 161 157.6 155.5 156.1 158.8 164 169.9 180.1 187.3 196.2 202.3 208.4 213.6 217.2 219.8 220.2 221.2 220.7 218.4 216.3 215.1 215 213.2 212.7 214.4 213.9 211.4 211.9 214.6 217.7 222.2 226.7 219.5 200.8 179 159.6 147.2 140.7 133.6 124.8 106.4 113.1 111.6 108.1 103.8 102.6 99.7 96.9 95.5 93.8 93.9 94.3 94.5 94.7 95 95.1 94.3 93.1 93.3 93.4 93.6 93.5 93.3 93.1 93.6 96.1 96.9 97.4 97.9 98.7 100.9 104.4 107.8 110.5 113.2 115.1 117.9 121.1 124.3 126.1 127.9 128.8 129.4 130 132.5 134.3 136.4 138.5 141.4 144 146.7 149.4 152.2 155.2 158.2 161.1 163.7 166.4 170.1 172.9 175.9 178.8 181.4 185.9 190.5 198.8 204.2 211.6 219.8 225.8 230 236.4 246.2 255.6 265.8 274.3 282.8 290 296.4 300.1 301 301.6 302.1 302.6 301.1 294.6 285.8 278.4 271.4 272.4 272.1 269.3 266.6 262.3 255.2 250.5 248.6 250.6 252 252.5 255.1 259.6 262.6 261.9 264.6 267.4 271.5 277.4 285.2 291.6 299.1 306.8 312.9 317.2 319.9 321.5 326.7 330.1 333.8 330.1 324.7 325.2 321.6 314.6 311.3 310.5 307.1 294.3 283.6 286.1 290.1 291.1 289.1 284 273.9 261.1 251.6 244.9 234.9 228.1 226.1 216.5 201.6 183.6
158 156.9 154 156.8 163.9 164.6 162.8 163.1 164 164.4 167.6 168.8 168.5 168.3 168.8 164.7 159.5 160 161.6 161.7 164.9 172.3 182 191.5 199.3 205.4 211.3 216.8 221.2 225.1 226.3 228.3 229.5 227.2 226.3 226.2 227 226.1 225.8 228.2 229.8 229.1 222.3 221.4 222.5 222.2 224.8 220.5 208.6 193.5 171.6 155.8 144.1 135.9 129.1 121.4 109.5 102.2 104.1 101.6 98.8 94.2 93.6 93.4 93.3 93.4 93.8 94.1 94.4 94.5 94.7 94.8 93.8 93 93 93.1 93.2 93.3 92.8 93.2 94.3 96 97.2 97.6 98.4 100.8 104.8 107.4 108.8 111.6 114.5 117.6 120.9 124.1 127.4 129.7 131 131.9 132.7 133.3 133.7 135.5 137.6 139.8 141.8 143.9 146.5 150.1 153 156 159 161.9 163.7 166.7 170.3 171 175.6 178.1 180.9 184.6 188.9 193.2 200.7 207 213.1 217.9 226.7 237.6 248.4 258.5 269.4 277.8 285.9 293.5 298.7 300.5 302 302.3 302 301.5 298.8 293.1 286.4 273 265.6 264.2 262.1 257.6 252.5 248.1 246.1 244.8 244.4 245.5 246.8 249.2 252.2 256.1 257.9 261.1 263.8 266.5 269.2 275.1 280.9 286.8 294.8 301.7 308.6 313.8 319.2 324.8 331 331.1 333.8 332.6 330.4 330.3 329.3 326.3 329 322.8 318.7 310.3 302.1 300.3 300.9 301.9 303.1 298.3 284 269.2 261.2 254.6 247.4 242.8 241 228.3 208.9 182.4
151.4 152.1 156.1 163.6 165.1 165.6 166.4 167.1 168.3 172.8 175.9 174.7 173.3 171.4 167.3 164.8 164.9 166.6 168 168.2 172.9 181.9 189.7 199.2 206.2 212.2 217.5 222.8 228.3 232.8 236.5 239.8 237.6 233.9 234.8 236 236.9 235.4 237.3 238.6 236.8 234.2 228.7 228.2 225 221.3 218.1 210.3 200.4 183.9 166.3 151.1 138.6 130.3 121 114.1 105.6 93.7 96.8 94.4 92.9 94 93.3 93.1 92.9 93.3 93.6 94 94.3 94.4 94.6 93.7 93.7 92.9 93 93 93.1 93.1 92.9 93.9 93.7 96.6 98.2 99.7 102.6 104.1 107.9 111.1 114.7 116.6 118.1 121.4 124.9 128.1 130.2 132.5 134.3 135.2 135.4 135.3 135.7 137.1 139.2 141.2 143.3 145.4 148.1 151.6 154.2 157.1 160.1 163.1 165.4 168.9 172.3 175.2 177.3 178.8 181.3 185 189.5 194.9 201.1 206.4 212.9 218.8 227.3 238.7 251.3 263 273.2 281.7 289.9 296.1 300.6 303 304.7 303.9 303.1 302.3 297.4 291.3 284 271.1 262 258.6 254.4 250.6 247.3 244.6 243.2 242.6 242.4 243.5 245.6 247.9 250.2 252.5 255.2 259 263 265.7 268.3 271.8 277.5 283.6 290.8 297.1 305.4 314.8 322.2 327 329.8 332.1 336.2 337.2 334.8 335 332.7 330.3 331.9 330.3 324.3 320 316.3 313.2 308.6 307.2 303.8 296.9 288.5 279.9 270 260.3 253.9 248.3 241.9 231.9 207.7 178.2
162.9 162.9 164 165.9 167.4 167.9 170.9 172.6 175.3 180.6 180 177.4 174.8 172.5 170.8 170.8 171.5 172.5 173.7 176.2 184.3 188.9 197.1 205.7 212.5 218.4 223.4 228.8 234.3 240.6 244.3 245 246.5 245.1 245.8 243.8 243 243.2 244.8 242.6 239.8 234.8 231.7 229.6 225.7 220.5 212.2 202.2 186.9 173 158.7 142.8 131.8 121.4 113 105.4 96.2 91.2 92.4 92.8 92.9 93 92.9 92.6 92.8 93.2 93.5 93.8 94.1 94.3 94 92.8 92.7 92.9 92.9 92.9 92.8 92.7 92.5 93.2 97 97.7 100.9 104.8 106.7 107.9 111 115.1 118.4 121.3 123.7 126.1 128.9 130.7 132.6 135.4 137.5 138.4 138.4 138 138.1 138.7 140.7 142.7 144.8 147 149.9 153 155.7 158.2 161.1 164.2 167.5 170.9 174.4 176.7 178.7 180.2 182 185.9 191.9 197.3 203.2 208.6 213.3 220.4 228.6 243.2 257.4 267.5 276.8 286.2 293.8 300.1 304.7 305.6 306.7 307.4 307.8 303.8 295.2 287.8 279 268.5 260 254.7 250.9 248.1 245.2 243.5 242.4 241.6 241.1 242.6 244.5 246.8 248.7 250.3 252.9 256.2 261 264.8 267.4 270.9 274.5 280.4 287.8 295.9 305.9 315.4 322.6 327.9 329.4 332.2 336.1 338.8 340.1 339 337.2 333.5 332.3 328.1 326 324.3 321.6 318.2 312.9 308.8 305 297.6 287.5 282.4 276.6 268.9 262.8 258.1 244.5 229.6 207.1 175.7
164 164.1 167.4 170.3 171.9 175.6 177.4 179.7 184 184.3 181.9 179.3 177.4 176.1 176.3 177.1 179.4 179 179.9 183.4 188 193.3 201.4 210.3 218.5 224.3 229.3 234.7 240.6 247.3 250 256.5 258.5 255.2 254.3 249.7 249.6 251.2 249.5 245.9 239.1 233.5 231.8 228.4 222.9 214.1 203.5 185.3 170.7 157.9 142.9 132.2 122.4 112.4 103.3 95 90 90.8 91.9 92.2 92.3 92.4 92.5 92.2 92.8 93.1 93.4 93.7 94 94.2 93.2 93.1 92.9 92.7 92.1 92.2 92.3 92.6 99.8 105.4 107.2 102.4 105.7 109.6 110.7 111.9 115 119.2 122.1 124.7 127.3 129.5 131.8 133.6 135.9 138.5 140.5 142 141.8 141.1 140.9 141 142.3 144.2 146.3 148.8 151.8 154.9 157.7 160.3 163.1 165.3 169.7 173.2 178.4 182.3 183.3 185.8 185.8 186.8 193.1 199 204.4 209.4 215.8 223.7 234.4 250.4 263.4 275.1 284.1 292.8 300.4 305.7 307.4 308.1 308.8 307.5 303.4 297.2 288 279.3 269.4 262.4 257.1 251.3 248.5 246 244.4 242.8 241.8 241 241.4 242.3 243.6 245.8 246.9 248.4 250.8 254.3 258.6 262.4 265.4 268 271.5 277.7 285.9 294.4 304.3 313.5 319.2 326.2 329.9 332.9 335.7 338.7 342.6 340.9 337.6 336.9 333.8 331.5 330.6 328.8 324.4 319.5 316 311.4 304 292.2 288 283.1 274 270.8 265.2 253.6 241.3 227.2 204.2 172.2
159.5 166.4 170 173.1 176.8 180.1 184.9 185.5 186.5 185.4 183.4 181.6 179.9 180.9 181.9 183.5 184.3 184.1 185.5 187.9 190.7 196.6 204.2 213.4 223 229.8 235.6 241.8 248.9 252.2 258 265.1 265.9 261.9 258.1 254.5 256.6 255.6 250.9 244.1 237.2 233.4 231 224.1 215.3 200 184.7 169.2 154.4 139.8 129.6 120.1 111.9 103.2 90.8 88.2 88.7 90.3 91.3 91.6 91.7 91.8 91.9 92.2 92.8 93 93.3 93.6 93.9 93.6 93.3 93 92.7 92.4 92.5 92.5 93.6 103.7 108.5 110.1 110.4 110.4 111 113.8 115.4 117.2 120.1 122.6 125 127.5 130.1 132.8 135.1 137.3 139.5 142.1 145.1 148.2 149 148.9 147.6 144.7 144.3 145.9 147.7 150.9 154 157.1 159.9 162.4 166.3 170.9 175.7 180.5 186.1 191 195.1 197.5 198.2 195.6 199.2 202.7 209.4 216.5 225.2 235 246.7 260 272.2 283 292.5 300.1 307.4 313.6 312.9 310.6 308.9 305.5 296.9 287.4 275.1 266.8 263.1 257.9 253.1 249 246.3 244.5 243.9 242.4 241.6 240.9 241.5 242.7 243.3 244.1 245.3 246.9 249 251.9 255.9 259.6 262.9 265.6 269.4 275.2 282.3 291.3 300.2 306.7 316.1 323.8 328 332 335.3 339.6 344.2 339.8 339 336.3 331.8 330.3 332 329.2 322.3 318.7 313.2 306.9 298.1 286 280.1 271.8 265.9 261.4 252.3 243.4 228.5 210.8 189.6 164.6
165 169.5 174.1 177.9 182.9 186.1 187.8 187.7 187.1 186 184.5 183.5 184.3 186 187.6 188.7 189.7 190.3 192.9 195.7 199.8 201 205.9 217.3 227 235.1 241.8 247.6 251.4 255.2 263.8 269.9 269.9 264.7 262.1 258.5 255.7 251.5 245.8 239.6 233.7 229.2 223.7 214.8 199.4 180.9 164.1 149.4 137.7 126 117.5 111.2 102.4 89.1 86.9 87.7 88.6 89.3 90.7 90.9 91.1 91.4 91.7 92.2 92.7 92.9 93.2 93.5 93.5 93.6 93.1 92.8 92.5 92.2 91.8 97.4 103.8 105.4 108.8 111.8 112.8 114.2 108.7 117.1 120.5 122.4 123.7 125.4 127.8 130.4 132.8 134.8 137.1 139.3 142 145.5 149.1 152.1 154.8 154.3 151.6 148.1 146 147.3 148.9 153.2 156.5 159.2 161.8 164.5 169.5 175.4 180.8 186.5 192.6 197.7 202.6 208.7 212.1 213.2 215.3 216.6 221.7 228.9 237.9 247.6 256.8 268.1 281.3 291.3 299.8 307 313.5 316.9 317.5 312.6 307.6 299 285.9 274.6 267.5 263.5 261 255.9 250.4 247.2 245.3 243.8 243 242.2 241.5 240.8 241.1 242 242.7 243.1 243.7 245.3 247.8 250.2 253.3 257 259.8 263.4 267.5 272.5 278.4 285.9 297.1 306.9 314.8 323 329.7 333.4 336.5 341.3 341.8 338.6 334.6 331.1 328.7 328 327.5 326.2 322.3 317.6 311.3 298.1 282.9 274.3 266.8 260.1 253.7 245.6 235.3 222.5 208.5 192.3 172.6 156.5
168.7 173.1 179.6 183.4 186.6 188.2 188 187.9 187.5 186.2 185 185.9 186.9 189.2 190.8 191.6 193.4 196.5 199.6 201.1 202.2 205.5 211.2 221 230.9 239.2 243.8 250 254 259.9 267.3 271.9 272.9 266.5 262.2 258.5 251 246.5 240 233.6 227.6 221.6 212.9 198.8 181.7 162.7 143.6 133.1 122.7 115.1 109.7 103.5 92.5 87.4 87.9 87.4 88 88.5 89.6 90.4 91.1 91.4 91.7 92.2 92.1 92.8 93.1 93.4 92.9 93.5 93.6 93.1 92.6 91.1 98.1 104.7 107.7 108.8 110.3 113.1 115.4 116.5 117.1 114.5 121 123.4 126.2 128.1 130.6 132.5 134.5 136.4 138.8 141.3 144.8 147.4 150.1 153.8 155.1 155.3 152.7 150 148.4 149.4 152 154.7 158.1 161 163.5 166.9 170.3 176.7 182.7 189.5 195.8 202.9 209.5 217.1 222.8 228.8 232.8 235.6 237.4 245.9 254.3 261.4 268.1 275.8 286.1 296.7 302.1 309.7 315.2 319.1 317 309.8 297.9 287.1 275.4 268.7 265.6 262.6 259.4 254.4 249.5 246.9 245.1 243.7 243.1 242.5 241.9 241.2 241.1 241.4 242.1 242.4 242.8 244 246.5 248.9 251.4 254.3 257.1 261.4 262.2 267.6 278.3 286.9 296 304.7 315 323.8 332.6 335.6 336.7 339.1 341.6 337.6 331 329.5 327.5 323.6 323.7 321.6 319.5 316.3 307.6 282.4 262.4 258.9 251 246.1 239.3 228.9 216.9 203.3 189.6 176.5 162.6 151.2
171.8 175.7 178.5 180.3 186.3 186.4 187.7 187.3 186.9 186.5 187.5 188.6 189.6 191.4 192.5 193.1 194.5 196.7 198.8 202.9 205.5 209.3 215.5 224.3 234.7 239.9 243.9 248.6 257.7 265.4 269.1 272.9 271.4 266.4 264.7 255.1 247.8 241.7 234.2 226.9 219.9 211.2 196.9 180.3 160.4 140.9 129.6 122.6 115.4 108.8 103.6 96 87.6 88.4 88.5 87.8 87.9 88.2 89 89.9 89.7 91.1 91.7 92.6 91.5 92.6 93 92.5 92.4 92.9 93.5 93.5 90.8 96.8 103.5 108.2 111 111.5 113.2 115.4 117.1 118.6 119.6 116.6 114.8 122.4 125.7 128.3 130.3 133 135.3 137.5 140.2 143.1 146.2 147.8 150.5 152.5 154.2 155.1 152.7 150.6 151 151.1 153.6 156.5 159.3 162.3 165.2 168.1 171.3 176.7 184.2 192 199.7 208.4 217.1 225.6 234.1 242.2 249.3 254.4 260.8 264.8 269.5 276.6 283.3 288.2 293.4 299.5 305.2 310.3 314.6 312 307.6 296.6 286.4 276.8 271.9 268.3 265.5 262.7 257.7 253.5 248.6 248.4 246.5 244.9 245.7 243.7 244.6 244.6 244.3 240.3 241.1 241.1 241.4 242.9 244.9 247.4 250 251.7 251.9 255.2 261.5 267.7 276.5 285.4 294 305.1 316.3 325.3 333.2 335 335.2 337.2 338.7 336.1 332 328.4 319.9 320 318.2 317 314.9 300.8 287 263.7 244.6 237 228.5 224.4 219.1 209.2 196.4 185.3 173.8 163.6 157.8 151
170.8 172 174.8 177.9 182.7 185.5 187 187.4 188.4 189.3 190.2 191.2 192.3 192.8 192.2 192.3 193.1 194.6 198.1 202.6 206.4 210 215 224.5 232.4 238.1 242.2 252.1 261.8 265.8 268.2 269.8 269.5 271.1 264.1 252.9 244 234.6 224.5 216.7 209.2 197.3 179.6 162 142.4 127.3 120.2 113.6 107.3 101.6 93.4 87.8 87 88.3 88.4 88.5 88.9 89.2 89.3 89.5 89.3 89.1 89.6 92.3 89.4 90.6 92.8 91.9 91.8 92.3 92.5 90.8 98 103.4 106 110.1 112.2 114.2 115.2 116.2 117.7 119.1 120.6 121.6 120.7 119 119.7 127.3 129.5 132.3 134.9 137.5 140.4 143 144.6 146.9 148.2 150.9 152.6 153.1 152.4 152.5 152.4 152.5 155 157.3 159.5 161.7 164.6 167.4 171.7 179.6 187.4 196.9 206.4 215 224.8 235.3 244.2 253.3 262.2 269.8 276.8 282.5 287.4 288.8 290.9 293.4 296.9 301.7 305.5 306.5 304.9 300.7 294.1 286.1 277.7 274.5 272 267.9 264.3 260.2 253.6 251.5 250 250.1 249.4 253.8 255.8 256.8 252.2 249.7 246.1 243.1 240.5 238.5 240.4 242 243.7 245.9 248.4 249.4 248.7 251.4 258 266.1 273.6 283.3 292.5 303.3 314.1 324 329.3 330.2 332.9 335.1 335.5 337.9 333.9 321 313 310.4 308 307.5 297.3 279.6 266 249.7 232.2 219.4 208.7 201.5 196.7 189.1 181.2 173.8 163.8 159.1 155.7 151
165.8 168 173.4 178.2 183.6 186.2 189.7 190.3 191.3 192.2 193 193.9 194.6 194.5 193.6 192.4 192.1 192.7 196 199.6 203.2 207.4 212.4 221 227.8 235.8 242.4 250.8 258.5 263.9 266.3 273.7 277.3 271.1 257.4 242.7 233.6 223.7 212.9 201.5 191 178.8 162.4 144 129 119.1 112 105.6 98.2 88.7 87.3 86.9 87.9 88.2 88.3 89.1 90 90.3 90.2 90.2 90.9 91.4 92.2 88.4 88.7 88.4 91.5 91.6 91.6 91.9 91.1 91.3 103.7 105.8 108 111 113 114.7 116.2 117.2 118.4 119.9 121.3 122.8 123.5 125.3 126.7 126.5 125.4 129.1 133.4 135.5 138.2 141 142.9 144.1 144.6 147 148.8 150.5 151.5 152.1 152.1 152.4 154.3 156.7 158.9 161.2 163.9 166.8 171.6 182.1 192.3 202.1 212.1 222 231.5 241.2 251.5 260.6 269.4 277.3 284.1 291.2 296.4 297.8 297 297 298.6 300.5 301 298.9 295.1 288.6 281.4 277 272.9 271.2 268.6 264.7 260.5 256.2 253 252.2 252.8 252.4 253.5 254.3 258.1 260.8 261.2 258.5 254 246.3 242.9 238.6 239 240.9 242.2 243.7 245.7 245.1 244.7 246.5 254.5 262.5 270.8 280.8 289.4 300.1 311.2 320.1 324.1 329.3 331.3 333.5 336.7 335.9 326.3 313.9 303.1 295.2 294.8 292.1 278.8 268.1 257.1 239.5 221.6 206.5 194.9 190.7 183.7 179.3 173.7 167.8 162.4 158.7 155.3 151.2
166.9 171.1 175.5 180.4 185.8 188.8 192.4 193.9 194.3 195 195.8 196.4 196.3 196.1 194.6 192.3 190.2 191.1 192.9 196.4 199.2 203.2 208.7 215.6 222.9 232.5 240.9 248.3 254.9 260.7 267.5 270.5 268 257 239.6 226.5 218.3 208.2 195.9 182.3 170.9 160.6 147.1 132.1 119.8 110.9 104.2 95.6 87 86.7 88.4 88 87.9 88.1 88.3 89.5 90.5 91.3 91.1 91 91.5 92.4 93.5 96.3 91.2 88.1 91 92.7 91.7 91.3 91.1 100.5 106.1 109.3 110.8 111.8 113.5 115.1 116.8 118.2 119.2 120.7 122.1 123.7 125.4 126.8 128.9 130.3 131.4 130.5 130.3 135.3 137.7 139 140.7 141.1 142 144 146.8 148.6 150.1 151.3 151.8 152.2 153.7 155.8 158.2 161 163.6 167.2 173.9 185.9 195.9 205.2 214.8 225.6 237 246.9 255.9 264.1 270.8 277.9 284.9 291.4 296.2 297.5 296.1 293.2 291.9 293.3 291.8 287.1 279.8 274.6 272.4 271.9 271.1 268.4 266.9 263.6 259.2 255.8 254.6 254.8 255.5 256.9 260 265.1 268.2 267.1 264.6 259.5 253.9 251.6 247.1 240.9 233.9 238.9 240.4 241.8 242 241.1 241 242.1 250.1 258.7 266.3 278.4 286.2 297.3 306.8 314.4 321.5 326.1 329.8 333.3 331.1 325.4 316.8 302.8 288.4 277.1 276 272 267.4 256.8 242.1 223.8 206.7 192.2 185.9 182.9 178.8 175.1 171.8 168.5 164.3 159.2 155.3 151.5
170.6 176.3 181.2 186.1 190.3 192.7 195 197.8 198.3 198.4 198.8 198.4 198.2 196.9 194.7 191 188.3 188.2 189.6 192.2 195 198.6 205.2 209.2 216.4 227.4 237.1 245.5 256.3 260.4 261.3 258.4 250.6 235.6 221.9 212.3 203 192 178.3 167.4 153.5 145.2 133.8 122.3 112 103.6 95 87.5 87.1 88.1 88.3 88.6 88.2 88 88.2 89.9 90.8 91.2 91.7 91.8 92 97.9 105.4 106.9 103.3 88.4 91.2 92 91.5 90 93.3 103.6 107.6 110 111.1 112.2 113.9 115.6 117.2 118.8 120.2 121.4 122.9 124.8 126.9 128.4 130.8 131.9 132.3 133.8 130.9 134.4 135.3 138.4 139.8 140.5 141.6 142.6 145.2 147.1 148.3 149.7 151.2 152.1 153.6 155.9 158.4 161 163.9 168.2 178.1 188.2 197.3 207.9 216.6 227.8 239.1 249.9 259.1 265.5 271 276.6 282.4 285 285.8 284.7 283.8 282.4 280.8 279.2 276.4 272.1 269.3 269.3 269.7 269.8 269.6 268.2 266.5 262.9 260.8 258.8 258.3 259.8 261.3 264.3 265.8 270 271.6 270.6 265.7 260 256.2 252.5 245 240.4 235.7 234.4 238.8 238.9 238.7 238.6 238.2 238.8 243.3 253.8 265.5 276.8 286.5 295.1 301.2 308.7 314.1 317.6 320.8 322.4 320.7 317.3 309.7 295.1 278 258.5 255.8 252.8 249 239.3 221.5 205.5 192.8 184.1 180.9 177.8 175.9 173.6 170.8 167.7 164.5 160.6 157.3 153.5
176.9 183 187.9 191.5 194.9 197.2 199.4 201.4 201.5 201.5 201.4 198.8 195.8 194.8 192.2 188 183.7 184.1 184.8 187.4 189.6 191.8 197.9 203.9 209.3 219.8 234.2 247.1 251.5 250.2 246.3 240.8 230.3 219.3 209.7 200.5 190.5 174.9 163 152.6 144.3 133.3 125.1 114.3 106 95.8 87.9 86.6 87.8 87.9 88 88.9 88.7 88.4 88.2 90.2 90.7 91 91.2 96 105.2 111.7 114.6 114.5 110 92 90.9 91.5 91.6 92.3 98.2 104.5 107.2 109.7 111.5 112.7 114.1 116.1 117.7 119.3 120.9 122.2 123.7 125.8 128 130.2 132.7 133.1 133.5 134.3 135.2 136.4 138.1 139.9 141.6 142.2 143.3 144.1 145 147.2 148.4 149.6 151.1 152.5 154.2 156.8 159.4 162.1 165.7 170.3 178.3 188.7 198.1 207.6 217.4 228 238.2 248.1 255.1 260.7 264.4 268.6 270.1 270.9 271.1 271.1 270.9 269.9 268.2 265.8 263.9 264.6 266.7 270.1 274.5 275.3 272.9 269.2 266.6 264.6 262.8 262.1 265.5 267.4 269.2 271.2 272.7 274.4 276.1 273.2 265.6 260.3 255.8 249.7 243.3 239.4 237.4 230.3 236.3 235.6 235.5 235 234.6 233.7 237.9 248.6 263 272.9 280.6 288.5 294.1 298.7 302.6 306 309 311.3 311.3 307.8 303.6 290.4 270.4 251.3 237 231.3 227.5 218.7 204.9 194.2 186.4 182.8 180.2 176.7 174.2 172 169.9 166.8 163.7 160.3 157.7 155
184.3 190.5 195.7 197.6 199.6 201.2 202.8 203.8 203.4 201.7 199.7 195.8 192.7 190.3 186.3 181.7 179.2 179.5 180.5 179.8 181.5 186.8 193 196.9 200.9 219.8 230.9 235.2 236 233.9 229.8 224.8 216.3 206.3 196.6 188.5 173.1 157.9 148.9 141.8 134.6 125.6 116.9 108 100.6 89.5 87.1 87 87.7 87.8 87.8 88 89.3 88.9 88.8 90.5 92.8 99.5 106.2 110.8 116 120.3 120.8 119 112.5 101 89.8 90.8 97.4 98.4 103 104.6 107 108.9 110.9 113.1 114.3 116.3 118.2 119.8 121.4 122.9 124.8 127.1 130.4 133.1 133.9 134.5 134.9 135 135.9 137.3 139 141.1 143 143.9 144.8 145.6 146.5 147.4 149.1 150.7 152.3 153.6 155 157.3 160 163.1 167.6 172.1 179.5 188.1 197.7 206.4 215.2 224.4 232.7 240.3 245.5 249.7 253.5 256.8 255.7 258 258.3 258.3 260.1 260.5 257.3 258.2 263.7 270.4 276.8 282.7 283.8 280.1 275.6 271.7 269.4 268.2 266.3 269.7 272.6 273.6 274.4 277.2 278.9 283 282.3 274.6 266.8 261 253.8 246.2 243.2 240.9 236.7 235.1 226.8 228.6 231.6 231.6 230.9 230.9 233 237.9 256.4 265 272.6 278.4 282.8 286.4 290.2 294 298.6 302.3 303.9 302.2 298.4 288 272.5 248.6 231.5 217.3 212 203.7 193.2 183.9 182.4 180.5 179.1 176 173.3 171.2 168.5 165.7 162.8 159.5 156.6 153.8
190.5 197.6 199.6 201.1 203.4 204.7 204 202.7 201.9 199 195.8 192.6 189.3 184.4 179.5 176.6 174.8 174.7 175.3 174 178.3 182.4 186.8 189.9 196.9 210.5 217.3 219 219.5 218 214.1 209.6 201.8 194.6 184.1 171.1 156.6 146.1 138.5 132.7 124.8 117.6 110.9 102.1 90.9 87.4 86.3 86.8 87.5 87.8 87.7 87.7 88.5 89.5 92.4 98.8 106.2 113.8 119.4 123.1 125.7 126.4 123.5 119.5 115.5 107 96.5 94.4 100 103.5 104.2 104.8 106.5 108.2 109.9 112.4 114.7 116.5 118.5 120.3 122 124.3 126.7 131 135.4 138.5 140.2 140.9 140 139.3 138.8 138.1 139.9 142.4 144.3 145.6 146.4 147.1 148 149.8 151.3 152.8 154.4 155.6 156.2 157.8 160.5 165.1 169.8 174.3 180.7 188.3 196.2 204.6 211.8 218.5 225.3 230.4 234.8 238.7 242.5 236.1 233.5 238.4 239.8 240.7 246.8 251.3 261.8 268.2 274.9 282.1 287.3 287.2 284 280.5 276.6 274.3 272.2 271.3 271.8 274.9 277.4 278.6 280.5 283.4 284.6 286.2 283.9 277.2 270 262.4 255 252.2 249.2 245.3 241.7 236.7 235.1 229.4 223.8 227.1 226.8 228.1 229.2 231.8 246.7 257.7 263.5 269.8 273 276.4 280.4 284.9 289.1 293.7 298.7 298.7 295.5 287.7 277.2 255.8 231.4 214.4 199.7 193 185.7 180 178.8 178 176.4 175.3 172.5 169.9 167.2 164.6 161.4 157.4 154.6 151.9
196.6 201.1 203.3 204.5 204.9 204.5 202.9 201.2 197.9 194.9 191.9 188.4 183.9 178.4 173.8 172.1 170.5 169.9 170.7 171.2 172.3 178.1 180.3 179 189.8 197.5 204 204.8 204.3 202 197.4 194.1 190.1 180.3 167.7 154 143.2 135.9 128.6 122.6 115.5 107.4 99.5 90.2 85.6 85.3 85.5 86.6 87.3 87.6 87.7 87.7 92.4 99.2 110.5 115.7 122.8 129.8 133.3 136.9 140.8 140.6 133.8 126.2 116.6 108.8 100.5 94.4 99.8 103.8 104 105 106.4 107.8 109.2 111.7 114.4 117.1 119.1 121.2 123.4 126.1 130.1 134.9 139.7 144.7 149.6 151.9 153.1 153.1 153.1 152 150 148.1 147.3 147.5 147.9 148.6 150.3 152.4 154.2 155.5 156.7 158 158.7 158.2 161.8 166.4 171 176.1 181 186.7 194.9 201.1 206.8 211.5 215.3 219.8 224.2 226.9 222.3 218.6 220.4 223.4 231.7 249.1 256.6 264.7 269.9 276.5 281.6 285.2 285.9 285.3 282 280.4 278.2 275.8 275.8 275.3 278 279 282.7 284.7 286.9 289.8 291 290.4 286.6 279.6 274.8 270 264.4 261.4 257.7 253.7 248.5 244.6 242.5 239.9 226 219.8 222 224.1 225.7 227.1 238.9 250.8 255.8 261 264.5 267.9 272.6 277 281.9 287.8 293.3 295 292.1 286.6 279.4 264.6 241.1 215.4 194.8 188.4 182.4 178 176.2 174.7 173.6 173 171.5 168.9 166.2 163.3 160.3 156.3 152.8 150.2
198.6 201.7 204 204.9 204.2 203.2 200.9 197.4 193.9 191.4 187.9 183.5 178.7 171.6 168.6 166.4 159.4 166.8 167.4 154.9 165.1 169 167.4 173 181.6 188.6 191.1 190.8 189.1 185.1 180.4 177.9 171.2 162.4 151 137.5 128.5 123.3 117.9 111.6 100.5 89.7 87.6 84.5 87.1 88 87.9 88.2 88 87.3 90.9 99.9 108.6 118.6 128.5 134.8 139.7 143.9 147.5 156.3 159.6 154.4 146.8 137.2 120 110.6 105.3 95.1 99.7 103.9 104.1 105.2 106.6 108.2 109.9 112.4 115.1 117.8 120.1 122.3 124.9 128.6 133 139.5 146.6 152 157 161.5 164.3 167.3 168 169 166.7 163.5 160.6 156.6 154 153.3 156.3 157 158.1 159.2 160.4 163.4 166 159.5 161.7 167.3 171.6 175.9 180.7 185.2 190.8 195.3 200.3 204.5 207.2 210.2 212.9 214 212.3 216.8 227.6 235.3 249.3 258.3 265.3 271.5 276 279.4 282 283.3 283.7 283.3 282.3 282 281.8 280 279.8 282.4 286 287.5 289.4 289.9 291.4 294.9 296.6 296.4 291.3 286.1 281.2 276.3 272.7 270 266 260.5 255.5 252.6 248.9 244.3 236 224.8 215.2 221.4 222.6 223.2 232.7 242.1 247 251.8 255.5 260.4 266.7 272.7 278.1 284 289.1 291.2 288.3 284.1 277.4 263.2 243.5 215.4 191.7 185.5 179.9 176.5 174.6 173.1 172.4 171.6 170.3 168 165.6 163.1 158.1 154.2 151.9 149.9
199.1 202.2 203.8 203.9 203.2 200.8 197 194 191.8 189.1 184.8 180.2 173.8 167.9 159.7 160.1 149.6 164.8 163.9 144.1 161.4 160 163.7 171.9 177.2 179.9 179.5 176.1 171.4 166.7 163.3 159.4 151.6 141.4 130.8 120.8 115.8 111.7 106.7 97.7 88.1 86.7 88.3 91.1 90.2 89.1 89.3 89.6 89.8 95.1 104.2 115.1 126.6 132.9 140.9 149.1 153.5 155.9 163.4 167.5 167.3 163.9 156.5 143.5 119.4 112.1 107 101.1 102.9 104.5 104.8 105.4 107.2 108.9 110.7 113.2 115.8 118.5 120.9 123.3 126 129 134.4 142.3 150.5 156.7 161.7 168.9 173.9 178.9 182.7 184.9 185 179.9 175.8 172.1 166.1 164.8 166.6 166.6 166.7 168.1 169.9 170.7 173 167.7 163 164.7 168.4 173.1 178.6 183.1 187.4 189.1 188.5 194.4 198.9 202.6 204.6 210.9 218.1 227.4 237.2 244.5 253.9 261.1 267.7 272.5 276.2 278.2 279.1 277.9 280.7 280.7 283.7 287.1 288.5 286.6 286.6 290.1 293.5 296.4 299.1 298.5 296.7 297.9 299.4 298.4 295.9 292.2 287.2 283.7 280.9 278 273.7 267.9 262.6 261.1 256.7 250.8 241.1 227.7 214.5 209 219.7 219.2 226.3 233 237.5 242.2 246.2 252.4 260.2 268.4 275 280.4 285.3 289.6 286.1 280.7 272.7 254.6 235.1 212.1 190.8 183.7 179.3 175.7 173 171.6 171.1 170.8 169.9 169.1 166.6 162.3 155.2 152.2 150 147.8
199.1 202.2 202.2 202.2 200.2 197.7 194.3 191.8 189.4 186.4 182.8 177.6 171.9 167.7 152.8 139.9 159.5 160.3 156.4 135.3 153.4 151 162.2 166.2 167.2 166.5 163.3 159.1 154.1 150.6 144 136.4 128.6 121.7 115.1 110.9 105.9 100.8 92.3 86.6 87.7 95.5 96.6 95.1 93.9 94.2 94.4 94.9 100.5 109.6 119.7 130.2 138.2 146.8 155.2 157.7 160 166.7 171.6 174.7 172.6 167.1 158.3 145.2 124.2 112.5 107.8 103.9 102.8 104.3 104.5 106.2 107.9 109.7 111.4 113.9 116.5 118.8 121.2 123.6 126.1 129.3 134.8 143.4 153 161 168 175.6 182.9 189 194.5 199.8 202.5 199.7 195.7 191.1 186.6 183.4 180.2 180.4 178.9 181 181 180.8 179.7 175.5 168.5 168 168.4 169.2 172.9 176.7 179.2 182.6 187.1 190.7 196 202.8 209.5 215.3 219.3 227.5 236.8 246.6 253.5 260.3 266.7 271 272.6 268.4 270.7 276.6 278.7 283.3 285.8 289.6 293.2 295.1 296.1 298 300.9 303.3 304.8 301.6 298.6 299.9 301.4 299.8 297.4 296.4 293.4 289.6 287.7 285.4 281.7 274.4 269.8 269.7 267.8 260.5 243.8 224.8 212 215 217.9 218.1 222 224.6 226 236.7 241.8 248.8 258.7 265.3 271.4 276.6 281.9 287.4 284.6 278.3 265 248.8 231.6 210.1 194.4 187.9 182.4 178.8 176 173.7 172.5 171.3 170.3 169.3 164.4 162.2 151.2 148.4 146.3 145.2
199.5 201.5 201.2 199.3 196.8 194.4 192 189.6 187 183.7 180.4 175.5 172.6 168.4 160.3 131.9 149.7 156.9 154.9 131.2 132.8 147.8 152.6 156.4 156.9 156.1 148.4 146.4 140.3 134.7 125.9 118.6 114.8 109.9 105.3 101.9 94.2 88 85.3 95.3 99.2 98.5 98 97.5 98.5 99.3 100.7 106.5 114.2 125.3 132.7 140.2 151 158 159.1 159.6 163.5 169.7 174.8 176.1 169.9 163.1 153.3 140.3 121.2 113.5 108.4 105 102.7 103.9 104.2 106.6 108.9 110.5 112.2 114.5 116.8 119.1 121.5 123.9 126.4 129.8 135.8 143.9 153.7 163.9 173 181.7 189.7 197.5 205.4 210.8 214.6 213.5 213.1 211 206.6 203.7 199.4 196.6 196.3 198 199.6 198.2 193 186.4 179.8 175.7 175.2 176.3 179.3 178.1 183.5 193.3 197.3 199.9 199.8 206.6 210.8 217.8 221.6 226.2 235.3 243.1 250.2 257.7 262 263.4 257.9 264.3 274.9 280.5 287.1 291 292.2 295.4 298.9 299 299.5 300.8 303 301.8 301.5 300.3 299.9 301.7 301.7 300.5 299.3 298.3 296.5 294.9 293.5 292 288.2 279.5 275.4 273.8 269.8 263.9 241.5 220.4 209.9 206.2 214.8 212.7 219 224.8 233.3 240.8 249.3 256.3 262.9 270 277.8 283.6 285.4 288.6 286.9 280.2 264.7 248 233 218.5 210.6 204.1 198.1 193.5 188.7 183.6 181.6 181 180.5 178.6 170.6 160.6 153.2 147.1 142.5 139.8
199.9 199.9 198.7 195.9 193.1 190 188.1 185.7 183.5 181.1 178 174.7 172.5 169.1 155.6 129.3 133.6 152.9 148.7 130.8 121.5 142.4 145.8 146.9 145.6 142.1 138.9 133.5 124.5 117.3 111.3 108.6 104.4 99.5 95.5 89.4 86.5 88.5 100.9 104.8 103.3 101.3 100.7 101.1 101.6 103 106.9 117.4 123.9 130.5 136.4 146.7 149.1 149.7 152.3 157.9 164.5 169.6 173.7 170.8 162.3 154.6 144.8 133.8 119.1 111.5 107.5 105.1 103.2 103.5 104.4 107 109.9 111.5 112.6 114.8 117 119.4 121.8 124.4 127.4 130.8 135.9 145 155.9 166.8 176.9 185.8 196.6 204.4 213.6 219.6 225.4 227.3 226.6 224.6 222 220.2 215.2 212.3 210.8 210.3 213.4 211 205.9 199.1 191.8 187.1 184.9 185.9 187.4 188.2 192.4 199.9 203.4 205.3 206.3 208.9 211.9 217.6 223.6 230 235.9 244 250.7 254.3 248.1 251.1 265.8 276.6 279.6 283.4 286.7 291.4 293.1 295.8 297 299 299.7 300.8 300.6 300.4 301 301.8 300.8 301.6 301.7 305.9 303.8 301.9 300.1 299.1 300.9 297.7 287.3 282.7 280.6 278.1 272.4 263.3 236.7 219.5 210.4 202.2 207.6 217.8 222.5 234 241.8 248.4 255 260.1 265.8 272.5 286.1 290.1 293.9 294.4 291.8 286.6 271.9 264.5 250.7 237 230 226.1 220.2 213.1 207.6 201.7 196.8 193.7 191 187.8 182.9 169.8 161.5 155 148.6 141.4
200.1 198.7 196.7 193.4 188.5 185.5 182.9 181.9 180.4 179.1 176.1 173 169.6 168 164.7 137.2 122.1 144.5 138.1 130.7 105.2 135.1 134.5 131.5 129.8 125.1 116.8 109.1 102.1 97.3 92.8 91 88.9 88.1 87.6 84.8 91.3 95.2 99.8 103.9 105 104.6 105.2 106.1 106.5 109.2 114.5 117.7 122.8 128.6 132.2 138.5 141.8 144.8 151.2 158.4 164.8 166.6 167.4 161.5 150.2 142.1 134.3 124.1 113.5 111.1 107.2 104.4 103.5 103.5 104.3 107.4 110.5 112 113 115 117.3 119.7 122.6 125.6 128.6 131.7 136.6 148.3 160.4 171 181.2 192.5 203.3 212.8 221.6 227.9 234 235.5 234.9 233.6 232.4 230 227.9 226.1 222.7 219.1 221.7 220.7 217 211.1 203.8 198.7 194.7 194.6 195.7 196.2 197.7 204.7 208.4 210.8 212.3 214.3 215.4 216.6 219.2 221.6 229.8 240.9 241.2 239.8 250.2 263.8 272.5 277.5 281.9 285 289.1 291.4 293.9 295.7 296.1 297.8 299.6 300.7 301.4 301.7 304 303.8 302.6 304.8 306.6 306.8 304.8 303.6 302.1 302.9 296.1 290.6 289.5 288.7 285.7 281.3 275.3 261.5 235.9 216.9 208.3 200.7 208.6 222 235.8 249.3 260.5 265.8 270.5 272.6 274.2 281 288.8 292.8 295.5 296.9 294.6 293.7 291.9 288.5 277 263.7 255.4 251.8 247.3 242.5 234.2 225.9 218.4 212.2 206.1 199.7 197.4 189.8 181 172.6 161.7 149.1
199.4 198.2 194.7 189.7 183 178.3 177.2 176.2 177.4 176.8 174.2 171.2 172.4 164.7 154.2 144.3 109.7 117.1 120.4 123.2 98.7 119.6 117.1 114.6 110.2 96.9 85.6 85.7 84.9 83.4 83.9 85.3 91.4 91.9 95.2 99.7 103.4 103.8 106.3 106.4 108.4 109.5 111.2 116.2 118.5 119.4 124.5 123.1 123.9 127.7 131 135.6 140.1 145.5 151.3 156.7 160.7 158.5 151.2 142.1 131.2 124.9 118.6 113.4 110.5 109.2 106.5 104.8 104.2 104.7 106 108.9 110.3 111.9 113.4 115.3 117.8 120.8 123.8 126.8 129.8 132.7 140.8 153.6 165.2 178.3 189.3 201.1 210.7 220.3 227.4 233.3 237.1 240 240.3 240 238.4 236.6 235.1 232.5 229.5 226.8 227.3 227.3 223.9 219 213.5 209.2 206.8 206.7 206.8 206.2 205.9 212.8 217.9 219.3 218.9 222.2 220.4 221.8 224.7 229.6 230 233.2 239 247.6 256.4 266.3 272.2 278.5 282.3 285.5 287.7 290 292.8 295 295.7 297 299.2 301.3 302.8 302.5 303.5 305.9 306.3 307.3 308.5 307.5 305.9 304.6 303.1 299 295.3 293.4 293.2 292 290.4 285.7 280.3 266.4 237.6 214.5 203.2 198.3 200.8 224 246.4 261.5 269.7 274.8 277.6 279.6 281.4 286.2 290.9 294.5 297.3 296.8 295.2 294 297 297.8 292.9 285.4 278.6 277.9 274.6 269.3 262.5 250.1 244 238.3 232.8 224.8 218 212.3 202.7 191.3 181.3 167.9
199.8 196.6 192.9 187.4 181 173.3 166.9 170.3 173.1 171.5 168.5 162.5 155.7 148.3 142.8 137.3 122.5 99.9 94.2 108.1 94.6 101.7 100.4 92.7 84.6 84.2 86.3 86.2 86.6 88.5 90.9 94.5 98 99.9 104.8 109.3 112.6 114.2 115.1 112.6 116.3 119.4 125.1 127.9 128.7 129.8 132.4 132.9 129.7 126.3 130 134.1 137.1 141.8 146.8 150.5 151.5 147 137.6 127.5 120.1 114.8 110.9 108.7 107.4 106.7 106.3 106.5 106.9 107 107.9 108.7 110.2 112.6 115 116.6 119.2 122.1 125.1 128.1 131.1 136.9 150.7 164.1 176.4 187.7 198.8 209.3 218.1 225.5 232 236.6 240.3 243 244.1 243.4 241.9 240.8 239.6 238.3 236.3 233.5 231.7 232.7 230.4 228 224 222.9 221.8 221.5 223.6 224.4 221 224.9 235.7 235.3 235.5 235.7 233.6 230.3 230.1 234.5 236.6 243.1 250.3 256.4 261.5 268.3 274.5 278.5 282.4 284.4 286.1 288.7 291.6 293.1 293.8 295.1 299.8 302.7 303.3 303.5 304.8 307.9 309.2 309.9 310.6 310.9 308.4 306.7 301.7 298.9 296 295 293.6 292.4 291 287.6 281.6 262.9 234.7 214.8 200.8 196 194.4 219.6 249.2 268.3 273.9 275.3 279.3 282.5 283.9 287.9 291.9 294.7 295.7 297.4 297.7 295.9 295.4 294.9 293.4 291.2 289.5 287.3 282.7 277.1 269.6 264.3 264.4 261.2 254.4 244.7 236.9 233.7 222.7 213.2 201.8 188.4
198.3 195.3 191.1 185.1 179.8 175.1 161.1 164.1 165.3 162.6 156.4 148.3 141.1 135 130.7 126.6 116.9 108.3 97.7 91.8 90.7 88.1 86.3 84.3 84.5 86.4 87.8 88.6 90.5 94.8 98 101 103.1 106.2 110.5 117.4 121.7 124 123.2 121.9 125.7 133.8 135.5 134.1 136.3 137 136.3 138.1 132.5 129.8 129.6 130.4 131.2 134.7 138 139.9 139.2 134.9 125.9 116.8 110.6 108.9 107.1 106.1 106.3 108.6 109.9 109.7 108.4 108.6 109.4 110.4 111.9 113.9 116.5 118.2 120.9 123.8 126.7 129.6 133.5 145.7 162.6 175.4 187.4 197.3 207.9 216.5 223.1 230.3 235.6 240.2 243.5 246.2 247.7 247.3 246.2 245.1 243.2 240.9 238.7 236 236.3 237.3 235.7 235.3 234 234.5 235.5 237.8 241 243.9 243.1 241.4 248.9 251.8 251.5 251.3 250.3 246.1 241.9 246.8 251.3 260.1 262.9 268 271.2 275.2 279.4 279.7 281.1 282.6 284.7 286.3 287.8 289.4 291.7 294.2 299.5 302.3 304.6 306.9 306.5 308.8 311.3 312.9 312.5 311.6 308 304 299.3 297.6 294.5 292.7 290 288.5 286.5 283.9 274.3 256.1 230.7 211.5 201.3 194.1 191.8 219.5 248.1 266.2 272.9 275.9 278.8 281.2 284.1 288.9 292.9 294.6 295.7 297.6 298.6 298.2 296.4 295.2 293.9 294.6 296.5 295.1 288.8 281.4 275.1 271.8 269 263.6 257.1 250.9 247.8 243.6 236.2 230.6 222.4 211.5
196.1 192.6 188.8 183.8 179.1 176.4 166 149.8 150.4 147.7 142.6 135.3 128.1 122.7 111 101.5 94.4 92.2 92.8 90.9 86.4 84.8 84.2 84.3 84.6 86.1 88.7 93.4 100.4 107.9 111.3 111.5 113.4 119.4 124.9 127.7 130.3 132.9 132.4 128.4 136 141.7 140.9 138.8 139.3 140.6 141.9 138.9 132.9 128.5 127.1 127.1 127.2 128.5 129.9 128.4 127.9 123.3 115.2 108.1 106.5 105.4 105.2 105.2 104.4 106.9 106.8 108 109.4 110 110.9 112 113.9 115.9 118 120.1 122.9 125.8 129.6 132.9 142.5 159.9 175.2 188.1 201.6 214 220.2 225 229.2 234.4 239.2 244.7 248.1 251.7 252.2 251.5 249.1 246.8 244.8 242.6 239.6 237.6 238.3 239.8 241.3 240.9 243.2 244.5 246.8 249.3 253 255.8 257.9 259.5 264 266 265.9 265.7 263.7 260.1 263.6 268.2 274.2 279.1 276.5 279.1 279 279.7 279.6 279.4 279.9 280.8 281.9 283.2 284.5 287.1 291 293.8 298.3 301.9 304.4 305.6 306.9 309.1 311.4 312.7 314 310.6 307.9 300.1 297.3 293.6 288.4 282.7 281.9 281 283.4 283.9 276.1 255.4 224.7 203.6 199.1 196.4 192.5 221.7 248.7 262 267.4 270.6 274 277.8 283 286.9 292.3 294.9 296.4 297.5 298.7 299.4 297.7 295.8 296.3 297.3 297.9 298.6 295.1 288 281.2 275.3 270.8 264.3 258.4 253.3 248.2 242.9 237.6 233.8 230.4 220.9
191.4 187.8 185 180.3 175.9 168.3 156.9 142.5 133.8 132.2 127.5 122.6 118.9 103.9 92.7 88.4 88.6 89.9 90.7 88.2 86.1 84.5 84.4 85 86 92.3 101 110.3 115.4 117.9 118.5 120 125.4 133.4 136.7 139.1 140 141 141.1 137.2 142.2 143.9 144.1 143.2 142.9 143 143.1 138.3 133.9 129.9 125.5 123.5 123 121.6 121.6 118.8 115.5 112.3 108.3 104.8 105 104.8 104.5 104.4 104.3 104.4 105.4 106.4 107.3 110.5 112.4 113.9 115.8 117.4 119.7 122.2 124.7 127.8 132.5 142.4 158.8 175.4 190.8 204.5 218.5 227.4 230.3 231.2 234.1 237.9 242.2 248.7 254.5 256.8 256.6 254.7 251.2 248.5 245.6 240.7 239.1 239 240.5 242.2 244.8 247.2 249.6 250.6 252.9 256.7 260 261.7 263.6 265.8 268.6 271 272.1 272.8 274.7 275.9 278.6 281.1 284.3 285.2 285 283.1 280.8 278.7 277.7 276.8 276.7 278.2 279.4 280 280.7 284.9 288.8 292 296.1 299.6 302.5 304.3 307.5 310.2 310.8 313.3 312.6 309.3 300.8 291.1 286.8 284.2 280.5 279.8 280.5 283.4 284.6 282.9 276.1 249.7 217.7 200.5 195.7 186.1 196.3 218.9 240.5 254 257.7 260.5 264.9 270 279.1 286.1 290.6 293.9 295.2 297 298 298.1 298.7 297.7 297.4 297.4 296.6 296.8 295.3 290.9 283.5 279.3 273.5 266 259.7 248.2 237.3 233.8 231 230.6 227.5 219.1
185.2 179 175.1 165.6 155.7 146 136.6 129.7 119.5 120.9 117.5 112.6 95.5 87.2 86.5 86.1 86.3 86.7 85.5 85.4 85.5 81.8 86.3 88.6 97.8 110.3 121.6 125.6 125.6 125.7 125.7 131.7 141 145.3 147.1 149.2 149.1 148.7 148.9 144 141.5 145.2 146.9 146.7 146.4 144.3 142.9 139 136.3 130.4 125.4 120.3 117.9 115.6 114 112 110.3 109.2 107.3 105.7 104.9 104.4 104.3 104.3 104.3 104.7 106.8 107.5 107.9 108.7 110.5 113.9 116.4 118.7 121.4 124 126.6 130.7 139.5 158.6 174.5 191.2 207.9 221.7 233.7 239.8 241.2 241.1 243.1 246.6 250.5 254 258.2 259.7 260.4 258.4 255.7 249.5 241.1 235.7 235.7 238.1 240.3 243.3 247.5 251.6 253.5 255.9 258.7 261.8 265.3 266.7 268 270.8 272.5 274.1 276.2 278.5 281.8 286.5 288.8 289.6 289 288.5 286.8 283.7 280.2 277.7 274.2 272.9 273.6 274 274.5 275.6 278.1 282.4 286.5 290.1 293.7 297.4 301.3 305.7 309 309 308.5 306.9 305.2 296.7 292.1 291.8 287.6 281.7 275.6 272.1 274.8 278.5 279.5 278 268.9 246.9 214.4 197.4 193.9 182.4 196.3 205 221.5 230.7 234.2 237.2 243.2 253.3 273.7 283 288.2 293.9 295.7 296 295.8 295.8 296.5 298.5 298.3 296.1 295.3 295 294.2 290.3 288.7 283 275.4 267.7 258.1 243.4 222.8 216 216.9 218.6 218.2 213.7
173.9 162.3 152.7 145.1 135.8 129.6 125.1 120.8 107.6 110.3 107.8 86.5 84.3 84.6 85.2 85 84.7 82.9 84.7 83.6 82 87.7 100.2 110.4 118.7 129.1 135.8 135.1 133.4 133.3 136.6 144.5 151.5 156.4 159.1 159.9 158.4 154.1 152.3 148.5 146.6 148.5 150.6 150.2 148.4 145 142.5 138.1 134.2 128.4 123.7 118.8 116.1 114.5 112.5 110.7 109.8 108.5 106.8 105.3 104.7 104.3 104.3 104.3 104.3 104.8 106.2 109.4 110.7 110.7 113.2 114.9 116.9 120.3 123 125.5 129.1 135.6 150.6 171.2 189.8 209.1 226.5 240.4 248.5 252.5 252.6 253.2 253.5 255.2 257 258.3 260.2 261.5 263 261.8 254.1 245.1 233.6 231.7 232.4 234.9 239.9 244.6 248.7 252.2 254.6 258.2 262.6 264.7 268.1 270.6 274.2 275.3 275.9 277.6 279.9 282.3 286.3 290.3 292.5 292.7 292.1 289.8 286.5 282.3 278.2 274.1 271.3 269.3 268.6 269.1 269.7 272.2 275.5 279 283.5 288 291.9 294.2 296.9 297 296.9 297.8 300.6 299.9 296.2 294.5 293 291.4 285.5 277.5 265.1 258.1 265.5 269.3 268 264.2 255.8 238 209.2 195.9 193.3 183.7 191.3 197.7 202.9 206.5 209.8 214.9 228.1 248.8 270.4 277.9 282.7 287.5 290 293 294.2 294.7 294.5 296 296.6 294.3 292.6 291.8 290.7 288.7 285.6 281.1 273.6 264.6 254.8 235.7 211.9 200.4 196.9 202.6 204.2 197.7
150.6 143 137.2 131.8 126.1 121.2 117.6 112.3 103.7 97.2 85.9 82.3 83.4 82.8 80.7 82.9 81.6 83.4 90 97.4 105.7 117.6 125.7 131.9 135 139.3 140.3 140.2 140.4 141.2 144.6 152.6 159.3 164.1 166.4 166.4 164.4 161 155 151.1 150.2 152.5 154.8 153.2 149.4 145.7 142.1 136.4 131.2 127.2 123.1 120.1 117.9 116 114.1 112 109.4 108 106.6 105.2 104.3 104.3 104.3 104.3 104.3 105.6 106.8 108.9 111.4 112.6 114.4 116.1 118 121.2 124.3 128.5 133.2 142.2 160.9 184.3 206.2 227.1 244.2 255.4 260.8 262.4 261.6 261.5 262.4 262.9 263.1 263.2 263.1 264.2 263.5 256.7 249 238.8 228.5 224 229.2 233.7 238.3 243 247.3 252.2 255.4 258.6 262.8 266.5 270.6 273.1 273.9 276.3 277.9 279.4 282.1 285.9 289.8 292 293.6 294 292.9 289.2 284.9 279.7 275.2 270.8 264.9 261.9 260.1 261.2 266.1 269.7 272.3 275.1 278.9 285 285.4 286.7 290.2 291.9 295.1 297 298.7 298.9 296.2 294.8 293.2 289.4 283.1 272.8 259.2 246.7 249.6 249.6 247 243.1 233.3 218.1 206.3 194.5 191.6 185.9 179.8 191 193.4 193 196.6 211.3 228.8 248.2 261.1 268.1 273.8 279.5 283.3 284.6 292.6 299.4 294.8 293.2 293.6 289.6 288.2 287.5 285.7 283.4 282.9 278.7 269.1 261.4 247.7 225.6 205.7 193.8 179.4 184.4 184.3 176
136.5 132.1 126.5 121 116.2 112.4 108.4 103.4 97.6 87.7 83.3 84.5 86.8 88.4 87.9 92.5 106.9 109.7 115.6 118.8 122.4 126.1 128.4 133.5 137.7 140.1 142.1 144.9 146.4 148 152.6 158 163.4 168.3 171.6 172.6 166.7 160.6 156 153.5 154.3 159.4 159.9 156.5 152.2 147.6 142.7 138 135.1 131 127.1 127.3 125.6 122.8 119.9 116.2 111.6 108.1 106.5 104.5 104.3 104.3 104.3 104.3 104.3 106 107.7 110.5 112.5 113.4 114.6 116.5 119.4 122.4 126 131.4 138.3 151.2 173.7 198.3 222.9 244.5 257.9 264.1 265.5 266.5 266.6 266.5 266.6 266.9 267.4 266.3 265.7 263.2 257.4 251.3 242.1 232.4 223.7 214.3 226.3 230.9 235.6 240.4 244.9 250 255.1 259.1 262.7 266.5 269.4 271.1 274 276.8 278.9 281.9 284.8 287.4 290 291.9 293 291.4 290.3 288.8 284.8 279.9 273.2 262.1 255 251.3 252.6 256.8 262.6 265.5 268.2 270.5 272.6 273.7 277.8 283.7 287.9 292.2 296.8 298.8 301.4 300.1 296.6 295.1 293 289.5 280.5 267.5 252.2 238.1 229.5 228.2 226.1 219.9 210.3 201.8 198 194.1 191 185.2 173.1 182.6 186.5 188 190.5 206.3 224.9 237.5 247.8 255.3 262.2 268.2 271.8 274.4 283.4 293.1 295.3 288.9 287.6 285.8 286.4 284.9 280.5 276 272.1 266.2 262.8 254.7 239.2 212.3 193.8 181.6 169.2 165.3 163.6 156.8
126.6 122.2 115.5 111.3 106.6 102.7 99.1 92.1 85.8 80.6 84.3 87 90.7 93.3 93 93.9 92.8 102.5 106.6 106.5 120 128.5 132.3 134.4 138.9 141.8 144.7 148.5 151.4 154.2 158 162.5 168 174.7 177.1 172.2 165 161.7 160.2 158.3 159.5 166.1 165.3 163.3 159.7 151.4 145 142.1 139.3 137.2 136.2 136.1 137.3 134.8 130.9 126.3 119.8 111.1 107.5 104.5 104.3 104.3 104.3 104.3 104.3 106.7 108.2 111.1 112.9 113.4 115.1 117.8 120.6 123.9 127.6 133.2 141.3 161.3 186.2 210.5 239.2 254.1 259.2 261.5 264.1 266.7 266.2 266 267.4 269.3 268.1 265.5 261.2 256.1 249.9 241.4 234.5 225.7 217.5 205.4 217.7 227.5 233 237.7 242.5 247.6 252.4 257 260.1 262.6 265.1 269.4 273 276.8 280.4 283.5 285.5 286.8 286.6 288 290.4 289.4 291.5 289.3 285.9 278.5 263.3 251.4 247.7 246.3 248.3 254.2 258.7 261.4 263 265.5 268.6 273.2 277.1 283.4 290 295 295.8 297.5 298.7 295.6 296 297.9 296.2 290.8 279.5 262.5 244.4 234.5 221 215.1 211.7 205.5 202.2 199 196.3 193.2 188.9 185.3 176.9 173.5 180.6 181.2 186.2 193.3 209.4 221.8 232.5 240.4 247.5 252.6 256.8 259.8 268.3 277 287.5 287.3 283.6 283 280.4 279.9 274.5 271.1 268.2 264 255.9 247.8 220.4 197.7 181.7 169.8 158.7 151 147.7 144.4
118.1 112.3 107.2 101.9 97.4 92 86.4 84.4 80.9 83.3 87 89.9 94.8 103.6 108.6 113.4 104.2 101.4 99.2 109.6 129.5 133.6 136.6 139.4 142.7 147 150.2 153.8 157.8 162.4 167.2 172.3 177 180.3 177.3 170.8 167.2 164.2 163.5 163.2 161.7 166 168.9 169.7 167.3 157.3 149.1 146 145.1 147 148.8 151 152.3 148.7 145.5 139.9 127.2 113.8 108.1 104.8 104.3 104.3 104.3 104.3 106.6 110.8 116.9 117.9 118.2 117.3 117 118.8 122 125.6 129.4 135.5 149.9 171.9 196.1 218.6 239.8 252.2 256.1 257.6 260.3 262.8 263.4 265.9 265.5 265.6 262.9 258.3 253.1 248 240.7 231.4 225 220.5 209.4 199.7 206.3 222.4 228.3 234.1 239.1 243.9 248.4 252.2 255 258.9 262.8 268.4 273.4 277.2 280.4 281.6 282.9 283.6 286.6 288.5 288.5 290.6 291.6 287.4 278.8 265.9 251.5 245.1 243.1 242.1 246.7 250.5 254.3 258.4 262.1 266.5 269.6 274.2 278.6 284 289.5 292.8 294.3 295.8 298.6 300.2 303.8 303.2 300.2 291.2 281.3 265.9 257.9 249.6 241.4 231.5 220.5 206.7 202.5 198.9 197.4 194.7 192.9 189.6 181.1 170.1 171.5 178 181.3 186.7 196.2 205.9 214.6 223.3 231 236.1 239 241 250.2 265.1 280.7 284.3 277.7 277.7 273.2 272.9 269.4 267.8 263.5 256.1 239.8 214.1 200.8 183.6 172 161.9 152.7 143.6 143.5 141.4
110.5 102.1 93.4 86.8 87.1 84.9 83.6 82.4 82.2 86.6 90.7 95.6 108.9 118.1 117 121.1 116.2 116.3 111.6 100.9 114 131.7 141 144.8 149.1 153.8 156.4 160.5 165.9 170.9 175.1 179.7 182.7 185.8 178.8 172.5 170.1 168.4 168.6 168.8 167.8 168.8 174.7 175.6 172.7 161.1 152.7 150.1 153.9 160.4 162.7 163.3 161.7 159.7 156.4 148.8 127.5 114.5 109.3 106.4 105.3 104.4 105.2 106.1 108.3 114.7 120.7 126.7 132.4 131.7 128.6 127.2 128.3 133 142.6 152.4 167.2 184.6 202 222.9 238.5 247 250.2 251.5 255.2 258.2 260.9 261 261 258.3 253.6 248.1 243.5 238.4 230 222.5 218.3 213 203.5 195.2 202.8 217.9 225.1 229.5 233.7 237.4 240.9 245.3 250.5 256.9 262.9 268.8 272.7 275.4 277.3 277.4 278.1 280.3 284.2 287.4 288.1 288.1 284.5 276.5 264.7 252 239.8 238.6 238.4 236.6 244.3 249.6 254.4 260.1 264.2 269.2 272.7 275 279.4 285.7 292 294.2 296.5 297.5 298.5 302.2 303.9 305 303.9 297.9 287.5 277.6 276.1 272.1 260.2 252.5 244.1 230 221 213.3 206.7 200.5 197.9 196.6 191.9 175.7 165.4 174.3 177.6 184 189 194.1 200.1 206.7 215.3 220.8 222.1 224.6 241.4 256.1 272.7 278.6 271.8 267.1 262.3 254.2 256 256 249.6 237 224.1 193.9 180.9 170.5 162.4 154.9 147.5 142.4 139.8 135.7
95.4 84.8 84 83.1 82.5 81.6 80.1 83.1 86.1 94.2 105.3 117.2 122.9 124.6 126.4 128.7 129.7 118.9 123.8 109.8 107.3 117 135.4 150.4 154.3 158.3 161.7 166.5 169.6 173 177.4 181.9 183.6 184.1 181.4 175.4 174.2 173.4 173.9 175.4 175.5 175.9 177.9 178.8 177.6 165.6 155 157.7 164.8 171.5 174.3 176.1 176.2 173.2 168.5 155.7 133.9 118.4 111.4 107.6 106 104.8 105.3 106.3 108.6 114 121 127.5 137.8 145.1 146.3 146 147.8 154.7 165 174.8 186.1 199.3 215.9 231.4 239 240 241.8 245 249.1 251.6 253.7 253.3 251.8 248.2 243.9 238.4 232.8 226.3 218.2 213.1 208.4 202.5 195.8 190.4 197.2 212.2 217.6 220.9 224.5 226.7 233.2 241.6 249.4 256.6 262.4 266 268.6 271.9 273.7 274.2 275.3 278.8 282.9 284.7 285 283.2 278.1 270.2 257.5 237.4 234 234.1 229.1 239.6 248.1 254.2 258.6 260.9 266.2 270 272.8 277.1 282.5 287.1 288.3 290.9 292.2 292.3 296.9 303.2 306.5 308.5 307.7 303.4 296.5 291.7 289.8 286.3 277.8 275.8 264.3 250.2 242.3 231.7 227.5 218.4 211.5 207.3 202.5 182.5 167 168.7 174.5 179.7 183.8 188.2 192 195.4 200.6 207.3 208.6 211 233.7 247.2 262.6 266.2 261.5 254.1 249.5 236.9 231.3 229 222.5 214.4 201.4 183.1 166.8 162.3 155.1 148.2 142.7 138.6 135.1 131.6
78.4 79.1 82.5 85.6 93.2 95.4 86 97.8 107.8 116.2 123.1 126.5 129.9 133.1 135.1 136.5 138.9 122.9 137.6 133.1 114.1 111.9 124.4 143.1 154.9 158.4 162.9 168.3 170.8 173.8 176.5 179.7 180.8 179.4 180.3 176.8 176.6 177.1 179.1 180.8 181 182.3 182.9 182.2 180.8 170.9 165.5 167.3 178.4 182.1 185.4 189.2 190.4 188.8 186.9 171.7 147 124.9 114 109 106.8 105.5 105.4 106.1 108.1 113.6 120.3 127.4 137 146.6 159.1 162.5 168.4 176.4 186.5 196.2 205.2 213.4 224.3 232.4 230.4 231.3 233.5 237 242 243.7 244.4 243.9 241.8 238.6 233.8 228 217.1 210.7 203.6 198.6 194.1 189.9 187.5 187.9 195.2 202.5 201.6 204.8 210.4 219.3 230.7 240.2 248 253.9 259 263.3 265.2 269.1 270.4 273.7 278.6 281.8 283.4 283.1 282.1 281.4 277.6 261 240.7 226.4 228.1 228.4 226.7 243.3 251.6 256 258.9 261.9 265.6 269.7 273.5 276.9 280.4 281.2 281.5 282.9 282.4 288.4 299 304.5 307.7 309.5 307.9 305 298.6 296.3 292.9 291.5 289.5 283.9 274.3 265 253.9 245.5 240.8 233.2 222.8 212.1 202.2 186.2 172 160.1 167.4 172.1 178.2 183.2 187 187.8 188.5 195.3 199.5 198 220.7 238.7 247 247.2 243.3 239.4 234.4 223.2 208.2 201.2 199.7 191.5 182.9 172.2 162.4 155.8 150.5 144.9 141 137.6 134.8 130.5
82.7 84.8 87.8 94.9 101.8 110 105.7 90.6 110.4 122.5 127.4 130 130.6 137.2 141.2 144 145.7 141.3 148.1 151.7 141.4 128.2 118.8 120.8 125.7 135.9 141 151.6 159.8 167.4 172.6 175.6 176.5 176.4 178.4 179.6 180.3 181 184 188.9 191.2 193.4 193.8 190.7 186.6 180 181.8 182.3 189.3 194.3 196.5 202.4 207.3 208.2 201.9 188.2 161.8 134.1 118.7 111.2 108.1 106.1 105.1 105.4 106.8 113.2 120 127.3 135.3 147.3 159.8 173.6 184.4 193.4 201.8 209.3 214.3 217.2 220.6 221.2 220.2 222.9 226.8 230.4 234.1 235.4 235.6 235 231.8 226.6 216.4 206.7 197.5 190.7 186.8 182.8 183.1 182.5 181.9 185.4 188 189.6 193.6 200 209.4 219.7 228.4 238.2 246.5 251.1 255.9 260.7 264 267.7 272.1 277.1 280.3 282.5 282.5 282.9 281.8 278 267.7 245.3 226.9 220.2 220.9 222.2 230 243.6 249.6 254.4 257.8 260.8 264.4 268.3 271.3 274.3 276.6 276.7 270.5 264.3 262.9 278.2 290.9 298.2 299.8 300.4 298.3 295.7 296.8 304.1 300.1 295.3 289.1 280.1 272.2 263.1 255.7 246.3 236.2 227.8 217.7 209.9 202.3 192.1 182.2 161.3 159.1 164 171.3 177.1 182.2 181.3 180.8 186.5 188.9 190.4 209 226.6 233 233.2 231.6 228.7 222.6 212.5 202.6 185.6 175.7 172.2 168.4 161 152.4 151 146.7 143.9 140.6 137.6 134.5 129.7
86.3 87.1 93 105.3 112.3 115 120.2 104.5 94.2 101.2 107.2 107.8 115.8 119.9 140.7 147.7 150.1 149.1 152.7 156 155.6 149.5 134.4 134.3 141.2 148.4 157.7 159.4 155.6 162 157.8 166 170.7 175.6 179.9 182.7 184 189.9 196.5 202.1 205.3 208.2 209.1 205.7 200.7 197.4 198.2 196.9 203 208.9 216 218.4 218.4 218.6 213.9 207.3 181.3 152.4 127.4 114.5 108.7 105.5 105.1 105.1 105.1 109.9 117 124.1 134.8 147.2 161.3 175.4 187.2 196.3 203.2 207.8 211 212.8 212.6 209.4 208.4 211 217.6 222.4 226.5 227 227.5 225.2 215.4 204.1 196.3 187.4 176.7 175.7 176.8 176.7 177.2 178.7 180.1 182.4 184.2 187 191.7 200.6 211.1 219.8 229.6 236.3 242.5 249.1 255.6 261.3 265.7 269.6 274.1 278.4 280.4 282.5 282.8 281 279.4 270.3 247.4 234.4 219.5 214.7 216.8 211.7 232.7 242.2 245.9 248.9 252 256.9 260.6 263.5 267.1 270.2 265.1 254.3 247.2 241.1 245.6 260.4 267.8 273.8 274.9 276.9 278.3 282 288.3 297.4 297.3 293 287 276 269.2 258 248.9 237.3 225.3 214.3 206.4 199.7 196 187.9 179 166.2 155.3 156.5 165.8 172.3 176.7 176.5 176.3 179.5 182.6 184.9 201.5 215.8 220.1 221.3 221.5 221 216.8 212.4 198.6 181.1 169.9 162.2 157.1 152.4 149.5 147.4 143.8 141.3 138.6 136.4 133.8 130.6
90.7 92.8 103.9 112.1 118.7 124.6 129.4 131.5 112.8 113.6 115 121.4 130.3 138.4 131.6 148.6 152.6 153.9 157.5 159.1 158.2 156.8 156.8 157.6 162.4 164.5 168.2 170.8 171.7 173.4 174 175.8 177.6 178.4 183.4 187.5 190.8 202.8 214.4 222 225.1 226.4 224.5 220.8 214.8 215.6 217.9 217.5 214.9 226.6 229.7 231.5 232.2 231.8 231.5 222.8 200 171.4 142.9 120.9 111 107.4 105.1 105.1 105.1 105.2 111.9 118.1 131.3 148.5 164.1 177.2 187.7 195.1 199.3 203.2 204.6 206.2 205.5 201.2 195.8 197.5 208 214.1 218.7 219.5 216.9 205.2 190.4 182.4 176.3 170.8 168.8 170.4 172.2 172.6 173.9 174.8 177.6 179.9 182.5 185.5 189.2 196.1 203.7 210.9 225.1 232.6 243 251.5 258 264.3 269.5 273.8 278.4 280.6 281.1 279.8 280.3 271.4 263.5 252.6 240.7 225.1 211.4 209 211.1 214 227.5 234.3 239.3 242.7 246.3 247 246.9 248.2 248.8 243.1 237.3 230.7 225 221 227.1 237.7 240.8 243.9 247.9 249.7 252.3 257.2 265.7 274.1 280.7 286 284.9 276 265.5 253.2 238.2 225.4 208.8 194.6 186 180.5 180.7 178.4 170.7 159.6 152.4 151.7 161.8 167.8 171 172.2 173.8 176.2 179 184.3 199.4 207.7 211.5 214.3 215.5 213.2 209 200.1 188.5 175.2 166.6 159.2 153.9 151.4 147.7 144.9 142.9 140.4 137.4 135.3 133.1 133.9
110.3 109.3 117.5 115.8 125.6 132.5 136.2 138.4 128.3 137.6 138.4 133.4 141.5 143.5 135 147 154 157 158.8 159.2 160 158.6 160.7 163.7 166.4 169 172.6 174.7 176.2 178.9 180.9 185.9 189.9 194.8 200.9 206.7 209.4 217.6 231.9 239.3 241.4 241.7 239.6 236.5 234.6 234.9 236.1 235.6 233.2 241.7 244.6 246 245.3 243.9 248.7 242 217.2 189.6 162.3 137.8 121.4 108.3 105.7 105.1 105.1 105.1 107.7 111.5 122 137.4 154.3 165.7 177.4 185.7 190 194.7 196.7 198.2 196.5 191.9 180.9 182.3 194 203.4 206.9 203.8 194.7 182.6 171.7 165.5 164.3 165.1 165.1 166.1 168.1 169.4 170.8 172.5 175.2 178 180.9 184 187.2 191.4 195.2 203.8 223.8 237.9 248.9 256.7 263.4 268.7 273.2 278.7 282.2 283.1 278.6 268.8 260.1 250.1 241.1 234.4 226 213.3 204.8 204.9 207.6 211.2 223.7 229.9 235.4 238.7 241.1 236.9 228.8 224.7 222.1 218.8 214 209.8 204.7 200.8 205.3 211.9 217 220.1 222.7 224.9 228.5 236 245.9 254.6 262.8 271 277.6 271.8 258.1 242.3 225.7 204 187.6 177.6 168.1 164.5 163.5 167.2 163.1 157 149.8 147.9 158.4 162.7 166.9 169.7 171.7 174.7 178.5 186.2 195.9 202.9 207.2 208.4 207.8 204.6 201.6 195.8 187.2 174.7 166.1 158.2 153.1 150.1 147.5 144.9 142.8 140.3 136.8 141.5 146.5 153.5
120.3 121.6 126.9 128 130.9 138.5 141.7 143.2 134.8 142.9 148.4 145.9 152.3 153.6 144.6 155.8 159.8 162.3 162.8 163 163.2 162.3 163.6 166.5 169.1 172.5 176.8 179.5 185.1 190.9 196.3 202.8 210.7 215.9 223 228.9 234.7 236.2 248.4 254.8 257.4 258.8 258.4 254.7 253.6 253.9 253.1 250.2 249.7 254.5 256.5 256.6 253.9 254.1 252.4 249.6 235.2 207.4 183.4 162 140.5 122.3 107.6 105.1 105.1 105.1 105.1 107.8 114.3 122.8 135.5 145.3 156 165.8 172.5 178.8 186.1 187.4 186.8 180.9 167.4 164.4 178.7 189.1 188 180.3 172.7 163.7 159.6 159.2 161 161.6 162.8 164.7 167.4 168.3 168.8 171 173.5 176.5 180.4 184.4 188.4 194 207.7 222.2 238.1 249.8 259.3 265.2 268 270.8 276.3 279.2 280.5 271.6 258.1 246.9 237.6 228 218.5 211.5 205.6 198 199.2 200.6 200.6 208.1 221.2 228 232.3 235.1 233.4 222.7 210.6 206.4 203.1 197.7 191.3 186.3 186.2 185.6 188 191.6 195.9 198.7 200.8 203.5 207.7 216.4 227.1 236.1 244.6 253 259.1 256.7 246.6 233.2 217.1 205.9 186.4 176 169.5 163.1 158.9 159 154.3 152.2 147.4 145.5 155.5 159.3 163.2 167 168.7 172.4 178.4 185.6 194.3 198.6 201 201.4 201.5 201 198.1 191.8 181 171.4 163.8 164.3 154.9 152.2 149.5 146.3 145 145.1 155.4 161.9 164.9 167.1
130.1 134.4 138.2 142.9 145.8 147.3 148.9 149.9 142.5 150.8 153.9 154.6 159.3 160.7 160.5 160.4 162.6 165.5 165.3 165.6 166.2 166.2 167.9 170.2 174.9 181.1 184.9 191.6 200.1 209.6 217.3 222.8 229.8 236.8 243.5 249.3 253.4 256.6 260.8 269.3 273.6 276.3 276.5 272.7 271.6 270.8 268.5 263.7 266.3 266.3 266.8 266.8 265.2 257.4 253.3 251.7 244.3 222.9 203.3 187.2 164.4 140.4 119.9 105.5 105.1 105.1 105.1 105.1 107.4 114.5 120.7 127.7 136.4 146.4 156.7 167.6 174.4 175 174.1 170 160.4 154.6 162.6 166.7 166.1 161.2 157 154.3 154.4 155.6 157 158.5 160.4 163.3 165.6 167.5 168.6 171 174.3 178 183.2 191.7 205.2 217.9 228.8 239.6 250.8 259.9 268.8 271 270.7 272.1 273.7 270.4 262.5 254.7 240.9 227.7 216 203.9 196.8 194.4 190.4 192.5 194.8 196.8 197.5 207.3 221.4 227.6 230.9 229.5 223.2 213.6 198 187.5 184.1 179.4 174.3 171.7 173.6 174.4 175.5 176.3 179.1 183.4 186.6 188.5 192.9 201.1 210.1 218.8 232.3 243 246.4 245.3 240.9 232.8 225 214.2 199.2 183.2 174.5 164.3 156.2 154.8 151.2 147.7 144.2 149.1 154.4 157.7 160.9 164 165.1 168.9 177.9 184.4 189.1 192.6 195.4 195.5 195.7 194.2 191.4 183.6 174.3 166.6 171.7 173.2 167.9 159.1 153.7 152.7 155.7 166.3 176.1 178.3 174.7 175.3
143 147 148.3 153.4 158 159.3 160.9 161.8 156.6 153.9 158.9 159.8 162 163.5 164.4 162.9 163.5 167.2 168.5 167.9 169.4 171.5 175 178.4 184.9 191.5 199.9 210.1 221.7 229.9 236.8 242.6 249.3 255.8 261.5 266.6 269.7 272.3 275.3 281.1 285.7 288.3 289.5 287.8 285.7 284.8 280.7 276.6 278.3 275.8 272.1 266.1 256.6 248.4 242.8 239.1 231.6 223.6 215.1 206.7 185.2 155.3 130.8 112.7 105.1 105.1 105.1 105.1 105.5 108.4 111.5 118.5 123.4 130.3 141.8 150.2 156.7 161.2 161.1 160.2 150.5 147.8 148.5 148 147.3 148.7 149.9 150.7 151.7 152 153.5 154.9 158.5 162.3 165.4 170 173.7 176.6 180.8 192.1 202.7 215.9 229.8 242 251.9 259.9 267.2 273.9 277 274.5 270.3 265.3 262.4 258.8 252.3 234.9 220.6 208.7 196.4 185.5 186 185.4 184.6 188.1 190.6 192.8 198.6 211.3 222.4 226.1 228 225.8 219.8 207 189.4 177.9 172.4 167.1 163.4 162.1 163.4 165 166.4 167 167.2 170.1 172.9 176.6 184.8 189.5 194.1 204.6 227.6 238.3 238.8 236.3 232.9 226.1 215.8 206.4 196.7 183.3 172.5 162.2 155.7 151.5 148.7 145.4 140.1 149.2 151.8 155 158.1 161.2 163.5 168.1 175.6 181.6 185.3 187.2 187.7 186.9 186.3 182.2 177.3 171.9 167.6 174.1 181.7 179.5 171.1 165.4 167.7 174.3 178.2 185.9 189.4 184.8 181.9 179.4
153.6 157.9 159.9 161.8 165.7 168.8 170.5 169.9 168.6 167.4 165.2 165.4 164.8 166 166.7 166.9 167.9 169.1 171.4 171.7 175.5 178.5 182.2 188.6 196.2 205.6 216 225.8 234.7 243.2 250.7 258.4 265.2 271.4 278 282.1 284.1 285.4 287.7 291.3 296.2 299.1 299 298.3 297.8 293.1 289.2 287.9 284.5 278.4 268.7 257.3 240.2 223.3 216.9 212.8 209 203.1 200.3 193.1 183.6 165 138.1 121 107.1 105.1 105.1 105.1 105.9 108 110.9 114.3 117.4 122 128.5 136.4 142.1 147.1 147.5 145 140.1 140.7 140.7 139.3 140.3 144.1 146.9 148 147.2 149.9 153.3 156.8 160.3 164.3 169.1 180.6 191.7 200.4 209.6 221.9 231 242.9 251.8 261.5 270.1 276.1 280.4 279 273.4 268.5 265.1 263.7 261.1 254.9 239.9 210.4 201.9 191 181.8 177 178.4 179.4 180.5 183.9 184.3 196.1 204.2 214.1 219.1 221.9 221.9 219 211.6 198.6 181.7 170.8 164.1 160.8 158.9 156.5 157.2 159.3 160.4 161.3 161.5 163.8 167.1 171.1 174.6 181.4 184.1 198 219 227.2 230.1 228.7 224.3 214.9 205.8 198 186.3 174.1 165.1 157.4 152.3 148.7 145.9 139.1 140.3 147.3 149.4 152.3 155.3 158.8 162.9 170 175.7 179 179.4 178 178 175.8 173.1 170.5 169.6 172.6 168.1 178.9 179.9 177.7 175.9 177.1 185.7 189.3 189.8 194.4 193.5 187.7 181.5 172.7
161.5 165.5 168.9 171.1 172.8 174.1 175.2 176 175.3 175.2 175 171 168.1 168.8 169.6 169.7 170.8 172 174.1 175.5 179.6 183.8 188.5 194.5 203.6 214.4 224.9 235.2 245.5 254.7 262.8 271.3 278.6 286.6 292.6 296.8 297.9 300.8 303.8 306.8 310.3 310.2 310.4 309.6 304.4 299.6 295.8 293.7 286.3 275.8 261.4 241.1 218.5 197.5 189.1 186.1 182 177.7 176.3 172.3 169.2 161.1 143.7 122.9 113.1 108.2 105.9 107.9 109.7 111.8 114.1 114.7 114.7 115.3 120.2 126.2 131.3 133.4 134 133.6 134.1 133.8 127.7 130 134.8 140.3 142 141.7 148.8 151.3 154.7 158.4 163.2 171.8 184.6 195.9 206.6 222.1 238 251.3 259 266 270.9 274.6 278.3 280.2 275.2 270.2 268.4 267.5 268.6 268.8 263.6 250.3 226.7 200.9 183.5 177 173.7 172.1 172.1 174 174.3 179.5 189.3 198.8 205.4 212 216.7 217.8 215.4 211.4 202.4 191.2 178.6 166.2 158.1 155.4 153.3 152.4 153 155 157 158.6 166.6 170.7 174.8 183.4 181 178.6 180.3 188.6 205.5 215.2 218.5 217.7 211.5 204 196.1 189.1 180.5 169.2 160.4 152.6 148.2 146.4 143.9 139.4 137.8 145.2 146.8 150.3 154.5 158.6 162.9 166.6 169.4 171.8 172.7 171.5 170 169.9 170 171.9 174.9 176.3 168.7 171.4 179.1 179.4 183.5 186.2 190.4 194.3 196.5 198.1 190.4 182.8 176.4 169.9
167.3 171.2 173.9 176.1 178.7 179.7 180.1 181.2 182.2 183.1 182.4 180.9 178 173.5 172.7 173.3 174 174.8 177.3 180.4 184.3 188 193.3 201.5 212.4 223.1 233.7 244 253.9 263.3 272.7 281.3 289.1 296 301 302.7 306.6 311.5 315.8 318.3 319.9 319.6 318.2 317.1 313.6 307.5 299.6 293 281.7 269 250.8 236.1 219.2 198 176.3 169.2 162.6 157.6 152.6 149.4 150.2 147 134.2 119.9 114.2 112.4 109.2 110.8 115.1 117.1 116.7 117.2 114.2 112.5 115.1 119.4 125 127.7 128.8 129.4 128.9 126.1 131.7 139.1 140.7 139.2 144.5 146.7 149.5 152.3 156.9 162.5 174.2 186.6 199.2 212.1 226.6 244.3 256.7 264.6 272.5 277.7 279.1 278 276.4 271.7 267.9 268.2 269.7 272.5 271.3 265.7 252.1 232.2 208.4 187.2 173 168 168.8 168.3 167.5 172.3 178.1 183.7 193.6 201.3 207.8 213.5 213.9 211.8 207.4 199.8 190.8 183.2 173.2 161.4 153 150.6 147.7 148.1 149.7 151.4 155.6 167.9 181.9 188 189.6 191.9 190 178.9 178.7 180.4 190.2 200.8 205.2 204 200.2 193.4 186.7 180.6 173.5 163.3 155.2 149 145.6 143.8 142.6 140.8 132 140.9 146.3 148.6 151.6 155.7 159.3 162.4 162.7 163.4 163.8 164.2 166.6 168.5 170.4 173.9 174.6 173.6 172 168.3 178.1 181.7 186 188 191.8 193.6 195.2 189.4 182.8 179 175.5 173.8
172.6 176.4 179.8 183.9 186.6 187.3 187.4 188.7 190 189.7 189.4 189.3 187.5 183.2 178.4 177.1 177.9 178.7 181 184 186.3 192.2 199.7 210 220.2 231.3 241.6 251.8 262 271.7 280.9 290 296.5 302.1 305.7 311.4 315.6 318.8 321.8 324 324.9 323.6 322.2 320.6 317.1 310.7 305.1 296.2 284.5 274.6 262.6 246.4 228.6 210.6 189.6 164.8 156.4 150.4 144.1 139.4 135.6 130.9 126.3 119.5 114.3 113.1 110.1 110.9 114 116.2 114.7 113.7 112.5 111.1 113.2 115.6 119.9 122.5 123.6 124.6 120.2 125.8 134.4 138.7 140.5 143.3 144.9 147.5 150 156.5 166.6 176 188.8 202.5 215 229.7 245.2 257.5 265.9 271.4 275.8 275.5 273.5 271 269.3 266.8 268.3 271 271.6 270.3 264 250.8 230.9 210.3 189.7 172.1 162.3 161.7 163.7 164.7 166.1 176.1 183.5 188.8 197 203.4 210 209.9 206 201.9 194.7 187 179.9 173.3 166 156.7 146.9 143.4 142.8 145.2 146 158.4 173.5 187.1 193.4 198.7 206.7 204.4 189.6 177.9 175.8 174.9 181.2 190.7 193.4 193.6 189.6 184.6 176.8 169.9 165.1 158.7 154.1 148.4 143.4 141.1 139.8 138.6 130.6 137 143.6 146.7 149.7 152.9 155.1 155.2 155.9 159.5 158.8 160.8 164.7 167.4 169.9 171.8 172.6 171.6 170.5 166.9 172.7 179.6 183.9 185.6 187.4 187.4 182.9 182.9 182.3 178.8 181.2 183.1
177.6 181.6 186.5 190.8 193 194 197.4 199.2 199.4 198.4 197.9 197.6 196.2 194.8 190.3 183.6 186.4 188.1 186.7 189 191.6 196.5 203 214.4 229.5 239.5 249.5 259.8 270 279.5 287.7 296 301.7 308.1 313 317.9 321.4 324.5 325.6 325.1 325 325.7 325 322.8 318.5 311.9 304.5 297.6 291.1 282.1 270.2 254.8 235.5 216.1 195.1 171.3 155.4 148.5 139.2 133.7 130 124.9 121.3 118.1 114.9 112.2 109.6 108.7 111 113.7 113.7 112.3 111.5 111.5 112.6 114 116.9 118 118.7 117.9 121.5 129.3 132.7 137.6 139.2 141.8 144.8 149.2 159.9 170.8 182.8 195.3 208.7 220.2 232.3 243.8 254.9 262.6 265.6 268.1 269.7 268.3 269.9 272.8 273 262.5 262.7 265 263.1 258.1 246.8 228.9 210.5 190.6 171.8 158.1 155.1 157.1 159 157.7 166.2 175.6 183.2 189 193.9 200.2 203.2 198.3 192.6 187.4 180.9 173.6 167 161.6 158.7 151.5 142.6 138.4 138.1 137.7 153.1 164.7 181 192.9 200.4 207 206.6 201.5 185.8 173.6 172.3 171 174.1 180.2 183.8 183.6 178.9 172.4 164.6 161.9 159.7 156.4 152.4 147.6 141.2 138.1 136.6 135 131.7 133.9 139.9 143.1 146.4 148.5 149.4 150.9 153.8 153.9 153.7 159.1 162.4 164.8 167.5 169.1 169.8 168.8 168 166.5 169 174.6 177.2 178.8 179.6 180.4 182.3 184.5 183.3 186.3 191.1 196.3
182.1 186.6 190.9 195 198.5 200.8 204.4 205.7 206.7 207.8 207.2 206.7 207.7 206.2 202.1 196.3 198 198.4 195.5 196.3 200.1 198 208.5 216.6 236 246.6 257.4 267.7 277.6 286.3 294.7 301.8 307.7 312.9 317.1 320.3 322.9 324.2 326.2 327.3 328.3 328.5 326.4 322.8 318.2 311.8 308.4 301.8 294.9 286.1 272.5 256.6 234.8 210.9 187.6 176.6 174.2 165.4 152.7 136.9 132.6 127.6 124.6 120 115 111.3 108.8 106.5 106.1 108.2 109 108.3 108.9 111.5 111.6 111.4 112.9 114 114.3 114.3 119.1 124.3 129.5 135.8 140.2 146.2 151.8 161.6 173.7 185.7 198.8 210.2 222.4 231.5 240.4 249.7 256 257.5 258.3 261.3 266 269.4 271.8 273.8 266.8 252.2 246 247 245.9 238.5 223.8 207.9 189.7 170.6 153.3 149.4 151 153.6 155.5 157 165.7 172.7 178.3 185 187.2 190.2 187.7 183.2 178.2 170.1 163.4 158.3 158.7 158 155.6 145.5 133.7 132.2 132.6 141.8 153.5 172.9 188.2 192.6 196.6 199 200.3 198.6 184.5 170.3 168.5 166.8 169.2 176.4 178 175 170.8 163.4 156.2 156.2 155.2 153.8 150 144.4 137.7 135.8 134.7 134.5 128.5 131.9 136.3 140.4 144.1 145.1 145.5 146.8 148.1 149.8 151.5 156.5 159.8 162.9 165.1 166.1 166.8 166.8 165.8 167.1 169.8 171.8 173.1 174.9 177.5 181.2 185.5 187.1 187.7 193.9 198.7 199.1
183.2 189.4 193.5 197.8 201.8 205.4 208.9 211.9 213.4 215 214.9 215.6 216.5 215.7 212.9 207.6 205.6 206.3 206.6 206 206.9 212.6 214.8 226.5 242.2 252.2 263.6 273.9 283.1 291.8 298.7 305.5 309.8 314.1 317.7 320.4 322.1 323.2 325 327 327 326 323.1 320.1 317 312.7 309.9 304.7 298.2 289 270 248.2 227.8 202.9 197 198.2 196.2 190.1 178.4 163.2 144.5 131.3 127.5 122.6 117 114.2 108.8 105.1 103.8 104.1 103.4 104.4 109.1 109.3 109.1 108.5 108.5 108.2 111.3 115.4 119.7 125.9 130.7 137.4 145.6 155.5 165.5 175.5 186.3 197.2 207.4 218.2 225.9 232 239.1 242.9 245.9 249.3 256.2 263.6 268.3 271.1 271.6 269.1 255.1 237.7 229.6 223.1 222.7 214.2 202.2 186.7 169.7 153.5 148 145.9 148.1 149.9 149.4 160.7 163.7 168.2 170.3 173.6 176.9 174.7 171.1 167.3 160.2 152 150.3 146.7 150.8 151.3 145.2 134.4 126.8 127.5 125.2 140.1 155.8 172.5 177.6 181 186.5 190.2 192.4 188.3 181.4 167.9 164.2 161.7 162.8 168.5 171.1 167.7 161.6 153.6 151.9 151.7 151.1 149.3 146.5 141.5 135.3 132.8 132.1 130.5 125.9 132 136 139.6 141.3 141.7 142.1 143.8 146.7 148.4 151 155.5 158.6 161.2 162.1 163 163.9 164.2 166 168.5 170.9 173.3 174.4 174.7 180.9 187.1 189.2 189.2 192.3 196.2 198 194.5
184.5 190.9 195.9 199.6 203.5 207.5 211.5 215.2 217.5 218.9 220.7 221.7 222.2 221.4 218.9 215.7 211.8 212.1 213.8 215.2 216.8 220.9 227.1 233.3 246.1 258 268.9 278.3 287.4 294.8 301.4 307.4 311 314.7 318.4 319.9 321.2 322.1 323.9 325.6 325.5 325.1 321.5 316.9 314.7 312.7 307.9 301.5 296.7 286.6 264.5 239.4 223.2 218.3 220.7 227.9 229.9 219.1 202.8 187.3 170.3 154.6 140.9 130.1 124.1 117.3 111.5 106.4 102.3 101.8 100.9 102.6 104.2 104.8 104.8 105.6 106.5 106.9 110.2 114 120.3 126 131.2 137.7 149 161.2 172.2 181.2 188.6 201.1 208.8 215.5 222.7 230.3 236.5 240.8 244.7 251.2 259.5 266.1 271.3 267.2 261 255.2 242.3 223.8 208.1 198.8 198.2 191.2 181.9 167.3 153.4 147.5 144.3 143.6 145.9 145 153.4 157.9 159.3 160.3 162.4 165.2 164.2 159.8 154.7 150.5 143.9 140.2 139.2 137.6 141.2 140.4 134.9 123.6 119.3 120 126.1 140.8 152.7 157.7 162.8 169.3 175.4 182.7 183.9 179.8 173.8 165.3 160.5 157.8 157.2 158.6 160 155.1 149 148.3 147.6 148.1 146.9 145.2 142 137.9 133.3 130 128.5 124.8 122.3 131.7 136.6 137.4 137.2 138.1 139.9 143.3 146.2 148.4 151.7 156.2 159.2 159.6 160.4 161.6 162.3 164 166.5 169.1 171.5 174 177 181.7 187.5 191 192.1 193.1 193.6 193 188.6 180.9
186.2 191.4 196.4 200.7 205.3 209.9 213.4 217.2 219.7 221.7 223.7 223.9 223.6 222.5 220.9 219.5 217.6 217.5 219.1 221.6 224.7 230 236.3 239.9 250.5 262.2 273.7 282.3 290.1 297.6 303.4 307.8 311.4 313.7 315.9 318 319.4 321.1 322.2 323.2 323.1 321.4 319.9 316.7 314.6 311.9 304.7 302.4 295.5 279.6 264.9 254.3 248.4 246.1 244.1 246.8 250.2 245.7 232.7 209.9 194.2 178.1 162.2 147.3 132.8 122.7 115.4 109.4 104.5 99.7 99.4 100.4 101.8 102.4 102.7 104.4 104.7 104.7 107.6 112.3 119.7 126.8 130.8 138.7 151.2 163.1 173.2 181.2 190.3 199.7 206.9 213.8 221.2 228.3 235.4 242.7 249.3 256.2 258.4 262.9 263.3 257.9 251 242.9 224 208.6 194.7 180.2 176.3 170.5 161.5 151 144.5 143.9 141.2 140 138.7 146.4 149.1 151.2 152.1 153.9 155.9 153.7 149.7 144.2 140.5 136.2 132.4 131 130 128.4 132.3 129.8 121.6 114.4 115.4 115.9 126.2 134.7 140 145 154.6 163.6 175.5 181.3 183.7 179.2 171.6 164 157.9 154.6 151.9 150.3 150.2 147 145 144.4 143.9 144.6 144.5 142.7 139.8 135.9 131.6 127.5 125.8 121.1 120.3 126 131.8 133.8 134.2 137.1 139.6 142.7 146.4 151.8 156 158.7 159.2 159.3 159.3 159.6 162 164.4 166.8 169.3 171.4 174 180.3 187 189.4 191 191.3 190.7 186.2 179.2 172 167.6
187.2 193.3 197.6 201.6 205.6 210.1 214.4 216.7 219.9 222.9 225.9 225 225.4 225 224.1 223.9 223.7 223.1 224.9 228.6 232.3 239 246 252.8 257.3 265.9 275.5 282.1 290.2 297.4 302.3 307.2 310.7 313.2 315.3 317.5 318.8 319.7 320.2 320.9 322.3 322.1 318.9 316.4 314.5 310.1 305.6 302.4 296.8 289.3 281.2 274.5 270 267.8 262.7 262.9 261.9 257.7 251.6 237.5 217 196.4 177.9 160.6 145 129.5 120 111.9 105.7 100 98.8 98.9 99.2 100 100.9 102.7 101.7 102.8 105.8 112.6 118.7 125.5 129.2 138.5 152.3 163.5 172.4 180.7 191.3 200 207.5 214.9 225.8 233.3 239.1 244.9 248.8 254.1 255 254.7 254.1 249.1 240.5 226.2 204.9 194.4 180.4 165.3 160.5 154.5 145.7 139.7 139.2 138.8 138.3 135.7 133.9 138.8 142.2 144.3 145.5 146.7 143.6 139.2 135.2 131.1 128.1 124.7 121.6 119.5 116.3 122.7 125.4 118.7 112.4 110.7 111.9 115.3 121.7 128.4 134.4 140.7 152.4 164.9 179.1 185.3 183.4 178.5 170.7 163.4 155 151 148.8 146.4 143.4 142.3 141.2 141 140.5 141.1 142.3 141.2 138.5 135 130.6 126.3 122.1 119.5 118 123.4 129 130.1 135.4 139.1 141.1 142.9 149.6 156.2 160.1 160.4 159.1 158.9 158.5 158.9 161.5 164.4 167.2 168.9 171.5 177.5 183.7 187.9 190 189.2 187.2 180 170.8 169.3 163.3 158.9
190 195.8 199.2 200.3 205.3 209.3 213 216.1 218.8 221.3 224.5 223.8 226 226.6 226.8 228.5 229.2 228.9 232.2 237.3 242 246.5 252.8 259.7 266.3 270.5 276.6 282.1 290.1 296.1 301.4 306.7 309.8 312.7 314.7 316.4 317.5 318.2 319.9 321.7 322.3 321.7 320.2 316 313.2 308.8 306.3 305.4 305.1 305.2 299.8 291.6 287 283.1 278.6 273.6 268.9 265.1 257.6 246 230.9 211.4 192.7 174.5 156.4 140.6 126.9 117.1 106.4 99 97.8 96.8 97.5 97.8 98.5 98.8 98.8 101.8 104 110.5 117.9 121.2 121.4 134.4 149.4 162.4 171.7 180.7 191 199.7 206.8 213.5 221.8 227.1 230.7 234.8 238.6 241.7 243.4 243.7 241.4 234.3 225 209.4 189.7 176.4 164 153.7 151 145.4 140 136.1 134.8 135.2 135.5 131.7 132.5 131.7 138.7 140.9 140 137.2 132.5 123.9 121.3 121.1 118.3 115.9 112.5 107.8 113.1 114.8 116.2 113.2 108.2 108.4 110.4 114.6 121.4 133.1 141.7 150.8 153.5 170.7 176.1 178.5 178.2 175.7 170.1 159.8 152.6 149.4 146.6 145.1 142.6 140.4 139.1 136.6 136.3 138.1 139.2 137.7 135.4 133.7 130.4 125.9 121.5 116.7 116.3 120.6 124 131 137.5 141.4 143.5 146.3 152.6 158.6 162.2 161.9 159.6 157.9 157.2 158.3 160.4 163.6 165.1 167.4 170 177.8 184.3 187.6 188.3 184.3 178.2 171.2 165.5 159.8 155.9 151.5
187.7 191.5 193.9 196.3 202.6 205.9 208.4 211.3 214.1 216.7 219.3 221 222.9 226.7 229.3 231.3 233.7 236.3 242.2 248.1 251.7 254.4 260.9 266 272.2 275.6 279.2 284.2 289.7 296.1 301.5 305.8 308.9 311.2 313.3 315.2 316.8 317.8 319.1 319.8 320.4 320.6 319.7 315.9 311.3 308.6 309 308.7 308.9 305.3 296.9 289.6 287.9 288.4 287.2 283 276.2 268.1 259.7 250.7 238.7 221.3 203.2 185.5 168.5 150.3 131.6 120.8 107.8 101.2 96.1 95.5 95.9 95.9 97 97 97 98.1 100.2 105 112 114.4 119.3 128 140.8 151.9 160.2 169.5 178 186.7 193.7 200.2 206.5 211.4 215.5 219.3 222.2 226.5 228.1 227.6 225 218.5 208.2 193.5 175.6 160.3 149.9 146.6 143.7 139.8 134.8 131.9 130.5 131.1 132.2 130.1 122.8 129.9 135.1 136.4 135.2 131.6 125.5 114.2 111.2 112.1 109.1 107.8 104.7 105.6 107.1 107 107.2 104 105.9 106.9 109.2 114.8 124.3 135.3 147.7 161.8 167.9 172.1 174.5 178.7 177.6 173.8 168.5 159.4 152.4 148.2 145 143.8 142.2 139.3 136.7 134.1 134.5 134.1 135 133.9 132.7 130.3 127 123.7 120.2 114.5 114.9 119.6 125.2 132.3 137.9 141.7 145.5 148.5 153.9 159.9 163.5 165.2 163.1 159.2 155.8 155.9 157.9 160.3 162.8 164.9 168.8 177.5 183.3 183 179.9 175.3 172.2 166.3 160.3 154.5 150.1 147
183.7 186.4 189.2 193 195.1 198.1 201 205.2 207.9 210.5 213.1 215.9 219.6 225.1 230.1 234.2 238.1 243.1 249.6 253.3 256.6 261.7 269.7 273.8 277.7 280.7 284.1 287.3 292.7 297.1 300.8 304.5 307.7 309.8 311.7 313.7 315.6 316.3 317.3 318 318.4 318.7 318.6 314.3 311.4 311.4 312.3 309.5 306.8 302.5 295.4 291.9 292 292.4 290.6 285.3 277 270.4 264.6 256 241.9 229.3 212.9 194.6 178.4 157 140.5 122.2 107 102.1 99 96.3 94 94.3 95.2 95.1 95.1 96.2 97.3 99.2 105 108.1 111.8 118.2 125.7 137.1 144.4 152 160.6 169.8 178.3 184.6 190.8 195.2 197.7 201.9 207.3 211.4 210.7 210.3 207.1 199.7 188.9 176.3 161.8 146 142.4 141 137.9 133.3 131.2 129.1 127.1 128 128.8 125.6 119.3 130.1 131.4 130.5 129.2 125.1 113.5 105.8 103.7 104 103.3 102.6 100 100.2 100.1 101 102.1 103.3 104.9 106 108.9 116.1 127.8 143.2 156.3 167.6 176.9 176.6 181.5 182.2 178 172 164.5 157.8 153.3 149.9 146.7 143.8 140.6 138.1 136 133.1 131.2 129.9 129.9 127.9 127.1 125.4 123.1 118 115 112 114.1 120.7 127 132.4 137.3 141.1 146.7 150.2 154.7 160.6 167.3 168.6 165 161.2 153.3 152.7 155 157.7 161.1 164.2 168 173.7 176.6 173.7 171.4 172.2 171.3 167.5 163 156.4 150.6 145.6
179.2 183.2 185 185.4 187.3 190.5 193.8 198.6 201.6 203.7 207.4 211.6 215.5 221.7 227.1 233.9 240.6 246.6 252.1 255.1 260 267.1 275.2 279.2 282.8 286.2 288.7 291.5 295 297.6 300.2 303.8 306.3 308.7 310.7 312.6 314.5 314 316.3 317.8 317.3 317.7 318.2 316.4 313.2 313.8 313.2 310 307.3 304.8 298.9 296.5 294.2 290.5 287.7 282.5 277.9 271.4 264 255.8 244.6 231.1 217.7 200.9 185.5 160.1 139.5 120.9 110.9 104.2 100.9 97.9 94.5 92.9 93.3 93.3 93.5 94 94.8 95.6 98.5 101.9 105.6 109.8 115 123.8 131.4 139 147.5 155.3 163.3 172.1 176.8 181.5 185.3 189.1 193.7 195.3 194.1 191.4 187.5 181.9 173.1 160.5 147.3 137 137 135.6 131.5 129.6 128.5 126.5 124.7 124.9 124.8 113.7 123.3 126.7 127.8 124.5 119.1 111.7 103.6 101.2 99.8 99.1 98.3 98.1 99 99.5 100.1 101.9 102.5 103 104.3 107.4 113.6 123.6 137.7 154.4 167.7 179.5 185.8 182.8 184.6 182.4 176.7 169.8 161.4 153.6 152 149.7 145.6 141.9 137.9 136.3 135 131.9 129.1 126.8 123.5 122.9 120.1 119.1 119.1 114.1 110 111.4 115.9 120.8 125.8 131.1 136.9 142.7 147.6 151.3 155 159.9 165.7 166.4 163.5 156.1 149.4 149.5 152 154.5 159.8 164.6 167.4 168 167.2 166.7 167.9 168.8 169 167.3 161.9 156.1 149 141.1
174.7 176.7 174.3 176.2 178.6 180.3 183.7 188.8 193.7 197.2 200.4 204 210.7 216.7 222.2 233 241.9 248.8 254.9 260 265.2 271.3 277.2 282.5 285.3 287.9 290.3 292.9 295.4 298 300.3 302.6 305 307.4 309.6 311.5 312.7 313.8 316.6 316.1 316.8 319.4 318.2 315.9 314.8 314.2 312.8 311 308.5 306 301.9 296.5 290.2 286.8 285.2 282.4 275.7 267.4 260.3 253.5 238.4 226.1 212.4 202.5 187 160.4 138.2 121.6 113.7 108.2 103.7 100.2 95 92.9 91.7 91.7 92 92.4 92.2 92.4 95.1 96.6 99.6 104.3 109 113.9 119.5 127.7 134.6 141.9 149.2 156.9 163.2 167.7 172.1 176.3 178.1 179.2 177.9 174.9 170.7 165.9 159 147.6 135.1 132.9 132.2 130.5 126 125.2 124.8 123.9 122.4 121.5 120.7 113.5 122.5 122.8 120.9 115.4 107.8 100.9 98.6 97.8 97.3 97.1 96.9 98.6 100 102 101.9 103.6 104.5 105.1 107 111.7 119.9 134.3 149.1 163.2 175.5 181.7 185.2 182.6 181.5 178.8 172.8 167.6 159.7 151.4 148.6 146.7 142 138.4 136.5 134.6 133.3 131.2 127.7 124.6 120.9 117.6 114.5 113.5 113.5 110.8 108 111.8 117.3 121.2 125.5 130.1 136.4 144 147.5 151.1 155.1 159.1 163.1 162.2 157 151.3 145 146.6 150.2 152.2 158.7 162.4 162.1 161.8 161.7 162.9 164.7 166.1 166.1 164.5 160 153.9 146.6 135.5
166.1 167.4 169.4 172.6 174.2 175.9 177.8 181.4 183.3 189.1 194.3 200.6 207.8 213.8 221.6 234.9 242.8 250 255.9 261.7 268.2 273.2 278.8 283 286 287.9 290 292.5 294.4 296.6 298.9 301.1 303.6 306 308.4 310.4 311.1 313.7 315.7 315.6 316.1 317.5 317 317.7 317.7 315.6 313.6 312 309.1 303.9 298.6 292.8 289.1 285.3 281.3 276.4 269.1 262.6 250 232.5 217 201.6 197 195.9 182.9 158.7 131.5 123.2 118 115.2 108.7 100.8 95.5 92.4 90.9 90.1 90.4 90.2 90 90.6 91.9 93.3 94.8 98.3 101.9 105.2 110 114.8 121.3 128.4 135.2 142.8 149.4 153.7 158.2 162.2 163.3 163.8 161.7 158.9 157.3 155.3 147.4 136.9 133.5 130.4 127 125.8 122.6 121.1 120.5 121.1 120.3 117.7 118.2 114.4 119.9 116.4 111.8 105 99.6 96.7 95.6 95.5 95.2 95.8 96.3 99.3 101 104.6 104 105.3 106.8 110.5 115.5 121.4 129.5 141.8 158.6 171.5 177.5 180.4 183.1 181.7 175.2 172.9 169.7 163.8 154.8 148.6 145.1 142.4 139.4 137.5 135.6 133.1 131.6 130 127.1 121.6 118.6 117.8 113 113.2 107.6 107.3 106.4 111.3 117.6 122.3 126.9 131.4 137.2 143.6 146.8 151 154.6 157.5 157.9 156.6 153.9 146.3 138.2 142.7 146.8 151 154.4 156.1 156.6 157.6 159.3 160.5 161.7 164.4 164.8 161.8 155.3 148.6 140.1 126.9
159.3 163.6 165.9 169.4 171.5 173.2 174.6 177.6 180.8 186.3 197.8 207.8 211.5 215.9 223.5 233.8 241.3 248.7 255.2 261.7 268 273.4 278.5 282.5 285.3 287.3 289.4 291.5 293.1 295.2 297.3 299.6 302.1 304.6 307 309.4 310.4 312.2 313.6 314.9 314.5 315.4 315.6 316.1 316.8 315.7 314 311.9 306.3 301.8 299 293.7 288.4 280.9 273.1 268.6 261.1 247.8 229.7 212.3 199.4 188.1 181 179.9 176.7 156.4 136.9 131.9 129.2 126 120.1 109.9 97.4 92.5 90.4 88.6 89 88.8 89.3 90.2 90 91 92.4 94.4 95.1 99.4 104.8 108.1 111.1 115.8 123.6 131.6 137.7 141.5 144.7 147.7 150.2 150.8 150.7 151.6 150.3 146.1 139.9 135.9 132 127.2 122.7 121.3 119.7 118.2 118.6 119.7 119.1 112.5 104.3 112.8 113.3 108.3 103.3 99.9 96.1 94.3 94.1 94.8 96.1 96.8 99.8 101.5 103.3 107.2 108.2 111 111.2 112.6 124.8 131.2 139.5 153.1 166.9 173 177.9 180.6 180.6 178.6 171.8 167 162.7 156.6 148.8 143.8 142.1 140.6 138.3 136.5 134.6 132.3 129.9 128.1 125 122 122.2 120.4 118.9 117 112.5 105.4 105.1 110 117.8 123.1 127.7 132.6 138.6 143.2 146.2 149.2 152.2 154.1 154.6 154.7 150.9 133 135.8 139.7 143.8 146.9 149.4 152.8 153.5 154.9 156.7 158.4 162.7 164.9 162.5 157.1 148.8 140 130.3 120.6
160.9 160.7 164.2 166.5 169.1 170.5 172 175.2 180.2 188.2 201 205.1 210.7 216.5 221.8 228.8 237.9 244.3 252.4 260 267.1 268.9 277.2 281 284.5 286.6 288.6 290.5 292.1 293.7 295.7 298.2 300.6 303.1 305.5 307.1 308.5 310.1 311.4 312.8 313.9 314.1 314.5 314.8 314.7 313.6 312.5 309.6 304.6 302.1 298.5 293.1 284.3 276.2 269.1 255 239.5 226.8 209.9 198.7 192 185 179.1 172.6 164.3 149.1 146.9 140 138.8 136.1 130.2 119.8 107.6 93.6 90.6 89.3 88.5 88.5 89.1 89.4 89.1 89.1 90.2 91.6 92.3 95.2 99.5 102.8 106.1 109.8 114.4 120.8 126.6 130.5 133.2 136.2 139.8 140.8 141.9 143.1 141 137 134.8 132.4 129 122.5 118.4 118.2 116.9 115.6 116.2 117.7 116 101.4 100.9 105.9 103 100.2 99.1 97 93.8 93 93.6 95.3 98.4 101.6 104.3 105.9 109.4 111.1 113.7 116.7 122 115.3 131 138 147 158.9 168.8 174.5 178.2 179.3 177.8 174.5 167 158.3 153.9 146.4 142.8 140.7 139.6 138.7 137 135.2 133.5 131.3 130.3 130.6 129.9 128.6 127.8 124.8 122.9 120.5 116 108 103 110.6 115.5 121.8 129.1 132.9 138.9 142.2 144.9 147.6 149.2 150.7 150.6 146.6 138.2 126.3 135 136.7 139.6 142.5 147.5 149.5 150.6 152.1 154.8 158.7 162.2 160.5 157.3 149.9 142.6 134.3 123.4 117
166.1 166.7 167.5 167.4 168.2 169.5 170.9 173.8 181 187.7 194.7 199.2 204.4 210.1 217.5 225.4 232.2 237.2 246.5 255.5 262.3 267.5 274.9 279.4 283 285.5 287.5 288.7 289.9 292.1 294.2 296.7 298.7 300.3 302.1 304.1 306.1 308.3 309.5 310.7 311.9 312.3 312.8 313.5 312.6 311.5 310.3 306.8 304.2 300.5 296.3 288.5 280.4 276 270 256.4 243.2 230.5 217.1 205.5 198.4 197 188.3 174.7 166.9 159.1 152.8 152 152.6 152.1 142.5 133.4 118.2 98.9 92.2 90.3 88.9 88.2 88.8 88.5 88.3 88.2 88.2 89.8 92.5 94 96.2 99 101.7 105.4 110.2 115.1 118.6 121.9 125.2 128.5 131.5 132.6 133.6 133.8 131.4 130.2 128.6 126.6 122.7 117.4 113.8 115.2 113.8 111.9 113.2 114.1 110 98.7 99 97.1 96.6 96.2 95.8 93.8 92.4 94.6 95.8 97.8 100.6 103.3 106.4 109.7 113.6 115.3 118.2 121.3 123.9 129.1 130.2 132.7 140.3 154.2 168.2 173.7 176.9 178.5 176.2 171.7 164.6 156.9 148.5 144.4 141.1 139.5 138.1 137.1 136.4 135 133.2 135.2 136 134.8 133.7 130.8 128.7 126.9 125.1 121.7 117.8 106.5 101.9 109 113.3 120.5 129.5 133.4 137.4 140.9 143.4 144.9 146.4 146.7 144.5 137.5 120 126.2 131.4 134.8 138.9 143.2 145.6 146 148.1 151 154 157.6 156.5 153.3 146.9 140.1 133.8 125.9 118.9 115.9
171.6 172 172.6 173.2 177.6 173.1 171.3 174.1 179.9 183.6 187 189.1 192.9 203.5 212.5 219.9 225.9 230.9 239.6 250.1 257.7 266.4 271.8 276.5 280.5 282.6 285 286.1 288.1 290.2 292.3 294.2 296.1 298 299.9 302.4 304.8 306.7 307.6 308.4 309.3 309.6 308.4 308.4 310.4 309.4 307.1 303.3 300.6 297.3 293.2 288.4 282.9 279.2 273.3 265.9 259.2 244.4 230.7 219.6 219.4 219.5 214.6 199.7 180.8 167.2 165.1 169.5 171.7 169.1 163.4 151.3 127.3 102.5 94.3 92.5 89.8 87.9 88 87.7 87.4 87.2 88.3 90.5 92.5 93.2 94.2 96.3 99.1 103 108.1 112.9 115.8 117.9 120.7 123.4 125.3 125.4 125 124.8 125 125.7 124.5 122.7 116.9 112.1 109.1 111.5 110.7 109.1 108.8 108.9 106.9 96.8 95.9 94.3 93 92.6 92.2 92.2 94.1 96.3 98 100.3 102.7 105.1 108.8 114.1 118.1 121.9 128.3 135.5 141.1 143.6 144.2 150 149.7 153.2 162.2 172.3 176.3 176.9 174 169.5 163.3 154.6 146.5 143.6 141.2 139.8 138.2 137 136.4 136.5 137.8 139.5 137.9 136.1 133.6 130 127.6 125.3 121.7 119.7 113.2 104.1 100.4 104.2 109.6 116.2 127.6 131.4 135.4 139.2 140.7 142.2 143.5 140.6 134.4 122.4 115.3 122.2 129.1 134.1 138.8 142.4 142.6 144.5 147.3 150 151.4 150.2 147.1 142.1 137 132.5 127.2 121.7 116.5 113.1
180.1 180.6 180.5 178.1 181.2 177.2 175.3 173 176.6 179.3 181.6 183.7 186.6 189.5 198.2 204.4 214.2 221.3 230.4 242.4 251.6 255 266 271.6 276.3 279.6 281.8 283.7 285.8 287.3 289.6 292 293.9 295.8 298.1 300.7 302.7 303.8 304.5 305 304.8 304.7 304.9 306.2 306.6 305.1 302 299.4 297 294.4 290.2 287.1 283.1 279.8 274.3 268.6 260.9 253.9 244.9 241.2 239.3 242.8 238.7 223.2 204.8 189.9 185.5 186.3 185.4 182.4 178.2 161.9 133 107.5 98.9 94.8 91.4 88.7 87.6 87.2 86.9 86.4 88.5 90.1 90.8 91.6 92.5 94.8 97.5 101.3 106.1 110 111.8 115.8 118.4 119.9 120.9 120 120.1 120.6 121.1 121 120.2 114 110.6 106.4 104.5 106.3 106.3 105 106 103.1 101.4 95.1 94.3 93 91.6 91 91.5 93.8 96.1 98.1 100.2 102.7 105.2 110.5 115.7 119.8 125.1 131.3 141.5 153.5 164.1 169.1 171 168.4 164.6 158.8 168.2 174.1 175.3 174.9 172.1 164.6 158.4 151.6 146.1 143.9 141.6 139.9 138.7 137.6 138 139.7 140 139.4 136.8 134.1 131.8 128.2 125.1 120.7 116.9 114.6 112.6 109 100.9 101.4 109.7 115.7 124.3 128.6 132.4 136 138.1 139.6 139.7 136.9 127.2 111.3 114.5 121.9 128.4 132.9 136.3 138.5 138.9 141.9 144.7 145.7 145.3 144.7 140.4 136.8 133.9 129.4 125.4 120.2 114.6 108.2
197.9 196 191.5 188.4 188.4 184.7 179.6 177.6 176.6 178 179.3 180.8 183.1 185.4 187.9 192.1 198.9 205.2 220.6 232.4 237.8 254.7 262.6 269.3 271.8 274.9 279.6 281.3 282.7 284.1 286.7 289.6 291.7 293.9 296.1 297.5 298.2 298.5 298.6 299 299.1 299.7 301 301.3 300.7 300 297 295.5 293.4 290.9 288.1 285.3 282 278.5 272.8 265.7 262.4 256.5 251.6 251.7 251 248.3 242.8 235 223.3 209 201.6 197.9 195.6 193 187.2 165.5 133.7 112.6 101.6 96.4 91.7 88.6 87.5 87 86.5 87.4 87.7 88.1 88.8 89.9 91.9 94.6 96.4 100.3 102.6 106.3 111.7 112.5 113.7 115.1 116.5 116 116.3 117.1 117.6 117 113.1 108.6 105.1 100.8 101.5 103.1 102.6 102.5 102.2 97.7 95.1 92.4 91.6 90.9 90.2 91 91.9 93.9 95.7 98.6 101.8 104.2 109.3 114.3 119.9 127.9 136.2 144.8 158.9 171.4 182.5 189.8 193.8 192.7 186.4 177 171.9 175.9 179 176.2 170.8 163.6 157.5 151.5 147.6 146.4 144.6 143.1 143.6 143.7 143.1 141.4 140.2 137.2 134.5 131.4 128.1 124.7 121.4 118.6 113.2 111.1 109.5 106.6 100 108.1 109.6 114.9 120.2 125.5 129.4 132.8 135.3 136.5 135.9 131 114.6 107.6 115.2 121.3 125.7 129.4 132.1 135 136.1 138.8 141.7 142.1 141.9 141.2 138.7 135.9 133.7 130.7 126.5 122.3 115.4 108
217.2 210.6 201.9 195.2 195 194.9 190.9 181.3 181.2 179.8 178.6 180.6 181.6 182.8 185.1 188.3 192.1 195.4 208.5 214.4 233.9 249.4 257.9 263.1 265.5 273.1 276.7 277.4 279.4 281 283.9 286.6 289.2 291.2 292.7 292.9 293.3 293.5 293.7 293.9 294.3 294.1 294.4 295.1 294.5 294 292.2 291.1 290.1 288.3 286.5 283.5 279.9 275.3 271.1 268.6 261.3 260.3 259.6 256.5 253.7 249 243.5 238.1 229.8 220 212.7 210.2 205.7 203.5 196 164.7 130.2 126.1 112.1 100.5 93.5 89.6 87.8 87 86.4 86.8 86.9 87.3 89 91 93.2 95.7 96.6 99.5 101.4 103.7 107 108 109.1 110.5 111.8 111.8 112.8 113.8 112.8 108.7 105.9 102.9 100 98.7 99.2 99.5 99.6 99.7 98.2 91.1 90.8 91.1 91.1 90.4 89.9 90.8 92.8 94.8 98.1 100.6 103.7 107 111.2 117.3 126 135.9 148.4 163.3 173.1 182.6 190.4 199.4 203.8 205.6 204.1 195.1 187 182.1 179.8 176.5 170 164.1 161.9 157.5 154.2 152.4 151 149 148.3 145.8 141.3 139.2 136.9 134 130.1 126.5 123.4 120.8 118.6 115.6 111 109 106.2 100.9 98.6 105.5 109.4 112.9 117.6 120.9 125.9 130.5 132.1 130.9 126.9 119.2 105.9 107.2 114.9 120.1 122.3 126.1 128.3 131.8 134.8 137.4 138.9 139.1 138.9 138.1 137.1 135.2 133.1 130.9 126.4 121.9 112.1 106.4
234 221.3 212.5 206.8 202.4 206.2 203.1 190.7 186.2 185.4 185.7 184 183.8 183 184.4 187.3 189.4 192 196.2 206.7 225.2 238 246.4 252.7 263 269.6 271.5 271.6 272.2 276.8 279.1 281.1 282.9 285.3 285.7 286.7 286.7 286.7 287.3 287.8 287.9 286.9 288.2 289.5 289.4 288.5 288.1 287.3 286.4 285.4 285 282.1 278.6 273.2 271 266 265.7 265.5 261.9 256.6 253.3 249.2 244 234.6 228.7 225.2 223.1 217.9 216.4 209.5 197.1 165.4 157.8 150.7 132.8 116.2 102.4 92.9 88.8 86.5 86 86.6 87.1 88.2 89.7 92.1 94.4 96.6 97.9 100.1 101.7 103.4 104.1 104.2 104.5 105.8 106.9 108.6 110.1 109.7 107.5 103.7 100.8 97.9 95.4 95.8 96.2 96.2 96.6 95.7 92.3 88.6 88.9 89.3 89.9 90 89.7 91 94.2 98.1 103.3 108.3 112.6 116.1 119.7 118.6 121.1 125.5 147.3 168.1 176.8 186.4 195.5 203 207.7 209.6 210.7 206.8 200.7 194.1 190.2 187 184.3 181.4 176.7 171.6 167.7 162.4 163.2 160.5 151.9 143.4 139.5 135.9 133.6 132 126.1 123.2 120.8 118.6 116.5 112.2 107.9 106.4 103.6 99.8 95.4 100.5 105.1 109.8 114.3 118.8 122.6 127 126.3 124 118.8 110.4 101.7 106 110 115.1 118.6 122.6 126.7 129 132.2 133.5 135.5 135.6 136 136.8 137.3 134.6 132.6 130.5 126 116.7 108.7 104
242.2 230.4 221.3 218 214.6 217.1 214.2 205.4 202.5 196.7 202.6 200.3 193.7 185.6 184 185.5 187.6 190.6 193.2 195.9 210 223.9 236.8 247.7 256.7 261.5 263.2 263.9 268.3 273.5 274.7 275.4 276.6 278.6 279.7 279 278.8 279 279.8 280.4 281.9 282.6 283.6 284.5 284 283.7 283.6 283.7 283.5 282.6 281.8 280.4 278.2 272.1 269.9 269.6 268.8 265.9 260.8 255.5 252.5 246.7 236.4 233.7 230.6 227.4 225 224.9 220.8 207.3 192.1 181.7 185.7 176.8 158.6 136.4 118.3 102.4 91.6 86.4 85.7 86.7 87.9 89.2 90.3 92.3 94.5 96.7 98.3 99.8 101.6 101.8 100.4 100 99.9 101.3 104 105.5 105.3 104.2 102.5 99.3 95.5 93.1 92.4 92.9 93.1 93.1 93.3 92.1 88.8 87.1 87.4 87.8 88.5 90.2 90.3 94 99.8 105.7 111.8 120.7 125 128.3 133.8 136.9 142.8 154.4 161 163.3 173.9 176.9 190.3 201.9 208.7 213.3 216.6 218.6 219.6 219.8 217.4 215.1 211.8 207.8 203.3 198.3 191.8 184.4 175.8 169.8 161.9 150.7 140.3 136.9 132.7 127.8 125.6 125.6 122.2 119.3 115.6 112.6 109.7 106.3 102.1 96.7 93.7 93.8 99.6 104.5 107.7 116.3 120.7 121.4 120.2 117.1 109.5 101 102.8 108 111.4 114.4 114.8 117.5 121.7 125.6 129 129.4 131.2 132 135.3 137.1 137 134.5 132 128.4 121.5 112.5 107.3 101.9
246.6 239 230.7 229.1 232.3 233.1 231.3 227.3 214.6 218.4 219.9 214.8 206.7 199.9 189.7 185.7 186.2 189.2 190.8 193.5 199.4 212.4 232.6 242.2 249.3 254.4 255.3 256.6 261.9 267.4 271.7 269.4 268.9 270 270.9 270.1 270.1 271 274 276.2 277.7 278.3 279.7 279.7 279.4 279.1 279.1 279.5 279.3 279.2 278.5 277.2 274.7 272.4 271.1 269.7 267.9 264.1 259.3 254.5 246.9 237.8 235.4 233.8 228.6 228.9 229.5 224.9 216.7 205.2 197.2 196.4 194 194.4 184.1 160.5 138.3 118.6 102.5 89.4 85.1 86.4 88.7 89.8 90.1 92 94.4 96.5 98.5 100.1 100.9 99.6 97.7 96.8 96.4 97.9 100.8 101 100.4 99.1 97.6 94.1 91.4 90 89.4 89.3 90.6 90.5 89.4 88.1 85.5 86.1 87.2 87.7 90.8 93.1 94.3 101.7 107 114.3 122.9 132 140.3 146.7 152.7 156.4 162.1 170.1 178.2 185.8 191.9 195.1 200.2 209 216.4 222.4 228.5 235.8 237.7 239.8 242.8 242.5 239.3 235.9 230.5 224.3 213.3 207.1 198.1 187.3 178.7 168.2 157 146.9 137.7 132.8 130.8 132.2 128.9 125 125.8 119.1 114.1 110.6 105.1 97.4 91.2 92.4 97.4 100.8 101.9 104.2 111.7 114.4 113.6 109.5 102.1 96.3 105.2 106.9 106.8 109 113.3 116.5 120.3 124.3 127 129.6 131.4 133.8 135.8 135.9 134.6 133 131.5 124.5 118.4 114.8 108.9 102.2
253 248 244.7 240 245.6 245.4 241 237.8 225.1 236.7 234.1 228.2 220.8 214.3 205 189.4 186.8 187.5 189.8 192.2 195 209.2 226 235 242.5 244.1 246.9 251.2 256.9 265.8 266.7 261.6 258.2 257.9 258.9 261.1 263.7 266.1 269.9 271.8 273.3 274.9 275.1 275.2 274.9 274.6 274.6 274.9 275.1 275.1 274.2 274 271.8 270.4 269.3 268.2 264.5 259 253.5 247.7 239 236.7 234.5 234 230.4 230.3 226.9 218 210 202.4 201.5 199.6 197.6 197.3 193.7 184.3 163.8 138.3 117.6 100.9 86.3 85.7 88.7 89.1 89.9 91.2 94.1 96.4 98.3 99.6 99.4 97.5 95.5 93.7 93.2 95.2 96.6 96.4 95.3 94 92.7 90.4 87.7 87.3 86.8 86.5 87.9 87.5 85.1 85.4 87.3 88.7 91.2 93.2 96.2 96.9 101 107.4 115.1 124.3 132.3 143.2 153.8 160.1 167.5 175.1 182.9 190.2 197.4 200.7 203.4 207.5 209 217.4 226.6 234.7 240.2 245 249.4 251.9 253.5 253.6 255 260.1 262.3 254.3 242.4 231.3 223 212.5 200.4 189.1 177.9 164.3 150.4 141.5 137.8 140.5 141 141.8 138.7 133 126.2 120.5 115 105.2 97.3 90.6 97 96.6 96.1 97.5 100.3 107.6 108.4 105 95.6 97.5 98.7 103.4 106.8 109.9 114.4 118.8 121.2 124.5 128.4 132.3 133.8 134.1 133.9 132.6 133.1 131.4 126.2 123.3 121.9 115.8 111 103.3
258.4 254.7 254.1 251.6 252.2 250.7 248 241 243.7 246.4 246 238 229.5 217.3 203 192.3 188.6 187.4 188.3 189.9 193.7 205.5 219.1 226.6 231.8 234.9 242.2 250.5 255.3 258.5 258.7 253.9 247.8 248.1 248.3 253.3 258.1 261.8 265.5 267.3 268.7 269.6 269.8 270 269.1 268.6 269 269.9 269.3 269.2 269.2 269.4 269.3 268.2 265.6 262.4 258.4 252.3 246.3 242 236.5 233.4 232.8 232.7 231 228 221.1 210.8 202.4 202.1 200.3 199.2 199 197.3 194.1 190.6 184.1 162.5 136.2 114 102.8 85.8 86.6 88.3 89.1 90.9 93.6 95.2 96.4 97.6 97.5 95.5 93.8 91.7 90.5 91.5 92.5 91.3 90.2 89 88.1 85.5 84.9 84.4 83.5 82.9 84.2 82.7 85.4 88.1 90.1 91.8 94.3 96.6 99.2 103.3 108.5 114.8 122.4 131.6 143 154.1 161.7 169.4 179 189.6 199.4 208.5 211.2 214.8 216.5 217.5 222.6 227.9 235.3 242.9 248.6 252.3 255.5 256.8 255.9 255.2 256.4 257 262.3 262.8 256.2 252.1 248.3 239.7 227.1 214.2 202.3 182 162.3 149.6 145.1 148.5 151.3 153.2 147.9 140.2 134.2 131.7 121.6 107.4 100.8 94.3 90.6 90.4 90 90.3 93.6 101.5 101.5 98.7 92.8 94.5 102 106.7 110.4 113.7 117.2 120.4 123.6 128.9 132.6 135.7 134.3 132.7 131.9 130.1 130.7 130 126.6 124.8 119.7 111.9 106.8 99.9
262.6 261.2 258.1 256.4 254.5 253 251.2 247.1 251.3 250.9 249.3 239.2 229 213.4 197.2 191.2 188.2 186.5 186.7 187.2 192 204.3 216.4 223.2 224.5 225.9 240.6 247.4 248.9 250.3 250.2 243.9 238.4 237.2 239.6 247.8 252.8 256.8 260.5 261.7 262.9 264.2 264.1 263.7 262.3 262.1 262.6 264.4 266.4 266.4 266 266.5 264.5 262.5 259.9 255.3 248.6 243.9 240 236.6 233.8 232.8 233 233.2 228.9 221.1 212.6 200.7 199.4 199.2 197.7 197.9 197.8 196.5 193.2 190.4 186.3 180.7 160.1 138.3 124.7 107 86.7 86.1 88.2 89.7 92.3 93.5 94.4 95.2 95.1 94.4 92.3 89.9 87.9 89 88.4 87.3 86.2 85.4 83.7 83 82.2 81.5 80.1 80.5 83.9 85.9 88.9 90.5 92.7 94.8 96.8 98.9 103.5 108 112.6 120.1 126.6 137.1 148.6 160 169.7 179.8 190 199.9 207.5 211.5 216 222.3 224.7 229.2 233.5 235.8 242.1 249.7 252.2 252.3 253.8 253.1 252.8 254.2 256.1 250.5 249 250.4 251.4 253.3 255.8 250.6 246.6 235.3 211.9 193.4 171.8 157.1 153.1 153.8 155.9 155 148 140.6 136.5 128.6 113.8 106.3 100.4 97 93.2 88.1 87.7 87.1 87.3 96.8 96.5 92.6 87.9 96.8 102.8 107.4 111.7 114.3 116.8 120.8 126.7 132.7 133.4 133.3 131.8 131.1 130.8 128.2 128.8 128.6 124.9 119.5 113.3 109.1 105.8 99
269.4 266.4 261.4 258.6 256.6 255.1 252.5 254.1 255.3 252.2 247.1 237.3 223.5 203.8 193.2 189.1 185.8 185 182.4 184.2 188.9 202.6 213.3 216.7 209.7 223.6 233.5 236.5 236.2 236.6 237.1 232.4 228.3 227.9 232.4 241.9 247.4 251.5 255.2 256.4 257.5 259.3 259.6 259 257.7 254.6 257.7 260.6 262.1 262.8 261.9 261.3 259.3 256.9 251.2 244.2 240 236.4 233.9 232.2 231.5 232 231.8 229.5 222.9 213.7 203 194.3 191.6 193.4 192.8 193.2 193.2 191.1 189.9 190.1 187.1 181.1 169.1 160.7 147.6 127.1 101.2 83.6 85.8 86.7 89.5 90.5 91.3 91.9 92.1 91.6 91.5 90.2 85.5 85.9 86.1 85.2 83.6 82.4 81.5 80.8 80.1 79.4 79.1 82.9 86.1 88.5 90.6 92.9 94.8 96.9 100 103.7 109.7 115.7 123.1 130.1 137.4 145.9 154.6 164.5 175.2 184.5 195 202.2 207.9 214.9 221.6 227.7 232 236.9 241.1 244.2 245.4 246.4 249.4 252.3 255.6 255.6 254.3 258.4 256.3 250.9 246.8 244.4 243.8 246.2 248.9 254 262.2 238.5 209.4 183.8 166.7 154.4 152.8 148.9 146.9 142.2 137.8 133.6 129.4 120.1 110 104.5 102.5 101.1 98.4 92.6 88.6 85.8 85.5 86.9 92.7 84.6 87.3 94.4 102 105.8 109.8 112.2 116.6 121.7 126.3 128.5 129.8 130.4 129.6 129.9 129.6 125.6 126.8 122.7 118.7 115.6 111.4 108.2 101 92.2
275.5 271.1 265.9 261.3 258.9 257.4 256.4 259.1 257.1 251.6 243 233.7 218.1 197.9 192.8 189.3 185.8 182.4 179.8 180.4 183 192.3 199.9 200.3 204.4 216.3 223.5 226.7 227.8 226.8 223.9 220 219.1 220.6 227.7 236 241.8 245.8 248.2 249.5 252.4 254.8 255.6 255.4 254 245.6 250.2 255.3 257.5 258 256.7 256.4 254.2 248.4 241.3 236.4 233.6 230.5 229.7 230.2 230.7 229.6 228.5 225.4 218 206.3 190.8 186.7 182.2 185 186.4 186.7 186.5 186.2 186.4 187.3 184.9 176.1 166.1 160.1 156.2 144.8 119 91.3 82.6 84.6 86.5 87.4 88 88.5 88.9 88.6 89.9 88.9 86.2 83.3 85.3 83.9 82.5 81 79.4 78.7 78.2 79.3 80.5 83.7 87.5 89.9 92.4 94.4 96.8 99 102.3 108.2 114.4 121.1 129.8 137.9 145.7 153.9 161.3 170.2 178.4 186.7 192.5 201.6 213.9 223.3 229.5 234 239.5 245.4 247.7 248.4 248.6 249.4 252.7 255.9 256.6 256.8 254.4 256.2 253.1 248.9 243.7 239.4 238.8 242.2 245.8 257.5 260.3 230.5 200.4 167.6 146 143.7 140.9 136 132.7 129.9 126.2 123 119.1 114.1 109.7 106 104.3 102.5 100.5 96.2 93.1 91.7 88.7 85.4 85.8 84 84.6 92 99.6 103.9 108.5 112.4 117.2 119 122.1 125.4 126.5 127.5 128.6 128 126.4 122.6 119.8 118.3 115.2 112.4 109.7 104.8 94.6 84.5
281.6 276.2 269.4 264.6 263 262.4 263.4 260.4 256.1 250.2 241.7 228.5 207.9 198.8 192.9 189.5 186.2 182.1 178.9 176.4 177.2 179.6 186.9 185.2 196.8 209.1 216 219.9 220.8 215.4 209.6 207.8 210.6 217.3 225 230.2 233.1 236.8 239.6 244.2 247.3 249.8 253.6 252.9 250.2 234.8 242.7 251.3 252.3 253 253.3 252.8 249.2 242.2 235.7 231.6 230.3 228.9 228.3 228.8 228.1 226.8 224.9 218.7 208.9 192.5 182.5 177.2 170.9 172.5 179.7 181 182.2 183 184.7 183.4 177.2 167.6 160.6 155.1 151.1 144.5 133.5 106.3 81.2 82.3 84.3 84.9 84.7 84.7 85.5 86.7 88.2 87.6 85.8 79.9 81 81.7 82 79.5 77.6 76.7 78.4 79.2 81.5 85.8 88.5 91.2 93.7 96 98.4 101.3 106.8 114 120.5 126.1 132.5 140.8 149.9 159.1 167.6 176.9 184.1 188.7 193.8 208.9 219.8 225.1 233 240.8 245.4 247.6 247.6 248.9 247.7 247.8 245.4 247.9 241.9 238.5 238.4 241.6 238.7 236 233.1 229 233.3 236.2 244.1 252.9 251 231.9 202.4 170.6 142.8 138.6 137 133.4 131.2 128.2 126.3 122.5 118.4 114.5 110.4 106.5 105.4 104.2 102.7 102.5 101.2 98.2 95.3 95.7 93.7 86.4 81.5 90.3 98.1 103.9 108.4 112.7 114.3 116.1 119.1 122.2 123.7 125 125.9 124.7 119.4 117.6 115.8 113.7 111.8 110.7 107.3 98 87.8 79.9
284 279.3 272.1 268.3 266.7 267.6 263.2 258.5 253.6 246.7 236.2 218.5 207.3 199.4 196.3 193.5 187.6 182.1 177.7 174.6 173.5 174 176.7 179.5 190.7 198.4 204.2 207.3 207.5 201.8 198.7 202 206.8 213.4 219.3 222.1 224.5 230.9 235.4 239.5 245 250.4 251.9 249.2 243.4 225.7 238.7 245.4 247.6 248.5 249.8 249.6 247.3 237.9 233.2 230.4 229 226.6 226.1 226.4 225.8 222.5 215.9 208.2 196.1 181.6 173.3 166.3 159.9 161.8 171.9 175.8 178.3 181.6 182 176.8 168.8 160 152.6 147 142 135 126.2 110.1 90.4 80.5 82 83.3 82.9 82.5 83 84.3 85.3 86 84.4 79.5 77.9 78 77.2 75.5 76.2 78.2 80 81.4 84.4 87.1 89.8 92.3 94.9 97.6 100.9 105.2 112.1 119.4 124.8 129.6 136.9 144.7 153.4 161.9 170.6 179.1 186.7 192 203.1 211.7 220.2 228.3 237.3 243.1 245.7 246.9 247.1 246.1 240.3 240.5 240.5 241.6 240.8 238.5 237.1 236.7 230.4 223.1 224.8 225.1 224 226.2 233.3 236.5 237.1 232.6 210.7 177.7 152.1 140.8 138 136.1 134.5 132 128 122.6 118.8 115.1 111.1 107.2 106.5 105.8 108.4 112.4 109.6 103.3 99.8 97.8 92.7 81.8 80.3 90 98.1 103.9 108.5 110.4 111.4 113.6 116.8 120.1 121.4 122.8 123.2 122.1 119.1 115.9 114.9 113.7 109.9 105 97.7 90.7 82.9 78
285.2 280.9 273.4 269.9 268.7 263.2 259.8 254.1 248.7 238.4 224.5 215.3 206 204.2 204.1 201.4 192.7 181.7 176 173.5 171.9 171.4 172.5 173.5 179.3 189.5 192.6 191.8 191.3 191 193.1 196.6 201.3 206.9 211.7 212.9 219.5 226.9 230.6 235.9 244 246.7 247.3 246 238.2 219.5 235.6 239.8 242.6 244.3 245.7 245.2 241.6 236.5 232.7 229.2 224.9 218.7 221.6 222 218.3 214.5 206.2 197.4 187.8 178.7 169.6 158.1 153.3 153.3 164 169.9 174.9 177.1 173.7 167.5 161.9 153.4 142.9 134.7 128.9 120.9 112 101.6 95 82.3 79.9 81.8 81.9 81.4 80.9 81.6 82.2 82.4 81.8 77.5 75 74.3 75.1 76.3 78.7 81 82.6 83.7 85.9 88.6 91.6 94.7 97.6 100.8 104.2 109.8 116.3 124.3 130.1 133.2 140.1 146.3 155 163.7 172.4 181 189.3 199 207.2 215.2 222.9 233 239.2 243.4 245.4 244.3 242.8 239.5 239.9 242.3 244.5 244.3 241.8 238.5 238.5 236.3 232.2 223.1 215.4 215.1 211.4 213.4 216.5 221.7 223.3 222.1 209.4 181.2 162.7 148.8 142.1 143.7 144.3 142.8 137.1 129.6 119.1 115.7 111.9 108.9 108.5 111.3 115.4 115.2 109.2 102 99.3 96.8 90.5 80.7 81.1 91.7 97.4 102.1 105 107.7 109.9 112 114.8 118.1 119.3 120.6 120.4 119.3 117 115.1 114.2 113.3 109.8 102.2 91.3 84.4 80.3 76.9
285.4 279.8 274.6 271 264 258.1 255.2 246.9 241.3 231.1 219.6 210.5 212.5 212.1 213.3 210.9 199.4 184.8 175 172.4 170.5 169.3 168.8 169.3 170.2 175.2 179.7 180.3 182.5 185.8 186.6 191.7 194.5 199.2 201.1 206.4 212.3 219.7 225.9 232.8 238.4 242.7 243.6 241.9 233.5 213.9 229.3 234.6 237.6 239.6 240.5 239.7 238 234.8 228.3 221.8 216.7 205.4 211 210.2 205.8 202.1 196 188.8 182.3 177.3 169.6 153.1 149.6 148.3 156.5 164 166.5 166.9 163.6 159.6 153.4 143.6 132.9 122.7 115.9 111.2 105.7 98.7 93.5 82.6 78.6 80 80.5 80.4 79.7 80 80.4 79.9 77.3 74 75 79.8 82.4 82.8 84 83.8 85.2 86.4 88.2 91.2 94.9 98.7 101.8 105.1 107.8 114.1 119.1 128.1 134.6 138.3 143.2 148 156 164.7 173.5 183.3 192.2 201.7 210 218.7 228.1 235.1 238.9 242.6 245.4 243.5 240 238.8 240.4 242.5 244 242.3 238.7 238.1 238.7 239.1 228.4 219.2 210.9 197.4 197.6 200 206.5 211.8 213.7 209.3 198 184 177.7 163.7 150.9 149.6 152.8 150 141.4 132.1 121.3 116.7 112.9 114.5 119.2 122.1 120.4 113.8 106.5 101.9 98.7 95.8 89.4 78.7 85.2 91.8 95.1 99.4 102.4 106.1 108.9 110.9 113 115.9 117.2 118.2 117.7 117.5 116.4 115.4 114.1 111.9 105.3 96.3 89.3 81.9 78.3 74.8
285.8 280 274.9 266.8 259.5 250.8 244.8 241.4 231.2 225 215.6 216.7 216.7 217.6 218 217.3 207.3 193.4 179.7 174.4 170.6 168.6 166.6 166 165.8 166.2 169.9 173 176.5 179.9 184.2 186.7 186.9 186.5 192 198.2 206.7 213.9 216.9 224.5 232.3 238.2 239 233.6 224.9 205.9 219.6 228.9 233 234 234.6 233.8 230.3 225.3 217.6 210.9 203 192.3 194.1 194.1 190.6 186.4 182.9 179.4 178.6 175.1 166 146.1 144.3 143.9 150 156.2 158 158.6 155.8 151 142.6 130.8 122.6 112.4 108.3 104.6 101.5 96.1 90.7 83.7 78.7 77.4 78.5 78.4 78.2 78.1 78.2 77.4 73.8 74.6 79.8 85.7 89.3 90.9 90 88.7 88.7 89.4 92.7 95.3 99 104.5 109.7 111.4 114.7 118.4 125.7 131.7 137.2 142.1 147.6 149.9 157.4 165.7 175.7 185.7 194.7 203.7 213.6 225.7 233.5 235.7 237.9 240.4 237.9 237.5 237.4 237.8 238.1 240.8 241.2 240.2 235 232.6 232.6 230.2 218.2 208.8 195.2 182.2 183.4 191.3 198.2 201.6 203.3 199.7 189.6 186.5 180.9 170.1 158.4 155.5 153.5 147.9 140.9 135.4 127.8 119.2 118.4 127.5 128.9 126.4 121.9 112.3 105.5 101.8 98.6 95.6 90.1 77.2 83.9 89.5 92.9 96.5 100.5 104.2 107.7 110 112 113.9 115.1 116.2 118.3 117.4 116 115 112.1 107 99.5 93.6 86.3 79.6 76 72.4
