ncols 200
nrows 82
xllcorner 260000
yllcorner 245200
cellsize 50
124.4 124.7 120.2 119.5 120.4 120.4 120.3 121.5 123.4 124.1 125.7 128.8 129.9 131.9 132.7 131.9 130.2 130.9 133.1 135 136.3 139.1 143.6 148.8 152.7 156.7 160.5 166.1 171.4 180.4 186.6 192.7 199.6 206.1 213.2 219.4 225.1 234.2 242 249.2 256 263.9 270.6 276 282.7 287.5 291.8 296 299.3 302.4 304.8 307.9 310.8 312.8 314.8 316.8 318.9 320.7 322.4 324.3 326.2 327 327.7 328 327.5 326.4 325.4 322.9 320.2 322.7 322.5 322.4 323.2 324 325 325.9 327.2 327.9 328.4 329.4 330.5 330.4 329.2 328.1 326.6 324.3 321.4 320.7 321.5 322 322.3 321.5 320.9 320.6 321.3 321.6 321.8 322.7 323.5 324.5 325.7 327.4 329 330.3 331 331.5 331.8 334.1 336.8 339.3 342 345.3 349.7 357.2 367.6 381.9 391.2 398 404 407.7 408.4 413 421.4 426.5 428 425.4 418.3 410.3 395.6 388.9 379.8 375.8 375.6 374.3 369.7 363.3 351.6 329 307.4 293.4 285.9 267.4 267.9 261.9 256.3 253 249.7 247.4 244.9 242.8 240.2 239.9 240.5 241.1 242 243.1 247 252.4 260.4 273.2 283 292.4 303.6 313.2 321.2 332.3 343.7 356.8 364.6 364.3 362.7 356.2 347.1 341.9 338.9 338.2 339 336 330.9 328.9 327.7 327.6 327.2 326.7 327 327.5 329.3 332.9 338.1 345.1 350.3 356.6 356.9 355.9 353.8 351.1 346.2 342.8 339.3 336.7
119.7 119.5 119 119.5 120.2 120.3 120.4 122.2 126 127.8 125.9 127.6 131 133.8 135.5 134.7 131.4 132.2 134.3 135.8 137.4 141.5 146.1 150.1 154.7 158.7 162.6 167.9 174.4 183.5 189.2 194.9 203.1 209.5 216.1 221.7 227.4 233.7 240.9 248.4 254.9 262.3 268.9 274.8 280.3 285.1 289.9 294.5 298.1 301.5 305 308.1 310.1 312.1 314.1 316.1 318.3 320.5 322.5 324.7 326.7 327.5 328.2 328.9 328.8 328.8 328.4 327.5 325.6 326.5 326.2 326.3 327.3 327.7 327.4 328.4 329.2 329.8 330.4 330.9 331.5 331.8 331 329.6 328.1 326.7 325.2 324.5 325 325.5 325.9 325.1 324.6 324.3 325.2 324.1 324 325.4 326 327.2 328.4 330.1 331.4 332.7 332.6 332.8 333.4 334.8 335.1 336.8 339.6 342.7 346 351.7 365.6 381.5 394.7 401 406.2 407.3 408.2 410.5 418.3 423.3 423.6 421 415.2 399.1 387 379.5 372.2 371.3 372 372.1 370.1 352.5 332.5 312 291.7 281.8 272.6 259.2 257.1 253.6 249.7 247.6 245.6 243.1 241.7 240 239 239.4 239.9 240.7 241.9 243.6 249.5 259.6 270.9 285.1 305.6 318 326.2 332.5 338.4 346.2 353.3 362.2 366.6 366.4 364 356.7 348.2 343.5 343.2 344.5 342.6 337.8 332.9 328.5 326.5 326.1 325.9 326.3 326.8 327.5 330.5 336.5 345.5 352.8 355.6 357.2 355.5 353.9 350.9 347.2 342.2 337.9 334.1 328.7
119.6 119.2 119.1 119.3 119.8 120 120.6 124.2 128.7 130.9 127.9 128 131.2 133.7 135.9 136 133.4 133.9 135.9 136.5 139.1 143.4 148.1 151.7 156.4 160.7 164 170 176.5 185.6 192.1 198.6 205.1 211.4 216.2 221.8 228.6 234.7 241.5 249 257.6 264.7 270.2 275.7 280.7 285.4 290.2 294.2 297.7 301.3 304.9 307.4 309.4 311.4 313.4 315.3 317.7 320.3 323.1 325.2 327 327.9 328.6 329.3 330 330.3 330.4 329 328.9 328.5 328.8 329.2 329.7 330 329.7 330 331.1 331.7 332 332.2 332.4 333.4 332.7 331.7 330.4 329.4 328.2 328.5 328.5 329 329.5 328.6 328.3 328.5 327.6 326.3 325.9 327 328.2 329.7 331.6 333.4 334.6 335.9 335.2 335 334.5 335.1 335.5 336.4 339.1 340.6 343 352.3 368.8 383.7 398.7 409.3 410.1 411.5 411.1 410.9 414.5 417.5 416.8 415.8 403.1 388.7 376.7 367.6 365.4 366.9 368.4 365.2 350.9 334 313.3 292.3 273.2 266.3 259.4 253.8 250.5 247.6 245.2 243.1 241 239.6 238 238.2 238.6 239 239.9 240.7 242.9 248.4 260.6 272.4 285.3 306.6 327.8 340.7 346.1 350.5 355.2 360.9 363.4 370.3 370.6 368 361.6 355.5 349.6 349 350.3 350.9 344.8 339.5 334.1 329.9 326.7 325.4 325.6 326 326.5 329.1 336.8 348.3 357.7 357.4 357 355.4 353.7 351.1 346.7 342.4 336 331.7 327.6 320.5
119.1 119 119.3 119.5 119.7 121.3 124.9 128 130.5 131.7 128.3 129.3 131.8 135.6 136.8 136.9 135.5 135.8 137.5 139.5 142.5 146 151.7 154 157.6 162.2 166.5 171.4 177.7 187 193.6 199.9 205 210.9 216.2 222.8 229.8 236.6 242.9 249.8 260 267.2 272.1 276.4 281.2 285.9 290.5 294.5 297.9 301.7 304.9 307.3 308.8 310.7 312.7 314.9 317.9 320.5 323.1 325.8 327.2 328.2 328.9 329.5 330.3 330.8 330.3 329.6 328.8 328.7 329 329.1 329.5 329.8 329.6 329.9 330.8 331.7 332.9 333.1 333.3 334.8 336.3 336.5 335.6 332.6 332.4 333.2 333.5 332.9 333.5 332.6 331.5 330.6 329.7 328.5 328.2 329.5 330.8 332.7 334.8 336.7 338.3 340.8 342.3 340.9 337.1 335.8 335.9 335.9 338.3 338.9 341.6 352.8 370.9 387.6 404.4 414 413.3 412.4 411.3 411.7 412.7 414.8 411.7 406 391.7 381.3 368 359.2 359 360.3 352.8 342 329.8 315.6 294 273.3 261.1 253.3 249.6 246.2 244.5 242.5 241.3 239.5 237.5 237 237.3 237.7 238.2 238.8 239.9 242 248.3 262.2 274.3 285.9 305.8 330.7 343.6 350.5 354.9 361.6 369.5 370.4 374.2 375.2 370.5 363.2 359.1 355.4 354 355 355.2 352.5 347.9 343 337.6 332.4 327.5 324.9 325.7 325.9 327 335.1 349 359.8 362.2 357.9 356.3 354.4 352.5 348.6 341.8 334.6 328.6 324.7 320.4 316.5
119.6 119.7 119.2 119.6 120.6 123.7 127 129 127.9 128.2 129.1 130.6 132.2 135.2 137.5 137.8 137.4 137.3 139.5 142.8 145.6 149.6 153.9 156.7 159.2 162.9 167.7 173.8 180.7 187.7 194.4 199.9 205.5 210.8 216.4 223.5 232.3 239.6 245.7 252.2 260.1 267.8 273.1 277.3 282.2 286.9 290.8 295.2 298.6 301.8 304.7 307 308.6 310.1 312 314.9 318.1 321.2 323.7 325.5 326.9 328.3 328.8 329.3 330.3 329.9 328.8 327.9 325.6 323.8 324.1 325.7 326.7 327.6 328.2 328.9 330.2 331.3 332.7 333.3 334.3 335.9 337.3 338.5 338.4 337.9 338.1 338.7 339.4 339.3 338 336.6 334.4 332.8 331.7 330.6 330.8 332 333.7 335.8 337.8 339.7 343.5 348.1 350.8 348.9 343.4 338.2 337.2 337.1 337.7 339.6 343.1 358.2 373.3 390.7 408.8 417.9 418.2 413.4 414.6 414.2 412.3 410.8 409.4 398.8 384.2 374.3 356.2 348.6 341.5 337.7 330.9 321.6 306.7 289.8 269.9 255.2 247.4 244.5 241.7 240.4 239 238.7 237.3 236.4 236.1 236.6 237.4 237.7 238.1 239 240.7 247.2 260.6 275.2 285.7 300.9 324 336.9 345.7 352.5 363.2 373.3 376.5 379.4 379.2 376.8 368.5 364 361.1 359.9 359 359.5 359 355.1 351.4 348 341.8 335 328.8 324.9 324.8 326.2 334.6 346.7 357.8 362.1 359 355.8 354.5 352.3 348.9 342.3 333.1 326.1 322.1 318.9 316 314.4
119.7 119.8 119.3 119.7 126.3 124.9 124.7 126.4 128 130.9 131.4 132.6 134.8 135.8 137 139.1 139.2 139.1 144.5 145 147.8 150.5 153.8 157.4 161.2 165.4 171 177.5 183.4 190.2 195.3 200.9 206.4 211 216.6 223.9 232.9 240.5 246.5 254.8 261.3 267.2 272.1 278.2 283.3 287.5 290.3 293.8 297.2 300.4 303.4 306 307.9 309.4 311.7 314.6 317.7 320.9 323.5 325.1 326.6 328.1 328.7 328.1 326.2 325.6 324.2 322.2 318 315.3 317.4 319.9 322.2 323.6 324.7 326.1 327.1 328.1 330.9 332.9 334.3 335.4 337.3 339.1 339.3 340.7 342.8 344 344.6 343.4 341.7 339.9 337.4 335.5 334.1 333 333.3 334.6 336.4 338.2 340.1 342.3 345.4 350.1 355.4 354.5 350.7 344.6 340 339 339.4 342 351.6 365.7 379.7 393.3 410.1 417.2 419 416.8 415.6 411.8 408.2 407.1 403.8 390.5 378.6 364.1 348.4 333.3 322.3 315.4 308.3 296.6 281 264.8 249.8 242.5 238 237 236.1 235.1 234.7 235.3 235 235.3 235.5 236.1 237.2 237.8 238.2 239.7 245.8 257.2 274.8 285.1 294.2 311.2 330 342.9 352.5 361.9 376 382 383.7 383.2 382 375.4 368.7 365.9 365.8 366.5 364.1 364 362.1 358.9 355.6 351.9 345.3 337.7 329.2 324.7 325.3 330.5 339.4 348.1 355.4 354.8 352 350.7 350.2 347.9 342.4 333 325.6 321.7 318.3 314.9 314.1 314.2
118.9 119.7 125.2 127.7 128.8 129.1 126.5 128.2 132.8 134.1 134.4 135.7 137 137.7 138.3 139.7 141 140.7 141.5 144.5 148 150.6 154 157.3 163.2 168.1 173.6 178.8 185.6 191.4 196.6 201.8 206.8 211.5 217 224.3 233.1 239.8 246 254.7 260.5 267.4 272 276.1 281.6 284.3 286.7 290.8 295.4 297.8 300.7 303.6 305.1 307.4 311.1 314.2 317.3 320.6 322.6 323.8 325.1 325.2 325.1 324.7 322.4 319.1 315.7 313.6 311 309 309.4 311.8 313.8 316.1 318.5 320.5 322.8 325.4 328.4 331.2 333.2 334.9 337.5 339.3 341.1 343.5 345.9 347.7 348.7 347.8 345.8 342.9 339.9 336.8 335.6 334.5 334.6 336.4 338.5 340.4 342.5 344.9 350.7 357.3 360.4 360.4 356.6 350.7 345.2 344.2 345.1 350.5 361.5 373.8 384.7 393 406.6 412.4 413.3 413.6 413.2 409.9 404.1 402.2 393.8 383.3 372.4 354.4 342 322.7 305.5 290.4 282.7 271.1 256.2 246.3 239.3 234.2 232.1 232.3 232.3 233.2 233.8 234.4 234.6 235 235.4 235.9 236.7 237.7 239.5 243.4 253.1 267.4 281.7 291.8 309.4 330.6 344.2 353.3 360.6 371.6 385.3 388.6 387.5 386.1 382.8 374.2 371.5 371.9 372.4 371.9 374.1 370 366.6 363.8 360.4 356.9 351.2 338.1 328.7 324.7 324.9 330 337.5 341.6 340.2 339.3 341.3 345.1 345.6 341.3 335.9 325 320.1 317.6 315.9 313.9 315.2 315.7
117.8 124.9 127.6 127.9 129.7 131.3 131 131.7 132.5 134.2 135.6 136.6 137.6 138.4 139.4 140.7 142.1 143.4 143.4 143.5 146.7 151.3 155.3 160.2 165.1 171.2 176.4 181.1 186.4 192.4 197.7 202.1 206.8 211.1 216.6 222.6 230.4 237.7 243.7 250.9 257.6 263.5 267.7 269.5 273.7 276.7 279.6 287.4 289.4 291.5 294.5 298 300.6 304 308.7 313.1 316.4 319.6 320.9 322.1 321.5 320.7 319.8 318.4 314.7 309.6 306.3 306 306 304.8 302.9 303.9 306.4 309.3 312.6 316.1 319.7 323.1 326.1 329.9 332.9 335.7 338.9 342 345.4 347.9 350.3 351.8 353 351.6 348.7 344.8 341 337.8 336.3 334.9 336.2 338.3 340.3 342.5 344.9 350.2 357.9 363.1 367.3 367.4 361 355.4 353.4 357.9 363.3 366.9 371.6 380.7 392.8 395.1 399.5 404.7 408.2 409.5 410.3 406.8 400.6 397.8 387.1 379.4 365.7 353.1 338.3 314.1 294.1 270.5 261.8 250.7 241.9 235.9 232.3 231.3 231.1 231.4 232 234.2 235.4 235.8 235.9 235.8 235.9 236.3 236.8 239.1 244.8 251.6 265.8 282.6 296.9 311.6 332.8 345.6 353.9 361.1 370.1 383.8 393.6 390.8 391.1 387.9 380 376.4 374.2 374.8 376.9 381.1 380.5 376.9 374.9 370.1 366 362.9 349.6 333.8 329.3 325.6 324.7 319.6 325.4 325.9 328 332.3 335.5 339.3 337.2 332.1 323.3 319 315.5 311.8 311.1 309.9 315.2 315.8
120.1 124.7 127 129.2 130.5 131.6 132.3 133.2 134 134.8 135.7 136.7 137.7 138.7 140.1 140.8 142.5 143.8 144.8 145 145.4 147 154 160.2 165.6 171.5 176.7 180.6 184 190.4 196.7 201.1 205 209.2 213.9 219.2 225.4 231.6 237.4 244.2 250.5 254.1 258.2 260 264.4 268.6 273.2 276.9 279.6 282.1 286.7 288.2 291.3 295.9 299.9 305.4 309.8 314 316.2 317.1 316.4 315.7 313.8 311.4 306 301.7 298.7 299.9 300 299.6 298.5 299.7 301.3 303.6 306.2 311.5 316.3 320.2 324.1 327.7 331.8 336.3 340.5 345 349.1 352.1 354.7 356.5 356.9 355.3 349.8 345.6 340.5 337.5 336.6 335.9 338.1 340.2 342.4 344.6 350.4 358.2 365.6 371.5 373.2 374 366.3 360.4 361.2 366.4 372.9 374.1 378.3 387.8 394.5 399.9 399.4 400.9 404.2 406.2 405.8 400.1 397.9 388 382.7 375.8 361.4 351.7 327.5 301.2 281 262.8 245.7 240.2 234.2 231.8 230.3 230.3 231.1 231.9 233.5 235.4 236.6 237.5 237.4 237.3 237 236.8 240.4 244.7 252.7 267.5 286.4 304.1 322.1 337.4 349 358.9 363.6 370.4 384.3 392.3 391.4 392.7 393 384.3 379.3 377 377.7 382.4 387.9 388.1 384.9 384.4 380.3 374.4 369 364.1 345.6 334.1 330.9 331.7 333.1 328.4 318.7 320.8 324.4 330.5 331.1 330.4 326.8 320.7 319 314.5 308.1 307.2 306.7 306.5 306.1 307.8
123.6 126.1 127.3 128.2 129.9 131.7 132.7 134.3 135.1 135.8 136.8 138 139 140.2 141.3 141.3 141.9 143.7 145.5 146.7 147.6 149.6 149.9 158.1 164.4 169.9 174.4 178 182 188.4 194.3 198.8 202.3 205.5 209.7 214.6 219.1 225 230.7 235.8 239.8 243.7 246.5 248.1 251.6 255.3 261.9 264.8 269.1 270 271.7 274.5 279.8 282.9 288 293.1 297.6 303 307.9 307.3 306.8 305 302 299.3 296.2 293.1 292.6 293.1 292.5 292.9 293.6 295.8 297.2 298 300.4 307 312 316.5 320.3 324.1 328.1 332.6 339.6 345.9 350.7 354.9 357.3 358.8 359 358.1 353.1 346.6 341.3 339.1 338 337.3 338.9 341.2 343.6 348.6 358 365.9 373.9 381.4 378.6 376.9 369.1 365.3 366.2 372.3 374.7 376.2 383.5 391.7 396.4 400.4 401.1 400.9 403.8 407.7 400 396.9 388.6 382.2 375.6 367.4 358.4 331.1 307 283.3 264.6 248.3 239.2 234.3 232.4 229.9 230.1 231.4 233.8 234.9 236.1 236.8 238.1 238.7 239.5 240.2 241.1 242 247.4 256.4 269 282.4 304.2 321.5 339.5 353.3 363.8 368.5 375.1 385.8 391.9 390.4 392.7 391.7 386.5 382.2 379 379.6 384.5 389.6 390.3 388.3 387.8 384.3 379.3 374.3 371.4 359.7 340.6 336.5 337.3 337.6 340.9 333.1 320.2 318 320.9 325 323 319.2 314.7 312.8 310.1 309.7 311.2 314 312.7 310.5 306.2 305.6
124.6 125.6 126.8 128.5 129.6 131.3 133.2 134.4 136.2 137.1 138.8 139.8 141.3 141.8 142.2 142.6 143 143.6 144.8 147.6 149.9 152 150.5 154 160.2 167.3 171.9 175.9 180.2 185 190.9 195.7 198.8 201.8 205.3 209.6 213.3 218.2 222.4 225.7 228.1 231 233.7 236.2 238.2 241.5 247.3 253 255.1 257 258.7 263.2 267.8 271.9 277.4 282.2 286.3 294.6 298 297 296.4 292.9 288.9 285.5 284.6 284.7 285.6 285 284.4 284.3 287 290.8 292.3 293.1 296.2 303.4 307.8 310.8 315.1 320.1 324.4 330.9 337.7 345.1 351.4 355.5 358.1 359.5 359.8 359.8 356.1 350.5 344.1 341.3 340.2 339.6 339.3 342.4 345.5 354.9 365.1 373.8 382.7 386.5 383 379.6 372.7 370 371.1 374.9 375.5 378.9 389.1 398 400.5 400.3 401.4 402 405.7 402.3 398.1 390.8 384.3 378.4 366.8 353.2 330.5 308.6 286.5 265 250.2 239.1 232.2 230.6 229.6 229.6 230.4 233.9 236.3 238.2 238.2 238.8 240 241.3 242.8 246.4 248.7 253.6 262.6 274.1 286 299.6 320.1 333.5 351.4 364.6 373.8 379.9 385.5 392.3 387.8 389.2 388.2 381.6 378.7 380.8 381.4 383.8 386.9 389.3 391.3 390.3 386.7 381.7 377.2 373.6 365.7 349.9 340.7 343.3 346.9 346.7 342.6 336 324.1 317.5 317.1 318.3 315.4 313.7 314.5 313 313.3 315 315.2 314.9 314.3 313.8 312 310.6
124.8 125.9 127.5 129.4 130.8 132.6 134.3 136.1 137.5 139.4 141.3 142.5 143.3 143.4 143.6 143.9 144.7 145.7 146.8 148.5 153.2 157 158.6 156.5 156.6 163.8 168.3 172.8 177.6 182 186.3 191.5 193.7 196.4 199.8 204.5 208.6 210.6 213 214.1 216.4 218.3 219.9 223.6 225.3 226.9 229.5 234.4 237.8 240.7 244 246.9 251.9 258.5 263.4 267.5 272.8 280.3 284.3 283.7 282.7 279.7 276.1 275.4 275.1 275.3 275.8 275.8 278.7 280.6 282.6 285.5 288.2 289.3 292.1 298.8 302.3 305.7 309.7 314.8 320.7 328.7 337.3 345.7 351.5 355.8 358.2 359.3 360.3 360.5 357.9 352.6 346.8 343.6 342.7 342.3 343.1 345 351.4 362.5 372.8 382.4 391.6 391.4 387.8 382.6 379.3 376.4 374.1 375 376.5 380.8 391 400.1 399.5 400.2 401.1 401.1 396.7 395 390.1 384.6 381.1 369.3 353.6 328.1 307.2 287.6 267.9 251.5 239.3 230.7 229.1 228.8 229.3 230 232.9 236.5 238.4 240.5 241.9 243.9 244.6 246.1 248.6 252.7 259.7 266.7 278.1 294 304.8 315.8 331.5 345.4 363.2 374.5 383.9 390.2 390.1 386 383.9 378.7 371.5 371.6 376.6 382.4 384.3 387 391.5 393.1 392.5 388.5 383.7 377 371.5 363.1 355.5 348.5 345.9 349.4 350.4 346.2 340.3 336.2 330.3 322.2 315.7 314.5 314 318.8 318.6 315.2 315.8 316.2 316.5 316.2 315.9 315.1 314.1 313.5
125 127.7 130.7 130.9 132.8 134 135.5 137.3 139.3 141.5 143.5 144.8 145.6 145.5 145.7 146.5 146.4 146.5 147.7 152.8 157.7 160.8 162.9 164.3 161.5 158.5 160 168 173.7 178.5 180.8 185 187.4 189.2 192.2 197.4 202.2 202.2 203.9 204.8 204.3 206.3 208.5 211.2 213.8 214.8 217.8 220.1 223.8 228.3 232.2 234.7 239.2 243.4 246.1 249.7 255.4 259.9 265.8 268.1 267.4 265.8 266 265.8 266.3 268 269.6 272.2 274 277 279.6 281.7 283.9 285.6 289.7 294.5 297.2 300.6 304.4 310.4 317.8 326.3 335.5 345 349.6 353.4 356.4 358.8 359.8 360.2 357.7 354.3 350.2 347.3 346.4 345.9 347.2 350.6 359.5 370.3 381.5 390.7 394.4 392.9 389.3 387 384.8 377.5 376.1 377.2 379 383.7 391.1 395.9 397.7 398.5 399.2 395.3 393.9 386.4 381.1 376.5 367.5 360.2 342.9 313.3 289.2 268.6 251.2 240.2 231.1 227.9 227.7 228.6 229.3 231.4 235.7 239.1 241.4 243.2 246.3 250.1 249.9 250.7 254.7 262.4 269.9 280.8 295.9 309.2 315.8 327.6 342.6 356.7 372.8 382.4 389.6 389.2 382.9 380.2 373.6 367.6 368.2 376 383.5 387.4 388.8 391.1 394.7 394.5 392.2 386.3 379.1 372 362 356.7 351.1 348.3 348.2 348.7 347.7 343.4 338.9 335 326.6 318.7 318 317.8 318.3 319.7 319.7 318.5 319.8 319.5 318.8 318.4 318.5 318 317.2 316.4
126.9 130.9 134.6 133.3 134.5 135.4 136.7 138.5 140.5 142.2 144.3 146.3 147.7 148.1 147.7 148.8 148.6 149.5 153.5 158.3 161.3 164.6 166.2 167.6 167.8 165.3 163.7 161.8 164.4 165.9 171.2 177 181.4 184.1 185.7 188.6 193.1 194 195.2 196.2 195.2 196.7 198.5 200.5 202.6 204.6 207.4 209.6 214 218.7 221.9 224.5 228.7 231.8 234.5 237.5 241.6 245.8 249.6 250.2 252.3 254.2 255.6 256.7 258.5 261.6 265.2 268.1 270.6 274.8 276.9 278.1 280.2 282.6 287.7 290.8 293.5 295.5 299.7 305.1 313.9 323.3 333 340.4 345.9 349.8 353.1 356.1 356.8 357.2 356.3 354 354.4 354.4 353.3 352.3 354 358.9 367.6 380 391.8 397.9 397.1 394.7 393 390.3 386.5 379.3 377.8 381 384.9 387 393.8 396 396.6 395.8 394.1 393.6 385.2 375.3 372 365.7 361.5 349.1 323.7 297.7 273.3 252.6 241.4 231.9 229.3 227.5 227.8 228.4 230.2 234.2 238.5 241.7 244.3 248.1 251.9 253.8 254.2 255.4 262.7 271.2 281.5 294.6 307.9 317.1 326.6 342.7 356.6 368.6 380.3 387.3 386.6 380.8 377.4 370.8 366.2 364 378.2 385.6 387.4 391.2 394.2 397.1 400.2 398.1 390.5 381.9 374.5 365.6 359.3 354.6 350.3 349.3 348.6 347.9 343.7 339.6 332.9 327.2 322.6 322.6 321.6 320.9 321.8 323.1 321.3 321.6 322.9 322.9 322.5 322.6 322.6 323.5 322.4 320.6
128.7 132.5 135.4 135.7 135.9 136.9 137.9 139.7 141.3 143.1 145.3 147 148.7 150.7 149.9 151.6 151.9 154.3 158.1 161.5 164.6 167.3 169.6 170.3 170.7 170.4 169.6 170.4 171.5 170.4 169 168.3 173.3 177.4 180.4 180.9 184.1 186.6 187.6 188.4 188.4 189.5 190.3 190.7 192.8 195.1 197.6 201.2 206.2 210.1 213.1 215.8 219.6 222.3 225.3 227.6 231.4 235 237.7 239.5 242.2 245.4 248.1 248.9 252.9 256.9 260.8 263.7 267.4 271.1 272.8 273.7 276.9 280.1 284.2 287.6 289.9 292.1 295.3 301 309.4 319.4 326.5 332.6 338.4 343.4 347.3 350.7 352.9 353.9 353 354.9 357.2 359.7 361 363.6 363.1 368.8 379.1 391.8 399.9 402.8 401.4 402.3 400.8 393.2 385.8 380.8 380.8 385.4 386.3 387.1 388.9 392.9 394.6 393.6 392.3 384.5 373.6 369.5 363.4 355.6 344.4 321.3 299.5 275.6 256 240 233.8 230.1 227.5 227.6 227.6 228.6 232.3 236.7 239.8 244.3 249.1 252.5 255.3 257.1 258.3 260.9 270.1 280.8 292.6 305.3 315.1 329.6 343.6 357.2 366.2 375.9 383.7 381.7 377.5 374.8 369.5 364 359.4 364.4 386.4 391.3 389.6 396.5 399.5 407.1 404.5 396.3 385.8 377.3 367.8 360.4 355.9 351.7 348.4 346.2 344.9 342 338.8 334.6 328.6 325.9 327.2 327.8 329.2 330.3 330.9 329.2 326.4 323.7 324.9 326.7 329.3 329.6 328.9 330.9 330.1 330.9
128.5 132.1 133.9 135 136.4 137.7 139.2 140.8 142.3 144.6 146.7 149 151.2 153.1 153.2 154.1 155.5 158.6 161.8 164.5 166.3 168.4 170.4 170.6 171.8 172.8 173.6 175.4 176.7 176.9 177.7 177 173.1 174 173.1 176.4 179.5 181.3 182.3 182.6 183.3 184 184.7 185.5 186.9 188.4 191.4 195.3 198.9 202.6 204.8 207.6 210.9 212.9 215.9 218.8 221.7 225.1 229 232.4 234.9 237.5 240.4 243.6 247.9 252.3 256.3 260.2 264 266 267.7 269.8 274.1 277.6 281.3 284.5 287.4 289.9 292.5 297.7 304.8 312.2 318.5 324.7 330 335.9 340.7 344.5 346.5 350.3 351.1 355.1 358.6 362.6 367.2 367.4 369.8 378.5 392.2 400.5 408.5 408.8 408.7 409.5 402.5 395.8 388.1 383.4 384.5 385 386.3 387.2 388.3 390.1 390.5 390.3 383.3 374.9 369.2 359.2 349.6 328.4 311.7 293.5 273.9 255.7 239.3 229.7 228.7 227.4 226.3 227.2 228.3 229.6 235.5 239.7 242.8 247.3 251.7 255.5 258.8 260.7 264.3 271 281.5 291.9 304.9 315.7 328.1 345.9 359.2 369.7 376.4 382.1 380.2 376.4 373.8 370.2 362.2 353.6 352.7 366.8 378.1 385.5 394.3 401.5 403.9 403.1 397.2 389.2 379 369.4 363.4 356.2 349.7 346 344.7 342.2 339.8 337.9 336.3 332.7 328.8 336.6 336.3 335.3 338.1 340.9 336.1 331.6 329.3 326.5 327.5 332.1 335.2 335.6 336.7 339.8 341.9 340.6
128.6 130.7 133.6 135.1 137.2 139.1 140.9 142.2 145.6 148.8 149.4 151.5 153.8 155.3 155.9 156.1 157.7 160.4 163.1 165.3 166 167.1 172.2 174.5 177 177.8 177.4 178.8 179.2 180 180.6 180.7 179.4 180.3 180.3 177.4 176.8 178 179.2 180.7 181.6 182.2 183.4 184 185.7 186.6 187.3 189.7 192.7 196.6 198.9 200.7 203.8 205.7 208 211.3 214.6 218.4 222.7 225.9 228.2 231.8 235.3 239.3 242.8 247.7 251.4 255.5 259.6 262.5 265.1 268.9 272.9 275.4 279.1 282.6 285.2 288 292.1 296.1 300.9 305.6 310.5 316.8 321.5 327.8 333.1 338.4 342.1 346.7 351.4 355.5 361.3 365.7 368.5 370.6 381 391.7 401.7 408.3 411.6 411.9 412.1 408 402.8 395.5 389.4 388.5 387.9 385.5 386 388.5 391.3 390.2 389.9 385.5 376.1 367.5 355.6 344.5 323.4 303.2 283.1 269.2 253.7 240.3 231.4 226.9 226 225.6 226.9 228.5 230.1 231.1 236.1 240.5 245.4 249.2 253.6 259 263.5 267.9 274.3 284.1 293.4 301.9 315.6 326.8 344.9 360.7 372.5 380.8 384 383.7 378.6 373.1 370.2 362.4 348.6 346 350.4 366.1 380.8 399.6 403.4 405.5 402.9 396.4 390.5 382 373.3 365.7 359.4 353.1 348.3 345.7 344.6 342.3 339.4 337.6 336.5 334.9 335.2 338 338.5 340.9 345.1 339.4 334.2 331.5 329.9 329.8 332.3 336.2 338.1 339.6 343.2 346.7 347.4 342.7
129.6 131.6 133.3 135.8 138.9 140.8 141.8 143.2 146.2 149.7 151.7 154.3 156.2 157.7 159 159.2 160.3 161.7 163.8 166 167 172.3 175.8 178.5 180.6 181.8 182.4 182.3 182.3 182.3 183.3 184.2 183.9 183.9 182.9 181.5 180.4 179.5 179.3 179.4 180.9 181.7 182.5 183.1 184.1 185.2 186.3 187.5 189.6 192.2 194.1 195.7 198 200.9 203.3 206.1 209.7 212.1 217 221.1 224.8 227.9 231.5 234.1 238.4 243.4 247.8 252.2 256.2 259.4 262.1 267.4 271.4 274.1 276.9 280.6 283.4 286.7 290.4 295 298.8 303.2 307.6 311.2 314.6 319.8 325.8 331.7 338.6 345.2 351.3 357 363.5 366.1 371.2 381.3 394 403.9 407.7 410.3 412.5 415.2 411.4 407.2 403 393.6 389.5 391.4 391.1 387 386.8 389 391.4 389.6 385.5 374.6 363.8 348 338.2 316.2 296.6 278.1 262.7 249.9 239.1 231.3 227 224.1 226.9 227.8 229.2 230.9 233.3 237.7 237.3 242.8 249 255.5 260.1 265.4 269.6 275.6 285.8 294.2 301.3 309.5 323.7 342.2 359.9 373.4 380.4 384.7 384.7 381.7 375.5 370.2 359.4 346.1 340 342.8 358.6 377.5 395.9 405.6 409.4 408.1 401.4 394.8 384.9 376.3 369.1 362.7 356.2 352 348.9 346.2 346.1 342.6 340 337 336 335.5 336.5 339 342 348.4 343.1 336.8 333.7 332 330.6 331.4 335.1 337.7 340.2 343.1 346.5 348.2 346.7 343.9
130.1 133 135 136.7 139.1 141 142.4 144.9 147.4 149.3 153.7 156.7 159.3 160.2 161.6 163.3 163.3 164.5 165.4 170.3 173 175.6 179 180.9 182.6 184 184.4 185.4 186.3 185.5 186.7 188 188 187.7 186.4 184.6 183.7 181.9 181.1 181.4 181.9 182.7 183.7 184.1 184.4 185.7 186.2 187.2 188.2 190.4 191.4 192.5 194.5 197.2 200.1 202.7 205.4 209 212.4 216.8 221.2 224.8 228 231.1 236.4 241 245 249 252.9 256 258.4 264.6 268.9 271.4 274.3 278.8 282 285.3 288.7 293.4 297.3 301.1 305.3 307.6 310.6 313.1 318.2 324.2 333 342.4 349.1 355.6 359.7 364.5 378.3 393 405.3 409.4 411.7 412.1 413.6 414 408 405.9 399.4 388.9 388.7 392.6 391.8 388.1 386.4 387.3 390.1 385.5 375.4 363.5 347.7 331.1 306.2 288.9 270.5 254.4 243.9 237.4 233.2 227.1 223.4 226.6 228.5 230.1 232.9 234 237.5 241.4 244.1 247.4 254 260.3 266.3 274.3 279.2 285.6 293.7 300.3 308.7 316.5 334.7 352.7 368.6 377.8 382.8 385.2 382.4 376.6 370.6 362.2 346.2 336.4 337 346.2 368.7 385.4 395.5 403.1 405.3 407.4 402.8 392 381.4 372.2 366.5 362 357.2 354.6 349.9 348.5 344.9 341.2 338.4 335.8 336.4 336.3 342.3 352.3 355.4 354.3 341.2 336.1 334.2 332.5 332.1 333.2 335.1 337.7 340.4 343.2 346.3 346.9 346.8 346.9
134.6 136.5 138.1 139.5 140.6 141.1 143.8 146.3 150.5 153.5 155.1 157.8 162.2 163.9 165 167 167.3 167.4 169.8 173.7 176.6 179.2 181 182.6 184.3 185.5 186.5 187.5 188.7 188.2 190.5 191.8 192.1 191.9 191 189.7 188.4 186.6 184.7 184.6 185.3 185.8 186.2 185.6 185.1 186 186.2 187.1 188.4 190.6 192.1 192.7 194.7 196.5 199.7 202.3 205.3 210.1 214.2 217.8 221.2 224 226.6 230.1 234.6 237.3 242.2 246 249.2 251.2 255.4 261.7 265.3 269.2 272.5 276.5 280.5 284.2 287.3 291.5 295.6 299.6 302.4 304.3 307.6 311.4 316.1 321.3 327.3 335.8 342.3 348.5 353.3 366 385.2 400.4 410.2 412.9 411.8 411.4 414.6 409.1 402.6 399.5 392.1 384.6 387.3 388.3 384.5 384 385.4 388 386.1 375.7 362.9 344.6 325.5 301.1 279.9 262.4 247.5 238.6 232 227.3 225.5 222.3 225.7 227.5 229.8 231.5 234.3 235.6 238.8 243.3 246.3 250.1 255.4 262.5 272.8 282.5 287.4 292.3 299.6 305.2 314.1 324.7 341.6 357.7 369.5 376 378.9 377.6 376.8 369.8 361.5 342.9 332.6 333.2 339.2 353.5 373.8 385 393 399.3 407.2 407.6 399.7 388.7 378.9 371.8 368.7 365.2 362 357.5 351 347.3 342.8 339.2 336.5 336.4 336.3 347.8 360.4 365.8 366.4 352.5 339.5 337 335.2 333.8 333.8 334.4 335.3 337.6 340.2 342.6 346.1 346.2 347 350.8
138.7 140.6 141.5 142.2 142.8 143.3 145.4 147.6 150.1 154.9 157 158.5 162.2 165.3 168.9 170.7 171.3 172.8 176.3 178.2 179.9 181 182.8 184.3 185.9 187 188.4 189.6 190.6 191.1 193.4 195.6 196.3 196.1 195.3 195.4 195.9 194.3 192.7 191.6 192.3 190.6 190.6 189.2 187.5 187.6 186.5 188.1 190.4 192.4 193.4 194.7 196.8 199.3 199.3 201.4 206.3 211 215 218.5 222.1 225.1 227.9 230.6 234.5 236.7 239.8 243.4 245.3 250.6 253.7 258.2 262.4 266 270.1 274.3 278.2 282.2 286.1 290.1 294.1 297.5 300.4 302.8 306 309.7 314.1 319.1 324.4 329.7 335.1 341.2 350.4 368.4 387.7 404.5 413.1 412.5 408.4 410.8 409.9 405.9 395.5 389.6 382.2 381.4 384.3 380.2 381.1 383.1 382.9 378.8 374.3 359.7 339.4 316.2 294.1 274.4 256.3 242.1 230.7 225.4 223.2 222.5 221.7 224.4 227.4 228.8 231.4 233.2 235.3 237.8 240.3 244.6 248.2 254.4 260.9 268.1 278.5 286.2 291.5 294.1 301.8 310.4 321 332.8 347.6 358.7 365.5 368.3 368.7 370 368.2 360.2 343.7 330.1 330.6 334.7 346.1 358.8 372.6 384.1 396.2 406.4 411.3 403.7 396.1 387.3 382 378.3 374.9 370.1 364 355.9 349.9 345.1 340.3 337.8 337.9 340 354.1 367 371.9 373.6 365.3 350.4 340.6 338.1 336.3 335.3 335.3 335.2 336.3 337.5 339.7 340.8 343.3 345.8 347.1 350.3
140.7 141.4 141.5 142.1 143.3 145 146.7 148.6 151.3 154.1 158.2 162.5 165.5 168 170.3 173.9 177 179 179.9 182.7 183.4 185.5 186.5 187.4 187.9 190.1 191.5 192.3 193.1 194.3 196.4 198.7 200.4 200.1 201.1 201.7 204.1 204.2 203.2 204.6 205.7 203 199 196.2 195.3 197.1 196.4 193.6 194.5 194.7 196.2 197.5 199.5 201.9 203.5 204.6 203.7 209.8 215.2 219 222.7 225.3 228 230.5 233.4 235.8 238.3 241.8 245.4 248.7 251.5 256.9 260 263 267.3 271.9 276.2 280.2 284.1 288.3 292.5 295.5 298.6 301.4 303.6 308.2 312.5 317 322.1 327.3 332.5 339.4 355 373.8 394.6 408.6 414.3 410 406.3 405.9 401.7 391.8 383 381.8 378 379.1 379.5 377.7 380.1 377.1 375.5 370.6 347 329.9 305.4 286.6 267 250.5 235.5 226.4 222.8 220.2 220 219.7 223.5 226.9 231.4 233 232.4 236.2 237.3 239.5 241.7 244 249.6 257.9 262.1 272.7 281.1 287.2 291.9 296.2 304.7 313.4 324.7 335 347.8 354.9 358.2 360.6 364.8 364.4 357.9 344.2 330 328 331 338 349.6 362.1 373.5 387.8 403.9 412 405.4 398 390.4 384.3 384 382.8 376.7 367.6 360 353 347 341.9 339.1 340.1 347.2 359.4 371.7 378.7 384.5 376 363.4 347.3 340.9 338.7 337.6 336.5 336.4 336.2 336.8 337.1 337.1 337.9 339.7 342.1 345.2 350.5
139.5 140.3 141.2 142.7 144.3 146.1 148.2 150.7 152.8 157.6 161.8 165.5 169 172.1 175.2 178 183.6 186.3 186.8 188.5 190.3 192.1 194.1 195 196.1 196.5 196 196.4 197.3 198.4 200.3 202.1 204.9 205 206.5 209 210.3 211.1 211.4 217.2 218.4 217.4 213.3 208.3 212.7 214.1 211.1 205.6 202.9 201.1 202.1 202.3 203.6 206.1 206.7 207.7 208.5 209.9 214.9 219 221.4 225 227.7 230 232.4 235.2 238.2 241.8 244.4 247.1 251.1 255.4 257.9 260.4 264.9 269.1 273.7 278.2 282.1 286.8 291.4 294.4 297.9 300.7 303.9 307.7 312.3 317.2 321.3 326.4 331.2 343.6 360.9 379.6 397 407.8 407.9 404.1 403.9 397.7 386.7 379.3 379.3 375.5 376.7 377.2 376 373.3 372 371.4 361.6 340.9 318.9 295.9 275.9 257.7 242.9 232 220 219 219.3 219.7 222.6 226.1 227.7 229.4 233.2 235.9 237.3 237.4 240 241.9 244.2 247.3 254 260.8 268.3 277.8 286 289 292.5 296.1 306.7 315.8 326.3 334.2 341.8 348.6 354.2 360.1 363.1 355.5 340.2 330.9 327.5 328 332.6 341.9 357.1 369.9 382.3 394 406.8 405.6 398.7 390.4 383.6 382.4 384.2 381 372.7 363.6 354.9 348.6 344.1 339.9 344.2 350 363.3 376.5 383 388.8 384.7 373.1 359.8 349 343.4 340.9 339.6 338.3 337.5 337.3 336.7 335.7 335.5 335.3 336.4 337.9 343.2 348.2
138.5 139.5 141 143 144.9 146.9 149.7 153 156 160.2 164.7 169.8 174.2 176.7 183.2 185.5 187.8 193.4 195.5 196.7 197.5 201.9 204.7 204 205 204.3 203 202.3 202.6 203.1 204.1 205.9 208.8 210.8 214.5 216.5 216.5 216.3 222.8 230.9 233.4 232.2 229.1 225.1 241.1 237.9 231.7 225.3 218.7 212.1 213.5 211.9 210.7 210.1 210.4 211 211.9 211 213 217 220.2 223.6 227.3 230.1 232.8 235.5 238.2 240.8 243.4 246.2 250.4 254.7 257.6 260.4 264.4 268.3 272.4 276.5 280.5 285.3 290.1 293.4 297.4 300.4 304.9 310.2 314.2 318 321.9 326.8 332.9 347.5 360.7 377.6 392.8 398.7 397.4 398.6 396.9 384.8 374.5 375 374 370.4 374.1 375.5 374.1 367 363.3 347.6 330.5 308 287.6 268.1 250.5 235.2 223.4 218.6 217.9 217.9 218.7 220.8 223.4 226.2 227.5 230 234 237.9 239.4 241.9 242.6 243.8 246.4 252.1 259.7 265.5 274.9 282.9 289.9 293.2 295.5 299.2 307.1 317 324.6 331.5 338.5 347.9 358.6 359.3 351.6 339.2 329.3 326.7 325.1 328 336.1 349.7 361.7 373.2 387.5 397.8 402.5 399.1 389.3 380.1 380 381.3 381 376 367.3 358.6 349.2 345.6 341.3 343.9 349.6 364.2 377 386.1 393 392 381.2 368.8 357.5 350.1 346.1 343.3 341.5 339.9 339 337.9 337.1 335.6 334 333.9 331.9 332.3 338.4 342.1
137.4 139.2 141.5 143.7 145.7 148.3 151.4 155.3 159.3 163.7 168 174.5 179.7 182.7 188.7 192.9 193.4 197.2 201.3 205.2 207.7 212.1 213.4 215.2 215.1 213.7 212.7 211.9 211.1 210.9 211.2 211.7 215.9 217.5 221.4 223.4 224 226.3 232.1 243.4 246.7 247.2 245.9 250.6 264.7 260.4 254.6 247.3 238.8 231.3 226.1 221.9 219.2 217 215.1 215.2 215.8 216.4 214.9 214.4 216.3 221.5 225.3 228.1 230.6 233.8 237.3 239.9 242.4 245.3 250.3 254 257.4 260.4 264 267.8 271.8 275.5 279.2 283.9 288.6 292.7 296.8 300.9 307.4 314 317.2 319.3 322.7 330.2 339.2 348.8 361 374.5 383.6 383.5 387.9 387.1 378.6 370.6 369.3 367.8 364.9 368.3 372 370.6 362.1 348 334.7 317.3 296.4 278.6 260.7 242.3 229.5 219.9 217.2 216.8 217.2 219.1 221.1 223.6 225.6 226.7 227.8 230.1 235.1 239.9 243.5 245.6 246.2 249.1 248.3 255.1 262.4 268.4 277.4 285.4 291.4 296.1 298.6 302.9 308.7 315.5 323.1 330.7 342.2 351.7 353.8 347.2 337 328.1 324.1 322.9 325.2 332.8 344.3 360 371.4 383.6 391.5 395.5 396.6 388 377.6 376.3 376.9 378.2 374.4 368.8 360.8 353.6 347.5 343.5 342.8 348.3 358.2 376.8 389.2 396.8 397.7 388.7 375.3 366.2 357.2 352.9 350 347 344.3 342.5 340.2 338.7 337.7 335.8 333.4 332.3 329.8 329.1 333.9 339
136.8 139.1 141.8 144.3 147.1 150.1 153 156.9 162.1 166.5 172.1 178.5 185.1 191 190.1 197.1 200.1 200.3 205.4 211 214.8 218.8 220.3 224.6 227 225.2 223.4 222.5 222.8 223.8 225.6 225.2 225.5 224.9 233.1 235.4 235.9 236.8 243.2 251.2 256.2 258.7 259.7 268.4 280.5 283.1 274.2 267.5 263.5 254.5 241.9 235.3 227.5 224.5 221.9 219.9 219.7 220 218.4 217 219.2 222.7 225.2 228.3 232.2 235.1 236.6 239.6 243.1 246.1 250.3 254.5 258.1 260.7 263.9 267.9 271.9 275.5 278.2 282 286.7 290.8 295.5 304 311.1 320.8 320.9 323.6 331.5 341.7 346.7 353.1 361.1 367.7 374.7 378 381.3 376.8 370.5 368.5 368.1 366.6 357.6 356.7 354.3 348.9 335.3 318.9 300.5 286.3 269.2 252.6 236.4 223.6 216.3 215.5 215.6 216.4 217.6 222.7 222.8 225 228.6 229.8 230.9 232.7 237.6 242.2 246.8 250.1 253.4 256.2 257.7 255.4 264 273.6 280 286 291.4 296.7 302.8 306.3 309.4 313.7 322.2 331.3 339.7 344.3 340.5 334.4 327.2 322.8 322.1 323.5 328.2 337.4 350.4 360.8 373.9 384.4 390 392.2 387.8 379 374.4 372.8 371.5 370.5 368.5 361.2 355.5 349.3 346 342.9 347.6 353.7 375.7 394 403.2 406 400.8 389 376.5 363.6 358.2 356.4 356 354.6 351.1 347 342.8 338.1 336.8 335.3 333 330.7 327.4 325.5 328.8 324.4
139.1 140.4 143.3 146.8 150.3 154 156.9 159.5 163.6 168.8 175.7 183.8 190.4 196.1 197.9 200.6 205.1 209.3 205.6 217.9 222.8 224.9 226.8 232.1 234.6 237.1 238.8 241.7 238.2 235.3 234.4 234.2 235.9 234.2 242.1 245.8 246 247.5 250.9 261.9 265.9 267.7 270.6 282.4 294.8 291.8 283.4 277.3 274.6 270 259.7 247.4 237.2 232.9 229.1 225.8 224 223.4 221.4 222.1 225.1 226.9 229.9 233.8 238.1 241.5 241.6 242.6 243.7 246.7 250.7 254.9 257.8 261 264.6 268.5 272.1 274.9 277.9 280.7 285.8 290.6 300.6 309.2 319.8 328.5 330.9 337.9 347 349.6 354.6 360.3 363.8 366.2 369.5 373.1 376 370.7 368.1 368.7 370.5 362.3 348.3 343.5 338.8 325.6 309.4 290.2 273.3 259.9 245.3 231.6 220.7 215.3 214.6 215.4 215.6 216.7 218.4 220.6 223.4 226.4 230.3 233.1 234.1 235.7 241 245.4 249.8 255.6 260.4 263.7 265.6 269.8 270.3 272.4 277.1 281.8 285.4 297 303.6 306 308.5 311.7 316 322.2 328.6 332.6 331.6 326.7 322.1 320.5 322.2 324.2 329.7 340.9 351 364.9 375.7 384.6 389.7 385.5 378 373.6 368.6 367 366.9 367.5 361.8 354.5 350.8 347.9 344.3 346.9 354.9 366.7 393.8 409.5 413 408.7 402.5 390 377.3 365 361.2 361.7 362.2 361.8 359.3 354.4 346.8 337.1 335.2 333.9 330.7 325.6 322.8 321.4 319.9 312.7
140.3 142.9 146.3 150.3 153.9 157.7 161.1 165.4 169.5 176.8 183.4 190 195.5 201.2 202.3 205.6 210.2 212.8 218.2 214.3 225.3 227.9 231.3 235.7 239.6 244.3 248.6 255.2 257.3 254.8 246.5 242.9 245 243 249.1 252 253.3 255.1 261.7 268.2 271.4 273.1 277.8 293.7 298.1 292.6 287 283.8 280.9 276.8 269 256.3 245.4 239.8 235.9 231.8 229.8 228.2 225.2 227.7 229.3 231.8 236.2 244.5 246.9 248.6 246.7 247 246.8 248.2 251.1 254.6 257.9 260.8 263.8 267.3 270.7 273.4 276 278.6 284.1 293.9 306.9 313.6 328.5 338.8 345.7 356.9 359.3 357.4 361.3 367.4 365.2 366.4 370.6 375.4 375.5 371.5 371.3 373 372.3 354.3 338 319.3 316.6 299.2 279.8 264 250.7 239 228.8 219 214.8 213.9 214.4 215 215.7 217.6 219.8 221.7 224.4 227.7 232 236.2 238 241.1 245.8 249.7 257 263.2 266.3 268.4 271.4 274.5 277.4 280.9 283.4 289.9 295.7 296.3 295.1 304.6 307.9 311 314 317 319.6 321.6 322.8 320.7 320.4 320.4 321.9 325.6 332.7 342.8 353.9 368.2 381 386 385.1 377.7 371.1 366 363.2 363.9 365 363.1 356.9 353.8 349.3 346.3 346.1 353.5 361.2 378.5 400.8 411.1 412.9 407.5 403.2 388.7 376 367.5 366.2 368.4 371.2 370.3 365.5 359.7 346.8 336.6 333.3 330 324.6 322.8 319.2 317 312.6 307.9
141.9 146.1 149.6 153.6 157.6 161.5 166.3 173.2 180.4 188.3 193.8 199.6 204 207.1 209.3 211 216.8 220 222.1 225.9 222.8 231.7 234.1 236.5 241.8 247.3 253.6 265.9 270.8 269.3 263.9 254.4 254.2 254.6 253.6 260.7 261.5 265.4 271.6 274.1 275.8 278.5 285.5 291.4 294.6 291.6 287.4 284.8 283.4 280.7 274.3 260.4 251.4 246.8 242.1 237.7 234.4 232.5 230.3 231.3 233.4 237.2 240.4 247.5 251.8 253.1 251.9 250.8 250.7 250.8 252 255 258.3 261.3 262.6 265.4 268.7 271.6 274.2 275.8 281 303 310 320.5 338.7 349.4 361.2 366.4 364.1 365.7 362.8 364 363.2 361.8 371 378.1 373.1 368.2 368.2 369.7 367.5 343.7 326.1 306.6 282.1 270.1 255.7 243.1 232 224.7 218.2 214.8 213.4 214 214.5 215.1 216 218.4 220.5 223.3 225.7 229.2 234.9 241 245 247.1 252 257.6 261.7 268.4 271.2 272.6 274.3 276.7 279.7 282.8 286.6 291.8 295.9 301.9 305.5 303.5 307.1 309.7 311.6 314.1 316 317.8 319 319.1 319.5 320.4 322.6 326.5 334.9 346.1 359.2 374 373.4 378.3 376.1 368.3 362.1 359.7 360.8 362.1 361.9 360.9 359.5 354.5 350.1 347.3 349.4 356.6 365.7 383.5 401 408.8 407.7 405.2 398 386.3 374 371.7 373.7 377.2 378.4 375 368.1 356.7 344.8 334.5 330.1 326.1 322.8 319.5 314.8 311.3 307.6 303.1
144.7 149.1 153.7 157.7 161.8 168.7 175.3 181.2 189.6 198 205.3 211.9 213.3 214 216.2 218.2 222 224.1 226.2 228.5 232.5 228.4 237.9 241.7 245.2 250.4 256.8 265.1 277.3 277.3 272 267.8 263.8 261.7 259 265.1 268.6 272.3 275.3 277.5 280 284.6 288 290.6 291.6 291.2 288.7 286.8 286.6 283.2 276.6 264.8 255.8 251.3 247.7 243.3 239 237.2 235.1 234.2 237.9 240.4 244.8 249.4 252.4 257.4 258.1 254.1 253.7 254.2 254.6 255.1 259 260.2 261.4 263.6 266.7 269.3 272.3 274.5 288.8 303.2 309.7 327.1 344.8 358.9 371.4 371.8 371.5 369.6 365.2 361.7 361.3 354.8 358.7 366.5 367.5 365.4 364.7 362.7 348.1 326.5 307.6 286.5 262 244.4 237 226.1 219.9 216.1 214.5 213.3 212.8 213.6 214.4 215.3 216.7 219.2 220.8 224.1 230.3 238.4 250.6 252.6 252.2 256.6 260.7 264.3 269.1 272.5 274.1 275.7 277.2 279.3 281.9 285.1 288.7 293.1 297.2 302.2 307.6 308.8 309.1 311.3 314.3 315.7 317.8 319.5 318.7 319.1 319.6 320.4 323.6 329.6 341.3 344.2 351.3 356.3 360.4 364.4 365.7 359.7 359.1 358.7 360.3 362.2 364.2 366.6 363.6 357.1 352.2 350.4 352.9 359.4 367.6 380.2 395.1 405.7 403.1 400.9 394.6 384.7 375.7 376.6 379.7 382.6 381.5 374 361.7 350.1 337.6 327.8 325 323.2 320.1 314.4 310.8 306.3 303 300.3
147.8 152.8 157.9 161.6 167.8 175.9 183.3 193.3 203.8 219.5 225.2 230 228.5 225.4 223.2 224.6 225.2 227.3 230 232.8 235.8 239.6 240.8 245.3 247.7 254.9 262.4 269.7 281.4 281 279.2 276.7 270.3 267 265.4 267.9 273.4 276.2 277.5 280 282.9 287.3 290.7 291.7 291.8 291.1 291.1 290.5 290.6 287.9 280.7 268.8 260.1 254.5 250.8 247.3 243.9 241.7 239.8 236.6 240.5 245.1 248.5 251.3 254.9 260.1 262.2 257.8 257.6 257.2 256.8 257.8 258.6 258.9 260.3 262.2 264.2 266.8 269.8 274.5 289.4 299.9 311.3 329.8 351.3 369.5 375.3 377.5 377.8 372.5 363.9 358.4 356.4 352.4 352.9 357.5 361.1 362.8 356.5 346.2 322.7 303.4 284.4 263.5 245.4 230.6 225.1 219 215.3 213 212.7 212.5 212.9 213.5 214.3 215.7 217.1 219.7 222.7 230 238.7 252.4 258.7 264.5 262.1 260.8 266.7 269.4 273.9 277.6 280.1 280.3 283.4 284.3 286.7 288.8 291.2 295.9 300.4 304.6 309.7 311.8 313.4 316 318.2 318.8 320.8 320.1 319.6 319.7 320.2 322.7 325.8 329.9 329.4 335.3 344.5 348.7 353.6 355.3 357.5 358.2 358.9 362.5 366.8 369.7 373 373.2 367.2 360.1 355.3 353.9 356.3 359.8 367 375.5 388.2 397.2 398.9 399.7 392.6 382.3 377.7 380 384.4 385.7 379.4 367.7 351.7 339.1 327.1 323.6 321.9 319.2 316.2 310.4 306.9 304.2 301.7 297.4
152.7 157.7 163.9 170.7 178.5 185.6 194.6 207.6 220.7 232.7 238.4 239.3 239.3 236.6 234.1 235.4 232.5 231.1 233.7 238.2 240.7 242 239.5 246.5 250.3 255.8 261.7 267.1 276.6 284.1 284.2 282.2 277.7 272.9 270 271.4 275.7 279.2 280.4 282.1 285.9 288.1 290.3 291.4 291.6 291.9 293.5 293.5 291.9 288.8 281.3 272.5 264.4 257.3 253.9 250.3 248.5 245.7 242.4 240.6 245 248.9 251.6 255.3 261.7 266.9 262.4 260.9 261.5 261.2 260.5 260.2 260.7 260.2 259.6 261.4 263.3 265.3 267.6 275.1 287.3 293.2 310.6 335.9 356.7 371.4 377.8 382.2 380.6 373.4 363 359.8 353.9 350.3 351.7 354 355.1 351.7 337.5 315.3 296.5 277.4 259.1 240.1 226.1 221.7 220.7 216.8 214 212.4 212.2 212.3 213.3 213.9 215.1 218.2 222.6 227.1 232.8 239.2 248 256.7 265.2 271.5 271.7 266.3 269.5 273 277.2 280.5 285.1 285 287.1 289.4 291.7 293.6 294.6 299.6 304.1 308.7 313.8 315.8 319.9 325.4 326.4 327.2 325.6 321.6 319.4 319.9 321.2 322.6 323.9 324.8 326.7 334 337.9 344.3 352.8 362.8 367.6 370.6 373.2 372.6 374.6 378.2 380.7 378.4 372.9 365.7 359.6 359.9 361.1 363.7 369.8 377.1 387.6 396 400.3 396.2 388 379.2 379.1 383.7 388.4 385 373.7 358.4 341.5 329.6 324.7 320.7 318.8 316.1 313.5 312.3 310.2 307.1 302.6 296.7
161 167.4 175 183.3 192.3 202.2 213.9 226.7 236.2 244.4 246.8 246.8 246.3 245.3 244.9 245.8 243.8 238.7 239.2 243.9 245 246.5 248.2 245.5 253 256.5 260.9 266.5 274.2 286.4 288 286.3 283.3 278.3 274.5 274.3 278.6 280.3 281.8 284 286.2 288.5 290.3 291.7 292.3 291.9 291.6 288.9 285.3 282 278.6 273.7 267.8 261.4 257.4 254.1 251.8 249.4 245.9 244.5 248.3 252.1 254.7 259.1 267.6 268.9 264.8 264.8 264.5 265 264 263.4 263.2 262.5 261.2 261.3 262.4 264.3 266.2 273 282.1 289.8 307.3 332.3 356.8 372.4 380.6 383 380.3 367.1 359.9 353 348 347.2 348.4 351 349 334.4 310.8 289.7 269.8 252.2 235.5 223.9 216.9 215.9 216.4 214.6 212.6 211.4 211.1 212.5 213.5 215.7 219.2 225.6 232.2 237.8 242.9 249.8 255.8 264.6 273.3 275.6 276.2 275.9 275.6 276.1 278.3 281.5 285.2 289.3 291.7 294.5 297.3 297.9 297.6 305.2 313.3 320.5 321.4 323.5 335.7 339.9 339.1 331.8 326.5 322.4 320.2 319.6 320.4 321.6 322.9 324.6 326.5 330.2 339.1 356.3 373.4 379.4 382.6 380.7 379.1 378.4 381.5 384 384.5 383.3 379.5 371.6 366.1 366.4 368.2 372 375.8 381.4 386.3 388.5 389.8 386.7 379.6 378.9 381.6 387.5 389.3 378.9 366.7 347.6 331.7 325.8 323.3 319.6 318.3 318.1 317.1 320.1 314.9 310.4 304.6 296.7
170.9 176.9 186.3 196.6 206.3 215.9 232.8 241 247.4 251.2 253.4 253.2 252.8 253.3 255 255.9 252.4 249.2 248.2 247.8 249.3 251.2 252.1 254.9 256.7 260.2 263 270.1 279.6 290.4 291.3 289.8 287.3 282.7 278.9 277.7 280.3 281.8 283.1 284.7 286.8 288.9 290.7 292.3 292.7 291.6 290.2 287.1 283 280.3 278.7 275.2 269.5 266.1 260.7 258.2 256.7 254 250.7 248 249.7 254.3 256.7 259.7 263.7 267.9 269.8 271.2 268 267.9 267.5 267 266.4 265.4 264.5 264.1 263.9 263.8 265.6 270.5 276.7 287.7 306 330.7 356.2 374.1 380.4 380.8 374.9 360.6 350.4 344.9 343.6 342.9 346 342.8 324.1 304.7 284.1 265.1 246.9 232.9 221.2 214.1 211.4 211.8 212.4 212.2 210.9 210.8 212 214.5 216.9 221.6 227.6 235.3 242.7 250 258.4 265 270.8 282.5 283 281.2 280 279.8 279.3 281.3 283 285.3 288.5 292.2 296.2 299.8 305 308.2 311.2 324.4 331.8 332.4 334.3 339.4 346.2 348.2 342.7 333.7 327.5 323.2 320.4 319.9 320.6 321.3 322.5 324.2 329.7 338.1 354 370.4 379.2 384.5 387.1 383.2 380.5 382 383.6 382.3 381.1 382.4 382.1 373.4 372 375.5 378.9 383.6 389.9 387.4 386.7 382.9 380 376.6 376.2 377.9 384 386.8 379.3 369.2 352.8 335.9 330 326.8 324.2 322.4 322.3 322.3 323 319.4 311.4 305.1 297.2 294.1
179.5 186.2 196.8 208.6 218.1 227.3 237.1 247.1 257.7 261.3 261.3 260 258.8 259.5 261.6 263.8 260.2 258.4 255.4 253.7 253.9 256.6 258.8 260.3 261.8 264.1 267.2 274.3 278.4 287.5 293.3 293 291 287.8 284.6 282 282.5 283.7 284.1 284.5 286.4 289.1 290.4 291.7 291.2 290.5 288.5 285.5 283.5 281.9 280 277.1 272.6 266.3 262.3 261.4 259.7 256.7 251 250.5 253.5 254.7 256.6 258.6 261.8 268 271.6 276.8 273.2 270.8 270.6 269.9 269.1 268.4 267.4 267.1 266.8 266.3 265.6 268.6 274 287.1 306.3 335 358.5 377.3 379.8 377 370 355.3 347.5 344.4 342.8 335.6 328 317.2 296.3 276.7 258.7 241.7 228.7 218.7 213.4 210.8 209.7 210.3 210.5 210.5 210.7 213 216.6 219.3 224.2 230.9 239.3 248.1 256.7 267.4 276.2 279.3 286.5 294.6 293.4 288 285.3 284.7 283.9 288.5 291.7 292.4 297.5 301.4 303 307.2 316.3 321.1 329.4 337.2 338.3 340.3 341.5 347.5 352.1 350.3 343.5 334.4 327.8 323.7 321 320.6 320.9 321.6 322.3 327.4 336.9 347.6 361.4 371.9 378.8 385.1 383.4 375.9 375.1 373.9 371 369 372.1 373.9 372.2 373.6 375.6 379.3 384.2 390.6 392.3 390.8 385.3 377.4 375.1 374.1 375.7 378.5 381.3 376 367.5 355.2 341.1 333.3 331.4 329.5 327.4 325.4 325.6 328.3 327.3 315.6 304.4 297 295 292.6
190.3 196.9 206.9 219.4 230.2 239.7 247.5 256.8 267.3 269.8 268.5 266.5 266.1 265.7 267 268.7 268.3 267.6 265.2 261.5 259.8 259.8 261.9 262.9 261.9 266.2 269.7 275.7 279.6 282.9 288 295.6 294.7 291.5 288.5 286 285.6 286.1 285.7 285.8 287.2 289.2 290.6 291 291.9 291.9 289.8 287.7 286.8 283.9 281.8 278.1 274.7 267.8 265.3 264.4 262.7 257.6 253.8 255.2 257 256.5 257.8 259.9 263.5 268.8 274.6 280.8 276.1 273.5 273.1 272.6 271.8 271.1 270.4 269.7 268.8 267.9 267.1 268.3 272.7 289 311.1 336.3 360.9 377.3 375.8 370 361.7 353.4 348.9 344.5 334 323.3 303.3 285.6 267.1 251.9 237 223.9 217.5 212 210.1 209 210.7 211.9 212 211.1 212.5 215.9 220.4 224.7 232.5 240.4 250.7 261.2 274.2 284.5 288.1 293.8 301.2 302.9 302.3 295.9 291.4 290.2 290.3 293.5 297.2 300.3 305.2 310.5 313.4 317.1 325.4 331.2 337.4 342.5 340.5 339.7 342.5 348.5 351.2 347.2 340.5 333.5 327.4 322.1 321.1 321.2 321.2 322.2 323.8 326.7 336.2 349.7 360.9 368.3 371.7 370.9 367.1 367.9 366.2 364 365.1 367.7 370.1 372.8 373.8 377.2 384.3 386.2 387.9 392.1 394.2 389.7 380.4 375 373.4 372.7 374.1 374.9 371.3 364.3 355 346.9 339.3 335.3 333 332.2 330.7 332.1 335.2 335.4 328.6 308.3 297.8 296 295.9 296.8
200.8 206.8 218.7 231.1 240.9 248.5 257.6 267.8 273.9 275.1 274.2 273.8 271.9 273 274.8 275.9 277.5 277.2 274.8 271.4 266.6 264.2 264.2 265.4 266.9 265.5 271.1 276.1 281.1 284.3 286.8 290 295.3 294.5 292.4 289.9 288.5 288.2 287.8 288.1 289.3 291.4 292.8 292.5 293.4 293.7 292.1 292.2 291.7 288.8 283.6 279.7 275.9 272.5 268.7 267 264.4 258.2 255.3 256.3 258.8 259.8 260.1 262.8 267.3 273.2 280.3 284.6 278.5 276.3 275.8 275.3 274.4 273.2 271.8 270.2 269.3 268.4 267.6 268.7 275.4 296.4 317 337.8 359.8 371.4 370.9 363.7 358.4 354.1 349.3 331.8 312.6 296.3 276.1 259.1 245.9 233.6 222.4 216.7 213.5 209.9 208.5 212.5 214.3 215.2 213.6 213.2 214.7 218.6 223.8 230.3 241.3 255.8 266 276.1 287.4 293.2 298.1 305.2 312.2 313.1 309.2 299.2 296 295.5 296.9 298.9 302.6 307.4 311.4 314.6 317.9 326.6 332.1 335.9 340.1 341.5 339.1 336.8 339.6 344.2 344.9 342.1 338.3 332.9 326.1 321.3 321 321.3 322.1 323.2 325.5 326.2 336.4 347.1 352.2 353.3 355.4 354.5 358.8 361 361.2 362.4 366 370 373.6 375.3 378.7 385.2 390.5 391 391.3 394.7 396.4 388.2 377.5 373.9 372.7 370.9 369.8 366.4 360.8 356.7 352.5 344.6 339 336.6 336.5 335.7 337.8 341.1 343.9 337.3 315.7 300 296.8 295.9 296.2 297.2
212.4 219.9 231.1 241.6 248.5 254.7 263.6 271.4 278.2 279.3 279.9 279.5 278.6 280.7 281.3 283.3 285.1 286.2 284.9 280.4 274.2 269.4 267.9 267.7 269.6 270.5 272.8 277.8 283.4 286.6 288.2 289.7 291.4 294.9 294.7 292.7 291.9 290 290.2 290.5 291.5 293 293.6 294 294.4 294.9 294.8 295.6 294.6 292.4 287.1 283.1 280.4 276.1 272.7 270.3 266 259.3 257.6 258.3 260.2 261.7 263 265.9 272 279.4 285.1 285.7 280.3 278.5 277.7 276.7 275.6 274.3 272.8 270.8 269.7 268.8 268.2 270.9 281.7 300.8 321.8 336.6 354.1 363.4 361.7 355.9 350.9 344.1 328.7 307.2 289.8 273.1 254.8 241 231 222.2 218.1 214.9 213.7 209.1 209.4 213.4 214.7 216.1 215.7 215.6 217.6 222.2 228.7 242.9 257.8 268.3 277.5 288.4 296.9 302.8 308.1 315.3 317.9 316.9 311.5 304.4 303.5 304.6 305.9 306.4 311.2 314.4 316.2 317.8 324 329.6 334.7 338.3 341.5 340.7 335.8 333.5 336.9 340.6 341.9 339.5 335.8 331 323.3 321.5 321.2 323.1 326.6 327.3 325.8 326.3 332.4 338 338.7 343.4 352.8 360.3 361.6 363.4 366.1 371.3 373.8 375.8 378.2 380.5 383.3 387.9 391.8 393.8 398 400.9 397.3 383.1 375.4 373.7 372.2 369.2 365.1 361.2 359.1 356.2 351.7 342.9 339.9 339.9 341 342.1 342.9 347.6 344.1 328.1 308.5 297.8 297.4 297.1 298.8 299.3
223.6 231.7 242.2 248.3 254.5 263.5 270.1 276.6 281.9 284 286.5 284.4 284.3 285.4 287.8 290.7 292.6 293.4 291.4 286.8 279.7 274 271.5 271.3 272.8 273.9 275.4 279.7 285.2 287.9 289.2 290.4 291.7 294.6 295.8 294.7 294.6 294.9 294.1 293.7 293.8 293.3 293.9 295 295.4 295.8 297.3 297.9 296.7 294.1 292 289.2 285.5 280.8 277.5 273.1 266.6 260.8 259.7 260.7 262.9 264.6 266 270.6 278.5 286.3 287.8 286.6 281.5 279.7 278.6 277.7 276.4 275.1 273.8 271.9 270.9 269.9 270 274 290 302.9 318.4 332.3 346 354.4 350.5 342.2 339.5 332.4 312.9 289.9 268.2 251.9 237.2 227.5 221.9 219.6 217.1 215.7 216.3 212.4 207.9 212.9 214.3 216.7 218.7 218.9 223.2 228.8 238.5 252.1 263.2 276.3 287.3 297.8 305.1 310 317.5 319.5 319.3 318.7 317.5 317.2 316.7 314.6 312.8 316.2 319 319.7 320.9 321.6 325.7 331.4 336.1 339.8 338.7 335 330.2 331.4 334.1 336.5 337.6 335.6 331.5 325.4 322.6 322.9 323.6 338.1 343.3 338.7 333 330.4 330.7 338.2 350.8 358.9 363.2 370 378.3 385 388.7 393.8 395 390.3 389.8 393 392.2 391.7 394 402.6 407.6 404 394.3 378.2 374.1 372.7 371.5 366.6 362.7 360.6 358.7 356.1 348.2 343.1 343.7 345.5 346.4 349.3 349.8 341 323.9 312.5 299.9 298.8 300 302.8 305.1 305.9
230.1 238.7 247.6 254 261.3 271.1 277.2 281.9 285.6 289 290.4 289.1 289.5 290.6 293.9 297 298.6 299.3 297.2 292.9 288.2 283.4 278.2 275.9 276.3 277.8 276.1 282.7 286.5 289.2 290.6 292.1 294.4 296.9 297.8 298.1 298.6 299.9 300.9 301 299.9 297.7 296.7 297.7 298.1 300.5 303.1 301.3 302.1 300.8 299.5 296.4 290.8 286.3 282.1 276.6 269.2 264 261.4 264.8 266.4 267.3 270.4 277.9 284.3 288.7 288.9 286.7 283.2 280.7 279.3 277.9 276.5 275.5 275.3 273.8 273.9 274.8 275.9 279.3 294.4 306.9 321.3 334.4 340 335.4 334.7 332 329.5 319.6 296.5 272.5 250.3 236.3 226.1 220.8 219.7 217.6 216.4 216.5 216.4 212.1 207.4 211.9 215.6 219.1 222.2 223.6 228.8 238.4 246.3 256.6 269 282.6 295.2 306.4 310.8 315.7 320.7 321.1 322.5 323.1 323.9 325.3 324.4 320.4 320.7 324.1 323.1 322.5 322.4 322.3 329.6 332.5 337.2 338.2 332.8 328.9 327.2 328.7 330.9 331.7 332.1 329.8 326.3 322 323.5 326.7 331.9 354 358 350 342.3 338.1 340.3 354.4 364.6 372.2 377.6 382.9 389.6 395.6 401.4 406.7 408 406 404.9 404.2 396.6 397.1 406.1 413.5 411.1 403.9 385.1 378.2 375.1 372.3 369.5 365.9 362.4 359.5 357.8 352.4 346.8 348.4 350.8 353.2 352.6 354.6 350 328.6 314.3 304.5 301.3 303.1 308.2 311 312.3 309.7
236.8 245.2 252.5 258.9 266.5 275 281.2 285.8 289.7 292.3 293.7 294.5 294.6 295.4 298.5 301.1 303.7 304.5 302.6 299.5 295.9 292.1 287.5 280.8 279.8 281.5 283.2 285.1 288.5 290.3 293.1 294.6 297.3 298.5 299.5 300.1 301.4 304.6 306.1 307.8 307.2 305.3 304.8 302.2 302 305.1 305.8 305.8 309.1 308.2 306 300.5 294 289 285 280.6 272.1 266.7 265.9 270.7 269.4 269.9 277.3 287.3 289.8 292 291.2 286.9 283.6 281.5 280.2 278.8 277.3 277.7 277.2 277.6 279.2 281 284.5 288.7 300.8 317.5 332.2 340.3 334.8 332.3 331.5 329.8 325.1 307.3 281.9 256.6 239.3 227.3 220.2 217.7 217.8 216.8 215.6 214.2 212.7 209.7 206.9 212.5 216.2 219.9 223.5 229.5 237.2 243.5 251.5 262.1 276.6 290.4 302.2 308.5 314.2 319.9 322.4 324.5 326.8 326.8 330 330.3 329.1 326.1 331.1 329.2 327.6 325 323.1 326.5 331.1 332.7 334.3 331.2 326.1 324.1 324.2 325.1 327.1 327.5 327.3 324.7 322.5 321.8 325.7 329.4 338.2 365.7 373.2 360.6 355.3 352.3 354.5 367 373.3 380.1 384.8 388.9 392.6 399.6 409.6 416.5 416.2 414.9 415.2 410.5 402.6 409 415.9 415.7 411.4 396.1 383 378.6 375 372.4 369.6 365.8 362 358.3 353.7 351.3 353.6 355.3 355.4 355 356.5 356.3 337.5 316.4 310.2 304.1 304.3 312.4 316.8 317.7 316 313.5
242 248.4 254.6 261.5 270.6 279.2 284.8 289.3 294 296 298.2 298.7 299.1 300.1 302.6 305 307.2 306.9 305.7 304.3 302 298.9 296.1 291.1 285.3 284.8 284.6 287.7 287.1 291.6 294.3 297.2 299.6 300.4 301.2 301.4 303.9 306.4 308.1 310.1 311.2 311.4 313.1 308.9 309 311.6 311 314.4 318.3 316.6 309.9 303.1 295.9 290.8 287.3 283.6 275.9 269.2 270.6 272.8 272.2 275.3 281.6 290.5 295.2 295.1 292.4 287.6 284.8 282.9 281.1 279.4 279.1 279.8 281.1 282.7 285.6 291.3 296 307.4 301.4 325 335.8 335.7 332.3 331.7 331.9 329.2 316.6 297.5 270.1 247.4 231.5 221.2 216.5 215.8 215.4 214.7 213 210.7 208.7 206.4 209.7 214.3 218.3 222.2 227.6 234.9 241 248.3 260.1 274.1 283.9 295.2 303.5 309.4 315.4 320.8 324 329 330.8 330.7 333 333.8 334.3 334.7 335 331.2 329.7 325.7 323.9 329.2 330.3 330.3 328.3 324.9 322.2 321.6 321.3 322 322.9 322.8 322.7 320.4 319.4 322.2 328.7 331.7 342.8 370 379.9 369.6 364.6 363.5 364.9 369.2 373.4 379.9 385.1 388.6 394 405.6 419.1 422.8 422.8 423.7 420.7 413.3 414.9 418.4 419.3 417.9 411.5 393.8 383.7 379.4 376.1 373.6 370.8 366.9 363 359.4 356.6 355 356.7 356.4 357 358.8 358.6 343.7 324.3 312.7 307.7 307.9 313.7 324.1 325.7 320.6 318.3 317.8
244.3 249.8 257.4 265.3 273.6 282.1 289.5 292.6 297 300 301.6 302.9 303.5 304.7 305.6 307.2 308.6 308.9 308.6 309.2 307.6 305.5 303.7 300.5 293.9 288.5 287.9 289.5 291.2 293 295.8 299.3 301.4 302.6 303.5 304.7 307 309.4 310.2 311.8 314.5 317.6 316.4 314.7 317.2 320.5 319.3 322.7 325.1 321.4 314.3 306.8 296.8 292.7 288.8 284.4 278.8 274 272.7 275.6 276.1 279.3 284.9 290.3 295.5 299 292 287.9 285.9 284.7 283.5 282.5 282 283.4 288 291.1 297.2 302.8 305.5 321.1 314.2 316.3 334.7 334.1 332.6 333.9 333.4 320.4 308.3 290.3 263.8 239.8 225.9 217.1 212.7 211.9 212 210.5 209.5 206.1 205 208.9 212.7 216.7 221.3 226.5 234.9 242.2 247.6 259.2 271.2 281.7 289.7 297.6 305 311.2 316.7 320.4 325.7 330.1 330.4 331.8 335.2 337.1 338.4 336.5 333.3 330.6 327.1 323.8 324.5 327.1 327.8 328 323.9 320.9 320.3 319.6 319 319 319.7 319.8 319.6 318.2 319.3 324.7 331.1 335.4 343.1 366.5 375.2 372.8 370.9 369.8 368.7 370.8 373.9 378.9 385.5 392 400.9 416.8 424.4 424.8 425.4 426.2 420 419.1 419.8 420.4 422.5 419.9 410.6 393.6 384.9 380.6 377.7 375 371.9 367.9 364.3 361.7 358.5 357.1 357.5 357.5 357.9 359.3 345.8 329.2 316.2 309.9 309.8 318.9 328.7 335.3 331.6 324.6 319.4 318.7
246.1 252.7 262.6 269.8 276.8 289.5 294.4 297.9 300.4 304 305.2 306.5 307.1 307.8 307.8 308.8 310.9 310.5 311 311.8 310.1 308.6 307.7 306.5 301.8 294 293.5 292.8 294.5 295.6 297.5 300.1 302.5 304.4 305.4 306.7 308.8 310.8 315.1 316.6 320.6 323.8 320.1 320.9 325 323.8 324.3 327.1 328.1 324.4 318.5 309.3 299.4 295.3 291.8 287.6 282.6 279.3 275.2 275.8 280.7 285.3 289.5 293.8 298.2 297.4 290.9 288.8 287.4 286.4 286 285.4 288.4 293.8 301.1 309.8 315.7 321.9 320.4 321.9 325.5 314.6 327.4 328.9 327.3 326.6 322.4 312.6 300.4 286.4 257.6 233.6 221.6 215.2 209.9 206.9 206.7 205.1 203.6 203 207.9 211.8 216 219.2 224.8 230.6 239.5 245.1 253.7 267 275.7 284 292.2 299.3 305.8 310.8 314.2 318.9 324.5 328.1 329.3 332.4 336.5 339.4 343.7 334.7 331.3 326 323.5 322.4 325.6 324.4 325 323.5 319.9 318.8 318.3 317.6 317 316.7 316.8 317.7 317.6 317.8 321.8 328.2 329.2 338.6 341.8 354.3 368.9 371.1 373.8 373.2 371.6 371.3 375.4 382.2 391.5 400 412.8 423.9 426.4 426.4 428.5 425.1 422.2 423.6 426.9 427.9 429.2 419.9 406 394.5 388 384 380.9 377.1 374.4 373.1 368.6 364.1 360.9 358.6 357.2 357.4 354.3 341.8 326.8 313.4 309.6 310.8 321.5 335.3 341.7 343.7 338 331 326.4 322.8
247.7 256.5 266.2 274 284.1 292.7 297.7 301.4 304.5 308.7 309.8 309.8 310.3 310.8 312 313.5 313.8 311.9 312.2 311.9 312.4 311.7 312.9 312.1 307.5 302.8 299 297.5 298.4 298.5 299.7 301.1 303.1 305 306.7 308.2 310.2 312.1 314.7 316 319 322.7 323.4 325.5 326.8 325.5 326.8 328.4 328 326.5 321.4 312.2 303.4 299.5 294.6 291.6 287.5 283.1 278 277.8 283.4 290.6 294 296.7 299.6 296.7 291.8 290.2 289.2 288.3 287.3 290.4 298.6 307.7 318.5 324 327.1 335.2 329.6 320.5 318.1 317.2 323.6 323.2 319.5 314.2 307.5 300.3 292.1 279.6 257 230.3 219.1 212.7 207.9 203.7 202 202.4 203.3 209.1 212.2 214.7 218 221.7 226.6 232.2 240.6 247.6 258.4 268.6 277.7 285.9 293.5 297.6 302.3 306.1 311.7 317.6 322.8 325.9 328.9 333.7 337.4 340.8 334.8 329.3 325.5 320.6 320.2 322.4 322.8 321.2 320.8 318.4 317.4 316.6 316.2 315.6 315.1 314.7 315.4 316.8 316.2 319.2 323.8 327 323.1 334.9 334.6 351.2 359.3 368.2 374.4 377.2 373 373 379.2 388.3 397.1 409.4 419.5 424.2 427.1 429.1 428.4 426.8 432.1 434.6 435.9 434.4 422.7 410.7 401.6 396.2 392.1 388 385 380.1 378.9 379.1 373.8 366 363 360.1 356.5 352.6 343.8 319.9 305.9 305.3 309.4 320.4 334.5 346.9 352.6 349.1 344.1 338.5 334.7 332.9
250.9 259.7 270.6 279.5 288.5 296.6 301 303.8 308.4 313.5 314.8 313.5 312.5 312.5 312.4 313.5 314.3 314 315.3 315.5 315.7 317.9 319.1 317.2 312.5 308.3 303.7 301 301 301.2 301.9 303.2 304.9 306.2 307.7 310 311.9 314.1 318 319 320.6 324.4 330.6 332.3 327.8 327.1 329 330.5 329.1 326.9 322.9 315.3 309.3 306.7 299.5 295 291.5 286.3 280.5 280.5 285.5 292.6 296.7 300.3 300.2 298.1 295 293.3 291.3 290.4 291.8 299.6 309.4 323 332.3 336.5 334 337.7 330 323.5 319.6 318.9 320.8 317.7 309.8 306.7 302.1 294.4 284.2 273.3 257.7 232.7 218 211.2 206 201.8 201.9 202.6 207.1 210.1 211.4 215.4 218.9 222.4 226.9 234 243.4 252.4 261.6 270.2 280.1 286.1 290.1 292.1 294 299.6 308 314.6 320.3 323.6 329.1 333.1 333.9 335.1 331 325.3 317.9 318.1 319.9 320.2 319.2 318.4 317.3 315.6 314.6 314.2 314 313.6 313.2 313.5 315.6 315.8 316.7 320 322.5 320.2 316.8 323.5 326.5 337.2 355.8 367.4 377.4 374.8 374.1 376.5 385.7 394.7 403.7 415.6 420.8 424.5 428.1 429.7 431 433.9 440 437 436.8 429 412.9 408.3 403.2 401.3 397.6 392.9 387.9 385.9 386.4 386.8 374.6 368.3 364.3 360.2 356.2 344.2 320.9 302.5 297 304.2 319.2 333.8 348.1 357.8 359.9 355.2 349.6 343.5 338 335.7
253.6 263.1 274.7 286 296.1 301.1 303.8 306.3 312 315.1 316 315 313.2 313 312.9 313.6 314.6 315.6 318.5 320.1 322.3 324.9 324.8 322.3 318.7 314.4 308.4 304.6 303.5 303.2 304.3 306.1 307.7 308.6 309.6 312.4 314.8 316.7 317.5 319.3 322.1 329.1 332.4 330 327.4 331.2 334.5 333.7 330.1 327.8 323.6 318.9 317.1 314.1 305.5 297.6 292.9 287.5 283.9 285.3 289.4 293.1 302.6 302.6 300.6 298.4 297.2 296 293.8 292.6 298.6 308.4 319.9 333 341.5 342.5 338.3 336.1 335.5 332.8 326.8 322.4 316.5 308.7 306 302.3 296.9 291.3 280.4 271.2 257.8 232.7 216.4 210 204.1 200.3 201.1 203.1 206 208.5 212.4 214.6 217.5 221 226.3 236.9 247.6 258.7 268.5 278.5 283.8 282.7 284.1 283.2 285.7 295.7 302.8 310.9 317.3 322.2 327 328.2 330.3 330.5 326.7 318.1 315 316.1 317.5 317.4 317.1 316.1 314.7 312.2 311.8 311.4 311.5 312.1 313.5 316 318 319.1 319.6 320.2 319.2 315.1 311.6 314.5 320.6 331.5 355.9 369.1 369.6 372.4 375.3 383.3 394.3 402.3 409.6 416.7 420.8 425.3 432.1 432.9 432.7 436.4 435.7 433.2 432.8 416.2 409.9 408.9 408.2 405.4 403.8 398.4 394.1 394.2 394.3 388.1 381.8 374.5 365.1 356.9 341.9 321 299.4 290.1 295.7 312.1 330.6 345.9 358.6 366.9 364.5 359.5 352.4 345.9 337.9 333.4
255.5 266.1 279.6 291.1 298.9 302.8 306.3 309.4 312.2 313.8 314.7 313.7 313.5 313.6 313.8 314.5 315.5 319.1 323 328.7 332.6 335.3 332.3 326.6 322.8 319.2 313.5 311 307.4 306.8 307.8 309.1 310.1 311 311.8 315.7 318.1 317.9 318.8 320.2 324.5 328.7 330.1 329 331.8 335.3 336.5 332.9 330.8 328.9 327.7 326.7 325.6 319.6 309.4 299.4 294.3 289.8 288.2 293.2 294 296.8 302.6 301.7 301.1 300.5 300.2 298.4 297 300.8 309.1 321.6 335.1 345.5 351 349.4 344.9 343.7 343.6 340.5 329.6 316.7 306.6 303.1 302.4 300.7 293.4 286.8 276.4 267.1 254.1 231.7 214.7 209.5 204.3 198.9 200.2 202 204.3 208.5 211 212.7 216.1 219.9 226.5 240.2 257.5 270.1 276.9 280.6 276.4 276.4 271.7 272.9 280.8 289.6 298 308.4 315.9 320.4 323.4 325.2 326.9 324 316.6 311.6 312.2 314.6 315.3 315.5 314.6 312.5 310.9 308 309.2 309.4 309.8 313.1 316.4 318.1 320.1 321.6 321.9 320.4 319.3 313 304 310.8 314.5 326 352.8 360.6 367 375.1 384.3 395.2 405.3 414.1 416.2 415.4 419.3 428.5 431.8 432.8 432.9 430.6 428.7 428.9 424.2 412.5 408.3 409.5 411.9 410.8 410.7 402.7 399.5 401.3 400.1 394.5 388.4 379.3 359.2 335.7 315 297.6 286.4 287.2 303.6 323.9 341.7 357.9 368.6 370.9 365.1 360.4 352 343.9 335.1 328.7
255.2 268.7 279.3 290.1 297 304.5 310 313.2 314 314.6 314.9 314.1 313.8 313.9 313.9 315.2 317.3 323.1 328.5 334.1 338.7 340.9 335.2 329.5 326.2 323 319.5 316.6 313.8 311.6 311.1 311.6 311.9 312.1 313.4 315.3 317.7 318.3 320.2 323.1 327.6 329.9 331.4 335.6 341 344.4 345.8 339.6 336.7 334.6 334.7 334.3 329.7 323.4 311.3 301.4 297 294.2 293.3 293.7 295.4 299.4 300 301.4 303.6 305.4 303.8 302.6 304.2 311.2 321.3 334.1 345.6 355.6 361.2 358.6 351.3 350.1 348.1 339.6 320.3 305.7 300.3 297 293.4 289.2 286.2 278.8 268.8 260.1 247.7 232 216 209.9 204.9 199 198.9 200.8 202.8 206.5 208.8 210.4 213.3 219.4 232.7 254.3 266.4 273.3 275.5 269.7 266.6 264.1 261.4 268.8 277.9 285.5 296.2 306.9 314.2 318 318.4 320.8 319.4 314.6 307.9 308.1 311 312.4 312.8 311.9 310.7 308.9 306.9 305.5 307.1 309.7 312.3 315.6 318.5 320.1 321.8 323.4 323.8 322.2 319 311.2 301.1 302.2 305.3 321.8 341.4 358.3 372.5 382.3 390.5 398.6 408.4 413.1 409 410.6 416 422.1 425.8 431.9 427.9 426.9 426.3 430.2 419.3 410 407 409.3 414 415.2 413.1 404.1 405.7 406.2 407.7 400.8 388.6 357.6 338.1 317 294.4 283.1 280.9 289.8 312.5 331.6 349.1 365.5 374.7 369.4 362.6 354.4 344.1 332 321.1 313.6
256.9 268.5 277.6 287.4 295.5 302.6 308.2 312.1 315.1 316.2 316.3 315.3 314.4 315.1 315.5 317 320.2 326.2 332.4 338.5 342.8 342.9 337.6 331.3 327.4 324.1 321.7 320.1 317.6 316.4 314.8 313.8 313.5 313 313.1 314.7 316.6 318.7 321 324.9 327.7 330.3 333.8 342.5 349.2 353 356.1 349.4 343.7 341.5 341.4 338.9 332.2 323.1 311.2 304.4 301 298.3 296.9 296.4 297.9 300.4 300.5 302.2 307.1 308.9 308.3 309.3 314 323 336.4 345.7 352.3 354.9 355.3 358.1 355.2 352.9 345 329.1 316.6 302.5 295.9 289.3 284.5 280.1 276 269.3 263 254.9 244.5 231.5 217.8 210.4 205.2 199.6 197.9 199.6 202.4 204.6 206.8 209.8 213.9 222 240.6 257.3 264.9 266.5 261.3 256.9 255.6 253.2 259.1 267.5 274.4 283 294.6 305.4 312.3 314.7 312.9 313.1 310.4 303.4 304 305.8 307.9 308.4 307.7 307.3 306.8 305.8 302.8 305.1 309.3 312 314.8 317.8 320.4 322.1 323.5 325.1 325.4 324.3 318.3 308 297 297.2 301.7 323.4 346.8 364.9 375.7 382.1 388.6 391.5 392.7 391.9 391.4 398.7 406.2 409.6 418.4 422.6 420.8 423.5 427.7 422.7 413.7 408 402.8 406.2 410.5 409.7 408 407.9 409.1 411.2 412.3 407.4 372.3 342.8 325.9 311 287.8 279.1 277.8 291.1 313.6 335 355.7 373.1 371.3 363.5 354.7 342.7 329.7 316.1 299.8 284.8
258 266.9 276.5 284.7 292.8 299.2 305.3 310.2 315.1 315.8 315.1 315 314.8 316.2 317.5 319.6 323.7 328.9 335 341.1 344.1 343.8 339 332.7 329 325.1 322.6 321.2 319.5 317.5 315.5 314.7 314.1 313.8 314.5 315.9 317.4 319.5 322.5 326.7 330.6 336 337.8 346.2 353.8 359.7 361.6 354.2 350 347.6 345 341 332.8 322.3 311.8 307.7 305 301.8 301.8 301.9 298.6 299.1 300.9 304.9 307.9 310.4 311.2 314 321.1 333.6 345.9 352.7 355.2 356 357.5 356.8 355.4 349.6 332.6 318.2 304.7 297.1 288.7 283.3 279 273.7 268.6 264.2 258.9 252.2 242.6 231.6 218.2 209.6 203.9 199.3 196.9 199.9 202.2 204.6 207.1 210.4 214.4 226.1 239 248.2 253.4 250.9 245.5 247.6 245.7 249.1 256.7 266.3 273.1 282.7 293.5 304.7 309.6 307.2 304.3 303 299.2 298.6 300 301.4 303.3 303.3 302.5 302.6 303.4 299.6 301.9 306.7 311.5 314.4 317.5 320.5 323 325.4 327.2 328.2 327.8 322.1 314.6 304.5 294.5 294.8 309.1 330.8 349 360.8 370 372.9 372.3 369.2 369.7 370.5 373.6 382.4 388.7 400.8 412 413 417.4 420.9 419.3 415.7 407.9 401.8 398.9 400.9 405.8 410.2 416.2 407.1 410.1 414.6 414.9 399.5 373.2 340.5 321.5 302.3 285.7 273.5 276.2 294.8 318.3 338.6 362.6 371.2 365.3 353.4 340.2 329.1 315.9 296.3 277.3 261.5
258.1 266 273.8 281.9 289.8 296.1 301.4 306.8 309.6 311.4 312.4 313.5 314.8 316.5 317.9 320.5 326.6 332.4 337.5 342.5 346 345.6 339.3 332.9 328.9 325.8 323.4 321.6 319.8 318.1 316.4 315.5 314.8 315.2 316.4 319 321.9 323 325.8 329.1 331.5 335.6 340.1 347.4 354.6 359 358.6 355 353.2 350.1 347.1 342 330.6 321.7 315.6 312.9 310.1 307.4 310.6 306 301.4 300.7 301.8 305.4 308.4 310.9 313.7 318.5 326.4 337.5 347.3 352.8 356.9 358.9 355.5 353.5 350.9 338 321.8 308.8 299.9 292.6 284.1 279.6 273 268.5 265.2 261.1 256.2 250.8 244.2 234 219.3 209.1 203.5 198.1 195.1 201 202.9 205.4 207.8 210.5 214.8 223.2 228.9 233.9 237.6 235.3 238.4 239.7 241.4 248.7 257.3 265.3 272.5 283 293.9 302.9 304 298.9 294.1 290.8 292.2 293.8 294.9 295.9 298.7 297.8 297 297.2 298.7 297.4 302.5 308.4 313.4 316.7 319.8 323.3 326.6 329.6 331.8 331.2 327 321.5 314.1 300.4 291.2 293.1 312.5 329.4 340.6 351 357.5 353.5 349.1 347.7 351.1 354.7 360.2 367.7 381.1 396.3 403 408.6 414.1 411.2 409.5 406.9 402.3 398.6 393.8 398.7 405.6 413.2 412.2 405.6 411.6 417.9 410.6 395.5 376.6 346.1 319.7 292 274.9 267.5 273.7 292.7 315.3 342.6 360.3 360.1 354.5 338.9 329.1 317.1 300.8 278.6 261 245.7
253.1 263.4 271 279.2 287.2 294 298.7 302.2 303.7 305.7 308.5 310.9 314 316.6 319.2 323.2 328 333.5 339.3 344.4 346.2 343.3 337.6 334 330.2 327.1 324.3 321.9 320.1 318.7 317.9 316.7 316.6 317.4 320.3 325.3 330.1 331.7 332.8 334.1 335.9 340.1 346.4 354.9 360.1 358.2 357.1 357 356.1 352.8 349.7 342.8 331.1 325.7 320 315.8 312.9 315.8 317.6 310.3 306.1 302.5 303 305.3 309.4 313.8 317.7 323 328.1 339.4 349.5 354.3 358.3 359.4 354.8 348 341.4 327.4 313.8 305.6 297.2 290.5 282.6 273.7 267.8 264.4 261.3 257.7 253.4 249.2 246.6 238 222.6 209.9 203.7 197.1 195.5 201.1 203.1 205.8 208.4 211 213.8 218.2 222.4 227.1 229.9 231.9 234.5 236.7 242.2 250.7 258.1 265.5 274.1 283.9 293.8 297.9 296.8 289.6 284.7 283.3 285.6 283.8 285.2 288.9 290.8 289.3 289.4 290 293.7 298.4 304.9 310.7 314.6 318.6 322.7 325.5 328.9 331 330 327.7 323.5 317 305.6 290.9 284.1 292.8 303.2 317.9 329.8 338.1 337.7 332.1 332.2 334.6 337.7 341.9 349.8 364.1 380.2 389.5 397.7 405.9 403.5 401 399.1 397.3 396.1 392.7 388.4 394.4 403.4 407.6 403.5 406.4 411.7 412.7 408.3 393.3 376.6 351.2 322.9 292.2 268.1 264.4 270.7 282.1 303 318.2 331.4 338.5 336.1 326 316.3 306.1 285.7 263.5 245.4 239.3
246 255.9 266 275.3 284 290.6 295.4 297.7 299.1 300.7 303.6 308 312.4 315.2 321 325.5 330.9 336.1 341.2 343.1 341.2 338 336.6 335.6 332.8 330.8 327.9 325.3 322.7 321 318.7 318.7 319.4 322.1 326 331.3 337.3 339.2 340.5 339.5 341.6 345.9 354 361.2 363.1 360.8 360.6 362 360.9 355.6 349.6 341.8 333.6 327.8 323.9 319 316.8 319.9 318.5 312.4 308.8 306.2 309.8 308.6 312.9 319 322 326.1 330.9 340.5 349.6 354.5 356.8 357.2 350.2 341.7 331.1 318.8 310.3 302.9 295.2 287.9 277.1 267.6 262.5 259.6 256.3 252.3 249.2 248 247.2 242.6 224.4 211.2 205.1 197.5 195.6 200.4 202.8 205.7 208.4 211 213.4 215.6 218.4 221.8 225.3 228.8 231.4 235.7 243.6 249.7 256.8 265 275 284.2 290.8 291.6 285.9 274.2 271.9 271.2 272.7 272.9 278.8 281 281.9 281 287 292.8 296.6 301.4 307.6 311.9 315.9 321.6 325.2 327.7 328.8 327.3 324.5 320.3 314.1 304.6 291.9 281.2 278.1 284.2 290.3 305 317.8 319.9 317 318.2 321.3 323.8 327.6 335.1 348 362.5 373.9 382.7 393 395.9 395 391.3 388.7 387.2 385.8 383.4 380.9 387.3 395.3 397.7 403.9 405.9 407.8 408.6 404.6 391.9 376.2 353.3 324.6 293.6 266.3 261.6 265.4 273.9 283.9 295.9 304.1 311.2 310 308.7 302.7 291.2 270.2 247 238.1 236.7
240.1 249.3 260 269.3 277.8 284.1 288.9 293.2 295.3 298.3 301.3 304.6 309.4 312.9 317.7 323.5 329.4 334.2 336.5 336.3 335.8 335.1 334.5 335.2 337.6 336.4 333.5 329.8 327.7 325.3 323.2 322.3 323.7 327.1 332 337.8 344.4 348.3 347.3 346 346.5 351 356.1 361.2 363.1 364.8 367.4 366.3 362 356 349.3 345 337.9 331.6 326.1 322.7 321.7 321.6 318 314.2 311.1 310.7 314.6 314.4 318.9 324.9 326.6 328.8 334.7 343.2 351.4 355 356.9 354.8 347.1 335.6 322.8 314.1 307.4 300.2 292.8 283.5 271.9 262.5 257.9 253.7 250.8 248.5 245.5 244.4 243.8 240.9 227 213.6 206.7 195.3 196.7 200.7 203 205.7 208.4 210.6 212.1 213.6 216.2 220.1 223.6 226.7 229.1 235.1 241.2 248.1 255.8 265.8 274.8 281.7 284.1 281.7 273.2 265.8 257.7 261.1 266 269.3 273.1 279.3 284.5 286.5 291.2 294.9 300.8 305 309.3 314 320.3 326.4 327.5 328.9 328.6 324.2 317.5 312.8 305.5 294.3 280.5 273 272.6 277.6 283.5 293.8 305.6 304.1 304.4 306.9 310.4 316.5 323.4 335.7 348.6 358.4 367.4 379.3 383.6 386.3 386.9 384.7 378.5 375.7 374.6 372.4 371.1 378.9 387.6 395.3 404.7 401.9 404.3 405.4 402.3 392.2 376.6 351.9 325.1 295 265 257.2 258.7 259.9 265.9 270.6 276.1 281.9 284.6 290.2 288.4 272.6 254 237.6 233.9 237.2
236 246.5 256.1 261.3 268.9 275.3 283.8 288.7 292.5 295.6 299 302 306.6 310.2 313.5 318.7 323.9 327.7 329.7 331.1 331 330.4 330.6 334.2 336.5 338.8 337.3 336.8 335.3 333.3 329.2 326.5 328.1 331.7 337.4 344 349.4 352.7 353.4 351.8 351.4 354.5 357.7 359.9 365.1 370.1 371.1 366.9 361.3 354.9 350.2 347 340 333.4 328.5 327.9 328 328.2 322.8 316.5 314.6 314.2 318 320.7 326.3 330.4 331.3 333.5 340.6 348.7 355.1 356.6 357.4 353.1 345.4 333.3 318.4 309.5 302.4 296.3 288 277 266.3 258.3 253.8 249.8 247.2 244.2 242.2 241.1 238.9 237.9 229.5 215.2 205.8 195.1 195.8 200.7 203 205.4 207.8 209.2 210.7 212.3 214.8 218.4 222.2 224.7 227.5 232.7 238.9 245.7 254.4 264.3 271.9 275.5 273.7 266.3 262.6 253.3 260.7 264 269.5 273.4 278.8 284.4 288.8 290.2 292.3 297 302.3 306 310.1 315.6 322 326.7 328.4 325.9 322.5 317.9 310 305.1 295.8 280.6 269.2 267.3 268.9 273.6 278.2 285.9 294.9 293.5 293.5 298.8 305.3 313.5 321.2 332.5 345.2 357.5 368.4 371.8 375.1 379.5 382.2 376 369.7 365.1 363.8 363.4 365.1 375.3 385.1 391 397.6 397.4 399.6 400.6 397.5 391.4 378.5 353.4 325.9 294 260.6 249.6 250.5 248.5 251.2 254.3 256.1 258 262.1 263.3 266.4 253 241 233.3 233.4 242.4
229.9 237.3 245.2 252.5 259.8 267.8 277.1 284.7 290 293.5 297 299.8 302.7 308.2 311.2 316 318.7 320.1 320.1 321.6 325.8 326.2 328.4 334.7 339.4 341.5 342.2 342 341.9 338.1 332.7 332.3 334.6 340.2 345.4 349.5 352.7 355.6 357.9 353.6 353.9 358.5 360.8 364.2 368.5 371.1 370.2 364.4 358 353.4 349.7 345.1 340.1 334.5 332 333.6 335.6 331.5 323.3 319.2 318.8 318.4 323.7 327.3 332.4 336.6 337.5 339.6 344.4 351.6 356.4 356.2 355.3 351.2 345.4 333.9 316 305.8 297.6 288.8 278.9 268.3 258.5 253.3 249.6 246.6 244.1 241.2 238.9 237.4 236.2 234.6 228.3 216 205 194 198.7 201.5 202.6 204.6 206.5 207.8 209.4 211.4 213.6 217.3 220.9 223 225.9 230 236.3 243.4 252 260.9 268.6 267.8 262.9 259.8 253.1 254.2 264.7 271 273.6 278.3 283 286.8 290.4 292.7 295.8 299.6 303.1 306.7 310.7 315.2 319 320.5 321 317.7 316.1 307.4 298.5 292 280.6 266.2 262.7 263.1 266.4 270.5 274.1 278.6 285.1 284.7 291.3 299.1 307.6 315 327.5 342 352.8 359 361.8 364.5 369.7 374.4 373.1 366 358.9 356.8 356.1 359.1 364.6 377.7 383.5 387.8 391.4 393.1 393.1 391.4 389.8 386.3 377.4 356.1 331 299 259.2 244.7 241.9 239.8 240 240.6 242.1 244.2 247.9 251.2 248.2 242.2 231.6 230.1 238.3 252.2
224 231.1 236.8 243.2 251 260 270.1 280.2 287 291.2 295 297.5 300.1 303.3 306.4 310.7 313.1 312.5 314.4 317.1 320.9 324.4 329.8 337 342.6 344.2 345 345.2 344.4 339.2 337.5 338.3 341.7 347.8 350.3 351.5 352.9 354.6 355.3 354.4 355.4 360.6 363.8 368.9 370.9 369.8 365.9 359.8 355.9 352.4 347.9 344 339.1 336.5 337.3 338.3 338.4 331.3 324.8 323.2 323.1 323.1 330.4 334.9 339.8 344.6 347.9 350.2 353.5 356 357.4 358.4 355.1 350.6 344.4 331.4 313.9 300.6 292 282.3 270.8 260.1 253.2 249.5 245.9 243.2 241 238.3 235.6 235.3 233.7 232.2 225.7 216.8 204.6 192.2 200.4 201.6 202.7 203.8 205 206.4 208.3 210.2 212.3 216.3 219.9 221.8 223.9 227.9 234.1 241.9 250 258.6 262.9 262.5 258.4 250.8 244.8 259.2 268.5 273.7 277.9 284.9 290.9 292.7 293.7 295.1 297.4 300.6 304.1 307.2 309.1 310.8 311.5 312.6 313.1 308.7 298.6 289.6 280.5 273.1 264.7 260.2 257.9 260.1 263.8 267.7 269 273.3 278 284.6 294.5 303.1 311.9 322.7 334.8 341.8 346.9 350.4 354.6 361.2 366.7 368.9 365.1 357.5 351.3 350.6 354.5 359.9 366.1 374.3 381.8 383.6 384 383.2 384.3 382.8 382.2 377.1 368.3 351.7 332.1 301 266.4 237.5 234.7 231.3 231.1 231 233.2 236 239.8 242.8 239.2 232.2 227.1 234.8 247.8 267.3
221.4 228.8 234.1 238.9 243.2 250.1 260.1 269.6 277.9 284.5 290.4 294.5 295.9 297.5 300.2 303 305.6 307.7 310.7 313.4 318.3 325.8 333.1 337.9 341.9 346.1 347.4 346.3 342.5 341.6 343.2 342.7 344.6 349.6 351.5 352.1 352.6 353.3 353.4 354.8 358.9 364.2 366.8 370.4 368.9 364 359.7 355.3 352.8 349 344.8 342.3 340.3 341.4 342.6 342.5 337.1 329.8 326.8 326.3 325.5 326 331.4 341.1 349 355.2 357.6 357.9 358.2 358.6 359.3 358.9 356.7 351.5 341.8 328.9 313 299.1 287.3 274.9 265.5 255.9 250 246.2 243 240.4 238 234.7 232 231.8 231.3 229.2 222.5 215 202.3 192 200 201.6 202.3 202.9 203.9 204.9 206.8 208.6 211.3 214.9 217.4 220 222.1 225.1 230.9 237.5 243.7 251.7 255.4 257 248.4 241.6 254.4 265 271.5 278 285.5 292 294.7 295.7 296.7 297.6 300.1 303.2 306.4 306.7 308.2 307.1 306.7 305.2 299.2 288.7 279.3 272.7 266.3 260.6 258.6 257.3 255.4 257.3 260.8 262.8 265.4 271.5 281.3 291.6 299.6 309.5 320 329.8 334.7 337.1 340 344.7 351.4 357 359.8 360.1 355.7 347.3 344.8 349.2 355.2 361 366.9 372.7 375.7 375.5 374.2 372.5 373.3 374 367.2 357.6 348.2 336 318 293.5 260.9 235.9 226.5 225.4 224.1 224.8 227.3 230.8 235.7 233.5 230.7 227 231.9 244.4 263.2 282.1
230.3 224.2 229.2 235.3 239.2 243.2 249 255.2 260.7 267.7 275.6 284 288.7 292 295.3 297.8 300.6 303.3 307.4 310.6 316.6 325.3 331.3 336.6 342.9 346.6 346.6 344.7 342.5 343.4 343.8 343.9 345.1 350.9 353.6 354.4 354.4 354 354 356.3 363.6 365.7 367.4 367.5 364.5 358.9 353.8 349.1 345.7 343.6 342 342.5 343.9 345.8 346.1 340.1 333.6 330.1 329.6 327.4 326.3 325.3 328 343.3 356.6 362.4 361.5 361.1 361.1 360.5 360.5 359.4 358.5 350.2 339.4 329.9 315.4 301.6 287.1 272.9 261.9 254.1 248.8 244.6 241 238 235.7 232.1 228.8 228.1 228.4 226.7 220.9 212.6 195.4 193.8 199.6 200.9 201.3 201.8 202.6 203.4 205.3 207.5 209.6 212.9 214.9 217.3 219.9 221.9 224.6 228.6 233.8 238.1 242.1 245.4 237 246.9 262.6 271.6 278 286.3 292.2 295.3 297 298.5 299.4 300.6 302.9 305.8 307.8 307.3 305.9 302.9 297.2 288.8 280 271.4 264.9 260.7 256.4 254.8 254.9 253.8 252.6 254.7 256.7 258.8 264.2 275.6 286.4 295.5 305.9 317 326.6 330.8 331.2 331.6 335.9 342.7 347.2 351.3 353.6 351 345.2 340.8 344.1 350.4 356 361.4 366.8 367.4 367 365.8 364.4 363.3 362.6 357.3 345.7 334.5 323 310.1 294 271.1 246.2 230.4 222 221.1 218.2 220.1 223.9 227.3 229.8 226.1 225.6 231.2 242.8 258.1 278.6 291.5
231.1 229 233.1 231.2 236.5 240.2 243.5 247.5 252.6 259.5 265.4 268.1 272.9 281.1 289 294.2 296.7 299 302.9 307.8 314.7 322.1 327.3 336 343.1 344.6 343.6 343 343.7 343.1 343.7 345.7 347.6 350.6 353.4 355.6 356.8 357.1 357.1 360.3 365.3 367 366.5 364.4 360.5 354.3 348.8 343.7 339 339.1 339.8 342.2 346.3 347.2 340.7 327.8 326.5 327.8 326.3 327.2 327.7 324.4 332.3 350 360.7 365.3 363.5 360.8 359.1 358 360.4 360.7 357.5 346.5 336.9 330.3 318.8 304.4 289 273.2 262.8 256.6 250.6 245.2 240.7 236.8 233.7 230.2 226.8 223.6 224.1 223.3 217.8 207.7 190.7 192.9 199.2 200.2 200.6 201.2 202 203 204.9 206.8 208.9 210.8 212.8 214.8 217.1 219.5 222.5 224.2 228.8 232.3 234 234.7 244.6 259.3 270.9 278.2 285.7 290.6 294.6 296.8 298.7 300.3 301.8 303.6 305.7 308.4 307.4 305.2 300.8 292.2 281.2 271.8 263.4 258.1 254.8 252.3 251 250 250.3 250 250.8 252.1 254.5 257.8 263 273.1 286 295.6 308.9 318.4 322.5 324.6 321.7 329.4 336.7 338.9 342.4 346.2 349.3 345.4 341.4 338.7 344.3 351.9 356.3 360.3 362.2 362.9 361.7 357.6 353.8 345.1 337.5 332.5 323.6 312.5 299.3 282.2 264.1 244.5 234.2 222.6 217.8 216.4 213.2 215 219.5 224 222.8 224.9 233.8 244.1 255.7 273.6 289.9 299.7
231.5 232.4 234.4 236.2 236.1 236.1 240.3 243 246.1 249.7 252 257.2 262.2 268.2 278.6 290.5 293.6 296.4 298 301.4 308.9 316.4 323.4 331.3 336.2 341.4 342.9 341.5 340 340.7 341.5 346.1 347.9 346.5 351.5 359.2 360.6 358.8 358.3 364.9 367.6 365.4 363.3 363.6 356.9 350.1 342 337.3 335.4 336.3 337.3 340.4 341.3 332.6 325.9 322.6 322.7 325.2 327.2 327.5 319.1 325.9 345.7 358.1 362.6 362.2 361 357.2 353.1 354.3 357.8 359.7 353.2 342 334.9 331 321.9 307.4 291.1 278.3 270.3 263.9 259.9 252.1 241.5 236.7 232.6 229.2 225.5 221.2 219.1 218.2 211.9 202.1 189.8 193.6 198.2 198.6 200 200.9 201.7 202.9 204.9 206.5 207.9 210.1 212.5 215.6 218.8 222.5 226.1 231.5 236.8 241.8 249.5 256.7 264.6 272.5 279.8 283.5 288.6 291.9 295.1 297.8 300.9 302 303.4 305.4 307.4 307 304.4 297.8 285.7 271.6 264.3 257.1 252.2 249.9 247.4 246.1 246.6 246.6 246.6 247.1 248.4 250 253.4 260.9 270.8 273.8 278.1 287.7 300.6 309.6 314 315.5 315.9 326.3 330.1 334 340.5 346.3 347.4 343.7 339.9 335.3 341.8 349.5 353.2 355.6 357.4 357.7 355.1 347.3 332.1 321.5 314.5 309.8 299.4 287.2 269.5 248.4 237.8 230.9 222.7 218.1 215.1 211.9 210.8 212.1 216.2 215.8 225.2 234.1 248.6 261.2 274.4 288.7 297.1 307.3
234 233.7 235.1 237.3 239.2 241 240.3 240 244.1 247 248.9 252 256.1 261.8 275 287.6 292.2 295 296.6 298.2 302 308.4 315.8 323.1 329.6 334.1 337.4 337 337.3 338.9 339.7 340.9 341.7 347 359.8 356.8 355.1 354 358.5 365.2 363 362 359.2 355.7 351.3 344.9 335.3 332.1 331.6 333.1 334.8 336.6 330.2 325 320.6 317.8 319.6 323.3 323.9 313.9 318.7 331.4 348.2 358.8 360.9 358.5 356.6 354.2 348.8 349.5 351 349.6 343.3 335.8 335.3 331.3 324 310.2 293.8 284.4 278.8 273.3 268.3 261.4 251.9 237.8 232 227.9 225.1 221.3 218 211.9 207.5 201.8 188.6 190.7 196.1 198.5 199.5 200.4 201.3 202.7 204.6 205.5 207.9 210.8 214.3 218.9 223.6 227.4 230.9 238.1 243.6 254.7 264.9 269.8 274.5 283 286.3 287.6 291.9 295.4 298.3 301.3 303.6 304.2 304.7 304.7 304 299 290.2 279.8 266 257.1 250.3 246.7 244.9 244.6 243.7 242.9 243.1 243.3 243.7 244.6 246.4 249 255.3 262.5 265.1 269 274 280.8 289.4 295.5 303.6 309.8 320 323.7 328.2 334 340.8 345.9 346.8 342.7 335.9 330.5 335.7 343.6 347.9 350.3 351.7 352 345.8 327.6 304.2 294 289.5 284.6 270.6 252.8 239.1 232.1 223.7 218.6 215.4 214.2 211.8 209.3 210.2 211.9 217.9 223.8 235.8 252.8 265.7 278.9 290.7 294.7 301.1 311.9
235.6 235.5 237 238.5 240.7 242.9 243.6 244 244.5 245.3 247.8 250.8 253.8 261.2 274.1 282.9 288.8 293.6 295.9 297.6 299.1 302.7 308.2 315.3 321 325.2 327.8 331.8 337.3 339.1 339.7 341.3 346.6 356.6 353.9 350.7 349.3 353.3 356.7 359.4 362.7 359 353.2 351.6 346.6 338.3 331.3 329 328.8 329.9 330.1 325 321.1 319.3 315.2 315.5 316.7 315.6 305.5 310.8 322.3 334 348 357.8 359.9 359.7 355.9 351.5 346.8 341.9 340.5 336.3 332.4 334 334.4 333.9 324.3 312.6 296.3 289.6 285 280 273.7 267.9 259 248.4 234.7 225.3 222.5 220.7 215.9 210.3 203 199.5 187.7 192.4 197.1 198.8 199.4 199.7 200 201.9 204.1 205.6 208.7 212.5 217 221.7 226.5 232.1 239.8 249.6 260.7 273.4 280.5 286 292.1 297.1 296.4 297.9 303 305.7 308.7 309.3 306.8 305.8 302.9 299 294.1 284.7 275.8 262.4 251 245.6 241.9 240.4 240.1 240.6 240.3 239.9 240.2 240.8 241.3 242.4 245.1 248.6 253.9 257.6 263 271.2 280 288.5 296.3 304.4 312 319.5 325.6 330 333 338 343.9 349.9 348.4 336.7 328.2 322.3 330.1 336.5 341.9 345.4 343.8 337.8 322.9 304.3 285.6 264 264.9 254.3 238.8 230 224.4 220.3 216.1 213.6 212.1 208.8 208.3 208.4 210.7 216.5 221.4 231.1 249.7 267.1 281.9 294.1 300.9 305.7 313.1 323.9
237.4 237.7 239.1 240.4 242.7 245 245.6 245.9 246.1 246.6 247.6 249.9 252.8 258.6 268.2 275.3 281.4 287.7 291.8 295.3 297.3 299.1 302.5 305.7 311.1 315.2 323.2 329 333.4 336.5 342.2 346.1 355 355.5 352.2 350 349.3 350.9 355.5 358.9 357.6 354.2 346.7 342.5 335.9 328.5 326.4 325.6 326.4 329.5 321.5 317.6 320.3 317.8 311.7 310.2 309.1 301.3 301.9 309.8 315.9 329.4 343.9 355.6 357.4 358.2 355.4 350.6 345.2 338.8 332.1 326.2 326.9 329 330.5 329 321.9 313.2 302.4 294.8 289.7 284.7 277.7 267.9 260.3 251.1 238.7 227.5 220.4 217.4 213.6 207 201 195.2 190.4 186.9 194.2 196.4 197.2 197.6 198.3 200.7 203.5 206.2 209.9 213.7 217.8 222.1 229.2 242.5 253.3 264.7 279.3 290.4 296.1 303.7 311.8 312.3 308.6 313.6 320.7 321.6 320.4 315.3 310.3 306 298.6 292.5 288.1 279.5 261.4 249.6 239.2 237.5 236.6 236.1 236.8 237.2 236.8 237.4 237.8 238.8 239.3 241.4 244.2 247.8 253 259.5 268.6 279.8 289 299.8 311.1 321.2 328.7 332.3 335.5 337.4 342.1 347.2 353.9 355.7 347.3 327.8 317.8 315.1 326.3 331.7 334.8 333.9 318.5 310.7 296.6 279.6 266.1 250.5 239.3 229.6 221.5 217 213.7 212.3 211.5 211.6 211 206.2 206.6 207.4 213.7 220.7 228.3 243.9 261.2 273.8 286.5 299.5 313.3 319.1 327.5 336.2
244.5 241.5 241.1 242.4 244.5 246.4 247.8 248 248.3 248.9 250.9 251.3 252.1 255.5 259.2 268.2 274.4 280.3 286.8 291.1 294.1 296.5 298.2 300.5 302.8 305.8 311.8 318.9 325.5 333.3 339 345.4 350.2 350.2 350.6 352.2 348 347.2 351.7 348.7 341.7 340 335.4 329.8 327.7 323.5 323 323 323.6 321.3 318.7 319.6 318.9 315.3 311.4 304.5 295.7 290.4 295.2 302.4 314.3 331.8 340.3 352.2 354.3 353.9 352.1 347.5 343 338.2 329.6 319.5 320.2 323 325.6 322.3 317 310.9 303.1 295.1 290.6 285 275.4 264.9 258.5 252 243.8 233.1 220.5 215.5 211.9 205.8 197.8 194.5 190.5 185.2 191.5 194.5 195.7 194.7 198.2 200.9 204 207.5 211 215.5 219.5 223.6 238.4 253.8 265.7 276.4 289 299.9 308.5 317 323.2 319.9 320.7 325.9 330.3 329.4 326.4 316.6 308.9 301.9 294.8 289.4 280.8 262.1 250.7 238.4 232.8 233 233.3 233.4 233.4 233.6 234.5 235.4 235.4 236.2 238.1 240.9 243.6 248.9 256.8 267 280.2 295.4 309 321.4 331.8 333.7 337.1 340.8 343.3 345.6 349.3 357.7 364.8 362.6 340.2 318.5 303.2 315.6 319.3 320.3 317.8 308.6 294.2 282.6 270.3 256.7 246.5 235.5 226 219.8 213.8 210 207.8 207.7 207.9 211.9 207.9 205.3 205.8 208.9 216.2 224.5 236.8 252.1 271.8 287.2 305.2 317 325.4 334.1 341.5 349.9
260.7 251.5 245 244.4 246.1 248.5 249.1 250.4 251.3 251.7 254.1 254.1 254.5 254.5 256.1 259.7 264.3 269.1 276.4 282.2 291 294.6 295 297.1 300.2 302.5 307.1 313.5 317.9 328.2 336.7 339.6 340.3 343.4 348.8 347.9 345.7 343.2 341.2 335.1 331.4 329.1 326.5 325.5 323.5 319.7 319.9 321.9 320.7 318.4 319 319 317.6 316.4 313.2 302.5 286.6 285.8 289 299.6 320.9 336 342.1 349.1 350.4 349.6 347.5 345.3 341.7 336.7 325.2 311.6 308.6 311.2 314 311.8 309.8 308.2 302.5 295.4 290.3 280.1 270.2 263.6 258 252.6 246.4 237 226.6 215.1 210 203 194.5 190.4 186 184.2 190.5 194.1 193.1 195.9 198.8 202.2 205.7 209.2 213.7 217 221.5 231 247.7 262.3 271.7 283 295.3 306.8 316.8 324.3 326.9 327.5 329.9 332.5 333.2 330.3 321.2 311 303 296.2 288.4 278.5 262.2 251.2 238.4 232.1 229.9 230.4 231 230.6 230.3 230.9 232.5 233.4 233.6 234.3 237.6 241.1 246 253.8 267 283.7 300.6 313.5 321.6 328.4 331.6 335.7 341.2 345.5 348.6 351.2 358.5 366.9 372.1 363.7 336.1 305.8 289.4 298.3 301.4 299.4 294.2 285.1 271 257.5 245.9 235.9 228.4 219.6 215.7 211.5 208 205.6 204 204.2 209 209.6 204.3 204.8 207.2 211.5 221.2 236.2 253.8 273.5 288.3 305.1 318 323.5 338.5 346.8 352.6 358.8
266.4 261.8 249 247.2 248.4 250.1 250.5 252 252.7 253 255.6 258.1 257.6 256.9 256.3 259 262.4 266.7 271 276.1 283.9 288.5 294 297.8 300.2 303.7 305.4 309.8 311.8 319 324.3 329.1 333.7 338.9 341.8 341.6 340.3 335.8 333.8 329.3 328 327.1 324.5 321.8 317.5 315.7 316.3 318.1 317.3 316.9 316.9 316.3 314.9 312.1 302.5 288.4 281.6 281.8 287 305.2 325.6 335 340.1 346.5 346.4 345.4 345.6 343.7 339.2 331.1 317.4 304.5 300.3 301 301.5 301.5 302.4 302.4 301.2 297.4 292.4 277 268.4 264.2 258.6 252.9 247.2 239.7 230.4 217.5 208.5 197.3 188.7 183.9 182.7 183 187.1 189.6 191.7 196.8 199.9 204.3 207.8 211.4 215.3 217.7 221.9 236.8 253.1 265.9 275.7 288 301.3 312.2 323.4 330.2 329.1 329.8 333.1 333.7 331.8 324.2 311.4 303.6 298.6 287.1 278.2 264.3 251.8 239.9 230.9 227.5 228.2 228.7 228.3 227.3 227.2 228.8 230.4 231.6 232.4 234.5 237.8 245 255 270.5 284.8 298 308.5 316.3 321.5 325.3 329.1 335.7 341.8 343.8 346.8 356.5 365.7 374.5 376.6 359.8 326.8 297.2 280.7 275.1 278.3 279.7 272.3 262.3 250.4 239.4 229.9 219.9 213.3 208.7 206.6 204.8 203.7 203.1 201.7 204.1 208.6 204.2 204.3 208.9 213.1 223.4 238.6 257.5 275 289.6 301.4 312.1 320.4 328.5 340.6 353.9 361.6 367.6
272.2 266.3 256.3 253 252.5 253.1 253.2 253.2 253.9 254.7 256.9 260.1 262.4 263 262 260.6 262.8 265.8 275.3 279.2 279.8 282.8 288.3 298.4 307.3 313.3 316.3 313.2 311.6 312.6 314.2 317 323.3 330.5 331.9 337.2 334.5 332.8 328.8 327.7 328.3 328.1 323.1 316.2 311.8 310.4 311.8 312.6 312.4 312.8 313.1 313.5 309.4 303.1 288.7 279.9 277.1 281 294.8 317.2 330.5 342.1 345.8 342 340.9 342.9 344.6 340.9 333.5 323.1 305.9 296.3 293.8 295.6 297.5 298.6 299.9 301.3 300.2 297.1 289.2 276.2 266.9 262.3 257 251.1 245 238.1 229 215.5 204.2 192.9 183.9 183.3 184.6 190.3 191.6 192.6 193.4 196.6 200.7 204.8 209.8 213.7 216.4 218.8 225.1 239 254.9 267.4 277.9 291.8 304.6 315.4 325.7 332.9 328.9 330.3 333.4 330.6 325 318.2 304.4 295.2 285.2 275 264 253.5 242.1 233.2 229.3 225.2 225.8 226.5 226 224.8 225.4 226.9 228.5 228.7 231.7 235.9 246 256.3 267.9 277.8 289.6 300.2 308.2 312.8 315.7 320.2 323.7 328.6 333.7 340.1 347.2 357.2 368.7 376.3 374.7 351.5 325.6 295 275.5 268.2 263.1 264.7 259.5 246.3 236.2 227.2 220.1 212 206.3 201.6 200.4 200.9 200.3 200.3 199.8 200.1 202.7 206.6 210.4 215.4 224 240.6 262.1 281.1 293.5 304 311.9 320.4 328.2 333.3 340.6 350.4 362.6 371.2
276.4 271.8 265.5 262.3 257.9 256.6 255.8 254.5 255 256.3 257.6 261.1 265 268.4 269.6 267.9 265.2 268.9 274.8 278.7 280.9 282.9 289.9 303.6 314.4 320.1 320.9 319.7 321.4 321.3 319.9 316 316.3 319.7 322.2 325.3 324.6 325.8 326.4 325.8 326.7 324.4 318 310.7 306 305 305.2 305.1 304.7 305.5 307.5 307.2 301.7 290 278 273.8 276.3 285.1 306.1 321.2 332.3 339.9 336.8 331.6 335 340.1 340.6 337.2 328.1 308.6 294.6 290 288.1 291.5 294.2 295.4 297.2 298.9 298.7 295.7 286.3 278.4 269.1 259.4 253.5 246.6 238.9 232.2 223.6 210 198.2 186.8 181.3 183.4 187.6 190.9 192.2 193.6 195 197.9 202 205.8 210.1 214.3 216.7 219 224.5 240.5 257 270.6 280.6 293 305 314.1 322.9 327.6 328.8 329.8 329.2 328.8 319.6 311.1 293.6 281.7 275.2 263.9 255.2 244.8 233.9 230.4 227.7 224.7 223.8 224 223.3 222.5 223.8 225.1 226 228.3 232.6 240.4 253.4 261.9 270.6 279.7 290.1 298.8 303.4 306 309.1 314.2 317.7 321.6 327.6 336.6 345.2 355.5 367.7 367.7 359.5 344.9 321.2 293.6 272.1 261.5 255.9 252.3 246.6 236.2 227.2 218 212.5 205.7 201.4 199.6 198.6 198 198.2 198.5 201 203.7 210.3 215.4 218.7 223.2 240.2 261.8 286.9 295.2 303.6 315.7 323.2 333.5 337.8 346.1 357.3 358.2 368.9 371.2
278.1 279.4 280.9 274.7 262.7 258.9 257.7 256.3 256.4 257.4 258.5 264.3 269.5 274.1 274.6 275.1 273.5 271.5 273.6 279.9 281.1 284.8 292.8 307.3 315.4 320.2 320.4 323.7 329.1 334.3 333 325.4 322.3 322.1 319.8 321 322.7 323.3 323.9 322.5 318.5 314.8 309.7 304.4 299.6 296.2 297.4 297.9 297 295.7 294.5 293.7 287.4 277.9 270.2 267.2 275.5 290.8 308.4 321.6 324.2 323.6 324.7 328.3 332.5 338.1 337.2 331.4 314.4 295.7 283.6 282.2 283.8 287.3 289.8 291.6 293.9 295 295 292 286.8 279.1 269.2 257.8 249.4 241.2 233.7 226.2 217.9 204.7 192.5 179.9 181.7 183.8 186.9 190.8 193.1 195.1 197.1 200.6 203 206 209.8 214.2 216.9 218.9 224.7 242 258.2 271.3 282.7 293.8 303.5 312 320.1 323.1 323.8 319.5 318.5 312.8 307.9 294.6 279 274.5 263.1 253 243.3 232.6 230.3 227.6 224.8 223.2 221.1 221.4 220.8 221.7 222.5 223 224.4 228.7 234.9 244.1 255 262.8 271.3 279.7 287.7 293.1 296.4 297.9 302.2 306.8 310.7 313.9 318.6 323.8 331.1 337.5 344 337.4 332.1 323.7 312.6 291.4 272.2 260.7 250.7 245.9 239.4 230.4 222.7 215.8 209.4 204.5 201.1 199.2 197.9 197.5 197.8 198.4 204.3 211.7 218.1 221.6 222.9 238 260.3 287.6 296.8 300.6 316.7 334.8 339.8 345.2 349.2 356.4 359.8 365.5 372.6 371.5
288.1 289.5 288.9 282.5 267.9 261 259.7 258.6 257.9 258.7 260.6 268.9 274.5 278.7 279.5 280.2 280.8 279.5 279 280.1 283.2 287.8 292.6 307.7 315.8 319.2 320.7 327.1 332.5 339.2 337.8 328.4 330.4 329.7 325.6 323.8 323.4 324.3 325.6 328.2 318.8 310.8 303.5 297.8 292.8 289.6 288.9 288 287.7 287.4 286.1 283.6 277.9 268.7 264.3 267.8 270.8 283.2 294.6 301.6 307.6 314.5 320.9 325 333.1 337.1 333.5 322.6 300.4 288.4 280.2 271.4 273.3 280.1 283.1 286 289.4 290.8 289.8 288 284 278.1 268.2 256.6 246.7 238.6 229.9 221.4 212.4 198.5 188.2 179.5 181.2 183.8 187.9 191.2 193 195.5 198.3 200.9 203.5 206.2 210.2 214 216.9 219.4 225.2 241.3 257.9 270.5 282.4 293.1 301.5 309.4 314.4 314.9 307 303 305.4 302.5 293.2 280.5 268.4 256.9 247.7 238.8 230.4 227.1 226.3 223 221.2 219 218.4 219 219.2 219.4 219.8 220.9 224.7 228.8 236.8 246.8 256.5 263.9 272 279 283.7 286.5 286.4 288.8 293.6 297 300.3 304.9 311 317 323.7 325.6 325.3 322.2 321.5 319.8 313.2 293.3 276.8 263.8 252.3 241.6 235.6 227.6 221.2 214.4 208.7 203.8 200.4 199.1 198.2 197.8 197.8 202.7 211.6 216.4 222.6 227.2 238 256.2 281.8 301 300.2 314.7 334.5 344.6 350.4 355.9 359.2 365 375.2 369.5 366.6 366.7
298.3 300.9 296 286.3 272.7 263.6 266.1 263.5 260.6 260.7 262.8 272.2 277.7 280.6 282.7 284.3 284.7 284.8 285.4 285.3 285.3 286.6 288.8 293 302.8 312.3 319.7 326.6 333 336.4 333.1 328.3 331.2 328.5 326.3 324.6 324.4 324.8 325.2 322.7 319.7 312.1 301.9 293.2 287.9 284.5 283.5 283.6 281.5 280.1 277.8 275.3 270.5 263.4 257.3 260.6 260.4 266.1 277.5 287.6 298.7 309.3 318 322.8 328 330.9 326.4 311.6 295 288.1 273.7 266.7 269.2 272.5 275.3 278.3 281 281.6 282.1 282.7 281.8 279.2 267.5 256.3 245.7 237.4 228.1 216.9 207.6 193.2 179.6 179.1 183.4 188.2 190.6 190.7 192.3 194.8 198 200.8 203.3 207.2 211.2 215.1 219.1 223 226.3 241.2 258.3 270 281.5 291.1 298.5 304.5 306.3 303.4 290.2 287.2 284.5 280.6 279.3 265.8 249.4 240.9 234.6 226.8 223.1 222.2 222.4 218.9 217.4 216 216.2 216.9 217.3 217.5 217.6 220.9 224.5 229.8 237.6 248.3 257.1 265.3 272.9 277.4 280.9 281.3 280.1 282.6 288.3 291 299.7 308.8 317 326.2 329.6 327 329.2 331.7 332.8 327.4 317.9 305.3 287.5 270.1 257.8 245.8 235.2 227.1 219.2 212.7 208 203.6 200.6 199.4 198.8 197.9 199 206.3 214.4 219.9 227.7 237.1 255.3 277.6 297.4 301.2 309.7 328.7 341.6 353.6 358.1 361.2 375.7 371.2 361.6 355.9 356.1 362.3
308.8 307.4 301.1 294.1 281.2 269.3 270.9 269.6 267.2 264.9 264.6 274.3 279.3 283 286 286.8 288.2 288.6 289.2 289.2 288.2 287.2 288.4 291.6 297.5 306.2 316.3 324.1 327.8 329 326.7 326.6 328.7 331.8 326.8 325.2 325.3 324.5 321.1 317.4 314.8 310.3 302.5 292.4 285.1 280.3 278 277.2 275.7 273.2 271.6 267.7 261.7 256.3 252.1 250.1 250.7 252.2 258.9 270 284.4 301.7 311.6 315.6 317.7 320.6 316.9 301.4 294.5 284.5 268.8 260.2 262.8 266.1 267 269.4 271.3 271.5 272.4 273.6 275.3 274.9 272.5 263 249.7 237 228.4 215 201.2 187.4 178.4 179 190.6 192.1 191 190.6 191.5 194.1 197.2 200.2 203.8 207.8 211.9 215.9 219.7 222.6 228.1 240.7 258.3 269.2 280 287.3 292.8 299.1 296.3 290.9 283.3 280.1 278.1 276 263.6 248.4 236.3 227.5 222.3 218.7 217.6 218 218.1 216.6 214.1 213.3 213.6 213.9 214.6 215.1 217.6 221.1 225.1 232.9 241.3 250.9 260.4 267.8 272.7 276.1 276.1 275.7 274.5 281 284.7 290.8 300.2 309.1 317.5 321.7 322.7 325.1 329 332.4 331.1 325.1 319 313.8 300.2 283.7 269.7 255.3 241.1 229.8 218.6 210.8 206.8 203.1 200.4 198.5 197.3 197.4 199.7 205.2 211.3 220.1 232.3 247 272.6 294.3 305.2 307.4 323.4 338.2 348 359.8 366.1 372.2 364.3 353 344.8 343.7 350.9 362.3
312.4 312.5 306.6 299.4 287.2 277.8 276.5 276.7 275.7 273.1 270.2 275.1 282.3 286.2 290.4 293.1 294.1 293.5 293.5 292 290.2 288.9 289.6 293.8 298.1 306.3 320.5 322.9 324.7 325.4 325.9 327.3 332.4 329.2 325.1 324.7 323.3 320.6 317.1 314 311.3 306.2 300.2 292.1 283.8 278.3 273.9 271.5 269.4 265.9 264.3 262.7 256.9 252 248.5 246.7 245.9 246 248.6 254.3 263.4 273.5 284.8 293.4 302.8 309 304.6 299 294.4 279.7 260.8 256 258.9 261.6 262.1 264.1 265.5 267.5 268.9 270.7 272.2 273.1 273 271 258.1 244.6 231.9 217 197.3 183.3 177.7 181.7 190.3 193.3 192.2 191.5 191.5 193.6 196.5 199.6 203 207.1 210.4 213.5 215.8 218.7 225.1 240.2 257.3 268.6 277.5 283.9 289 291.9 287.4 282.3 279.3 276.1 265.3 254.9 246.4 236.2 224.3 219.2 215.5 213.6 214.8 214.2 213.8 213.6 211.6 210.8 211.4 211.1 211.4 212.9 217.1 220.7 229.4 237.6 244.5 255 263.6 270 275.4 276 274.9 272.9 272.2 279.1 285.8 292.4 299.5 306.8 311.1 315.6 318.8 324.3 327.9 326.5 324 325.3 319 309.4 300.8 294.7 287.9 268.7 252.5 235 215.5 208.2 204.8 201.3 199.7 197.8 196 197.2 199.5 203 209.9 223.6 241 258.5 282 301.3 312 322.2 336.2 350.1 359 368.7 368.6 358.2 344.9 336.1 336.8 341.5 352.1 364.5
316.5 314.8 310.4 304.9 297.7 287.5 283.2 282.9 282.4 282.8 279.7 278 285.6 289.8 295.1 297.6 299.7 301.8 302.4 296.7 292.5 290.1 291.8 295.2 300.4 313.4 317.6 319.9 321.8 323.5 327.5 331.5 332.2 329.3 322.7 322.1 319.7 316.8 314.6 311.4 307.7 302.3 297.5 291.5 284 277.3 272.9 268.7 264.4 259 256.7 256.7 253.5 249.7 246.3 243.9 240.9 241.2 239.9 240.5 244.9 253.9 264.2 274.9 287.7 296.7 298.4 298.9 291.4 273 254.7 249.8 255.4 256.1 257.7 259.7 261.4 263.4 265.5 267.3 268.6 269.9 269.8 267.5 261.6 249.3 237 218.4 197.8 178.5 176.5 180.7 189.6 196.7 195.4 193.5 193.3 195.3 197.4 200 201.9 204.5 207.6 210.7 212.6 215.8 222.8 239.7 255.1 265.9 273.5 278.2 283 283.5 279.8 274.8 270.2 259.6 248.7 242.9 234.9 223.7 214.9 214.3 212.5 211.9 212.8 212.1 211.4 210 209.9 209.8 208.4 209.6 208.7 211.5 216.2 221 227.7 233.6 244.2 259.8 268.3 274.1 277.9 275.5 271.9 270.2 267.2 277.2 286.2 293.5 299.1 304.5 309.7 314 316.4 318.3 317 316.4 318.4 316.2 306.2 301.9 297.6 296.6 288.6 274.3 257 240.6 216.7 206.6 201.4 199.5 198.2 196.4 196 196.4 198.2 203.9 214.7 231.3 251.1 273.2 293.9 307.8 317.2 328.4 342.7 351.9 362.4 364 354.9 339.6 330.4 330.5 334.7 344.5 357.2 370.7
319.7 318.7 315.1 311.4 305.3 298.1 290.4 287.6 288.8 289.6 285.9 279.9 288.9 295 299.5 301.5 303.5 307.5 309.7 304.4 297.7 293.3 292.8 297.1 307 310.9 312.9 314.2 316.6 321.7 328.7 331.8 332.1 331.2 323.9 319.1 316.4 314.5 312.6 308.3 303.3 300.1 295.9 291.1 284.7 277.8 273.7 270.3 266 261.9 257 251.9 250.1 247.4 244.7 241.9 239.3 236.1 233.6 234 237.9 244.5 255.2 269.5 283 291 295.2 294.1 282.6 265.1 251.9 245.1 248.5 249.8 251.8 253.8 254.7 256.7 260.2 262.9 264.1 264.8 264.6 263.2 259.2 251.3 237.1 220.4 200.4 185.1 176.1 178.5 186.8 194.4 197.3 197.7 196.7 196.9 198.5 200.1 202.2 204 205.5 207.8 210 214 224.5 240.1 252.1 260.1 264.3 269.8 275.2 274.3 268.2 259.7 251.5 244.4 237.7 229.8 221.9 217.6 213.3 211.3 210.2 210.3 210.8 210 208 206.4 206.8 207 206.6 206.9 205.4 210.7 215.2 222.7 228.4 232.7 241 260.6 271.9 275 275.9 273 268 265.2 264.9 275.9 286.3 293.1 298.6 303.8 307.9 310.1 309.8 309.7 308 308.5 307 300.5 297 292.4 288.7 286.4 280.1 269.8 254.9 236.3 215.5 206.8 200.2 197.8 196.6 196.2 196.1 196.3 198.2 205.9 219 241.7 266.7 288.9 307.8 318.8 328.1 338.4 346.2 359.4 358.2 347.9 334.3 325 324.7 328.5 334.8 350.7 366.6 380.7
323.6 321.9 319 315.4 311.4 305.7 299.6 294.2 294.3 293.6 290.7 285.2 291.5 298.9 303.3 306.3 309.8 314 316.2 312 306.3 300.8 297 301.9 305.9 307.6 308.2 309.5 314.1 321.9 325.3 331 333.1 331 323.8 318.2 314.7 312.5 307.2 301.3 298 295.3 291.9 288.9 285.4 279.4 275.8 273.3 269.6 266 257.1 252.6 246.8 242.3 240.4 237.2 236 233.2 231.3 231.7 235.2 241.8 252.6 266.8 278.9 286 288.5 285.7 273 258.4 249.5 242 240.5 241.6 242.2 244.9 245 246.7 250.5 253.5 255.3 254.9 255.2 255.2 252.8 247 238 218.8 201 189.5 174.4 175.9 181.2 187 191.7 197 197.4 198 197.9 199.8 201.5 203.2 204.5 205.8 207.2 214.7 226.4 238.1 247.7 252.8 258.3 263.3 265.2 259.6 251.1 246.2 240.2 231.8 222.7 218.8 216.9 213.7 211.7 209.7 208.1 207.9 207.9 205.9 203.9 203.3 203.8 204.6 205.1 205.5 202.4 211 221.8 230.5 234.9 239.3 241.1 255.2 268.3 269.7 268.3 264.9 262.4 259.1 261.5 273.5 282.9 290.7 297.7 301.3 302.7 302.3 299.8 299.8 301.4 300.5 296.7 293.2 290.2 287.8 285.2 280.9 271.6 259.5 247.2 230.3 216.4 207 200.8 197.4 195.7 195.9 196.5 197.3 199.3 207.2 220.3 242.6 270.7 293.4 311.7 327.2 336.5 344.1 349.3 354 345.2 328.7 318.7 317.8 321.8 328.1 341.9 360 378.2 392.1
324.8 324.8 322.4 318.4 315 311.4 306.3 302.2 300.4 297.7 295.1 291.6 293.8 299.9 304.7 309.6 315.7 320.5 323 318 314 313.2 315.2 308.1 308.3 308.5 310.6 313 315.1 318.2 321 328.2 330.3 325.4 318.4 312.8 309.9 305.2 299.1 296 292.7 289.6 287.5 285.9 284.8 281.7 279.1 275.9 272.3 268.5 262.9 252.3 247.5 242.1 237.6 234.4 233 231.3 229.5 229.8 232.3 239.8 252.1 265.4 274.7 281 282.8 277.5 267.1 256.9 248.1 241.6 236.5 236.3 235.2 235.6 236.2 237.7 240 241.9 243.2 245.1 246.8 247.3 245.9 241.2 230 212.3 199.2 192.3 178.8 174 176 179.5 184.1 189.9 195.4 196.7 197.8 197.1 198.7 200.9 202 203.1 206.7 215.5 225.9 234.9 242.5 249.6 256.6 256.7 250.7 244.6 238.3 233.1 227.8 219.3 214.2 212.6 212.2 210.9 209.6 207.7 206.1 205.6 203.3 201.7 201 200.6 201 202.2 203.4 203.4 202.8 213.7 225.3 232.9 239.3 245.2 249.8 251.9 256.6 259.6 255.8 254.6 252.8 251.6 257.1 270.4 278 285.3 289.4 288.3 288.7 287.2 284.6 287 288.3 286.7 285.4 286.2 285.5 285.2 283 279.8 271.4 258.6 245.3 232.4 218.4 206.7 200.4 197 194.8 195.7 197.3 199.4 201.5 206.9 222.5 244.5 268.7 291.9 309.3 326.5 333.8 335.9 341.4 341.1 327.8 314.4 312.6 314.3 321.1 336.3 354.4 372.9 389.5 397.5
325 325.3 324.6 322.9 320 316 311.4 308.4 305.2 301.8 299.1 296.2 297.1 300.7 305.9 312.1 319.5 323.8 324.6 322.4 320 325.1 321.6 316.3 314.4 315.9 324 327.9 329.3 325.5 320.6 324.1 324.8 319.8 315.5 307.8 300.6 293.7 290.1 287.6 285.6 283.9 283.3 282.3 281.8 281.4 280.4 276.4 272 268.2 263.2 255.8 248.6 241.3 235.2 231.8 230.6 229.2 227.5 226.8 231 240.3 252.5 264 271.2 276.4 278.8 273.4 265 256.2 247.4 240.8 235.4 232.3 231.2 230.9 230.4 230.6 231.9 233.5 235.6 238.1 239.6 239.5 238.3 233.2 221.7 203.6 193.7 188.6 181.1 173.2 173.3 175.2 177 181.1 192.4 194.8 194.1 194.2 196.3 198.5 199.6 201.3 206 214.8 224.1 232.2 240.1 246.8 248.6 242.8 236 229.9 224 220 214.2 210.7 208.8 208.3 208.5 207.9 207 205.7 204.1 202.4 199.7 199.1 198.5 197.5 200.2 199.9 199.9 198.8 209.3 217.7 225.5 232.5 237.8 242.5 248.1 249.6 248.7 246.6 248.2 248.1 245.9 247.6 256.3 265.1 271 275.3 274.6 275.2 272.9 267.9 269 273.9 276.1 278 278.4 278.8 281.2 281.1 279.5 276.8 275.6 268 250.5 234.4 217.8 207.6 198.7 195.3 195.4 196.7 198.7 201.2 204.5 210 228.7 248.6 262.6 276.4 293.5 310.2 317.9 318.1 324 323.7 311.6 307.7 308.9 315 332 349.3 366.7 383.2 396.5 399.9
326.4 326.9 327.4 326.9 323.8 321 316.4 316.5 312.9 307.8 303.5 301.5 302.2 305.9 309.8 314.7 320.1 323.9 324.7 325 328.6 330.7 328.9 326.7 325.5 329 333.9 338.2 337.1 331.7 330.5 323.2 320.7 320.9 314.5 305.6 294.1 287.5 283.5 281.1 279.1 279.3 279.3 278.7 278.2 278 275.9 272.7 268.9 265.2 262 258.7 252.6 244.4 234.8 230.2 227.8 226.8 225.4 225.6 230.7 240.9 251.7 262.9 271.3 275.9 277.1 274.5 266.7 257.8 247.8 240.9 234.7 229.7 227.3 226.5 225.3 224.2 223.7 224.8 226.6 227.9 228.6 230.4 229.5 224.7 212.9 196.1 188.6 183.7 178.4 172.1 172.1 175.1 176.5 177.7 187.6 191.2 190.6 192.6 195.5 196.2 197.3 199.2 205.1 213.9 222.7 230.9 234.9 235.6 232.3 227.6 223.1 216.6 212.8 209.7 206.9 205.7 205.4 205.1 205.2 205 204.4 203.3 201.6 199.4 197.4 197.2 196.6 197.4 198.5 197.5 195.5 205.8 213.1 220.4 226.5 230.7 234.2 237.8 242.7 242 240.6 241.9 242.2 241.8 240.7 243.4 252.7 258.6 261.5 260.6 259.7 258.9 255.9 258.7 263.6 267.1 270.3 271.5 272.2 274.8 275.9 274.5 273.6 273.8 275.6 266.4 244.8 230.1 214.6 204.1 196.7 195.2 195.8 196.3 198.5 202.1 205.8 210.4 220.7 233.2 245.1 259 274.8 286.6 293.6 302.3 307.8 306.5 300.1 304.9 312.1 325.6 345.9 363.4 379.9 394.4 401.9 405.2
326.3 327.4 328.3 328.8 326.6 324.4 319.6 320 317.6 312.8 309.4 308 307.4 310.3 315.7 318.7 321.7 323.8 325.2 327.6 331.9 332.1 331.6 331.7 334.5 339.5 342.7 343.2 339.3 335.4 332.9 327.3 321.6 318.7 313.4 303.1 291 284.6 280.6 277.3 274.6 274.6 274.6 274.3 274.8 275.2 273.2 270.3 267.1 264.6 262.9 259.5 255.7 249.7 236.9 228.5 225.9 224.8 224 223.8 231.5 240.5 249.3 258.6 266.2 271.4 276 276 270.5 261.1 250.8 243.6 236.1 230 224.9 221.9 220.7 219.3 217.5 217.3 216.6 216.5 218.6 219.7 220.3 217.3 204.2 190.2 184.9 180.5 175.1 171.5 171.4 175.9 177 179 187.8 186.8 188.1 192.9 194.3 194.5 195.2 197.8 205.4 213.9 223.3 230.4 230.6 223.7 219.5 217.2 211.6 208.5 206.6 204.7 203.3 202.4 202.6 202.3 202 201.9 201.1 199.8 198.4 195.9 194.8 194.8 194.8 195.3 195.6 194.6 203.8 209 214.8 220.6 223.7 226.4 229.1 233.1 234 234.1 236.3 237.7 238.4 237.9 236.7 238.9 243.7 246.4 246.7 245.7 246 246.8 248.8 254.1 258.3 261.2 264.1 266.2 268.1 269.1 269.9 270.7 270.8 270.8 268 256.1 240.3 224.3 207.9 199.4 196.3 194.9 195 195.7 197.5 200.8 206.8 222.4 239.6 251.1 256 253.2 259.3 267.4 278.2 286.7 290.5 290.1 297.6 308.7 320.5 338.4 359.8 379.6 394.1 402.9 405.1 406.1
