ncols 200
nrows 82
xllcorner 260000
yllcorner 262050
cellsize 50
301.6 302.7 301.4 301.3 302.1 300.4 298.5 299.1 299.5 299.6 299.7 301.3 304.5 302.9 296.9 290.2 288.4 288.7 289.3 290.5 292.4 294.3 296 294.4 290.2 287.8 285.2 282.7 280.6 278.5 276.2 274.3 273.2 271 268.8 269.4 272.4 276.3 278.9 281.4 286.6 294.4 293.5 291.4 289.2 288.5 289.9 294.5 296.9 299.4 301.9 296.8 288.2 278.4 276.7 278.4 285.3 284.8 289.3 288.4 284.3 278.7 271 269.1 265.1 259.8 255.8 254.3 253.2 251.3 249.3 247.6 244.8 240.4 238.4 235.2 232.6 231.5 230.7 230 226.4 229 230.8 231.4 233.9 235.6 236.7 235.9 234.1 232.3 229.8 226.3 224.3 222.6 220.7 219.3 218.4 217.6 215.9 213.2 211.4 212.4 214.4 215.3 213.3 210 205.8 200 195.1 192.8 191.9 192 195.9 200.8 200.5 198.9 195.2 190.9 186.6 183.9 184 184.4 183.8 181.2 181.3 182.1 185.1 187.6 190 191.2 193.4 193.8 192.6 193.2 195.1 197.2 199.7 204.8 216.3 228.8 234.1 239.2 240.1 241.1 241 235.7 230.5 223.9 224.6 228.3 232.7 235.6 237 235.3 234.9 235.2 233.2 230.2 226.6 220.1 215.9 208.6 203.4 200.2 197.1 193.9 190.2 188.1 187.9 189.8 190.6 191.4 192.2 189.6 187.8 189.2 191.2 193.6 194.3 193.2 192 190.2 188.5 186.1 183.3 184.1 185 186.6 188.4 191.6 197.4 201.4 204.3 202.7 199.4 194.4 190.5 186.1 180.1 174.1
299.5 303.1 298.9 299.2 300.6 298.4 297.2 297.7 299 299.1 297.8 299.9 300.3 296.9 292 289.2 288 288.7 289.8 290.9 292.1 293.9 295.6 292.9 290 286.6 283.8 281.6 279.6 277.5 276.3 275.2 274.2 272.2 269.6 266.7 273.9 273.3 273.2 277 287.4 288.7 287.2 285.6 285.6 286.8 289.6 290.9 292.6 295.6 292.6 287.6 278.4 276 277.8 284.6 285.6 288.6 291.3 287.9 283.9 275.5 271.2 267 262.7 258.5 254.5 254.2 253.5 251.7 249.3 247 244.7 241.2 236.8 234.3 232.4 230.7 229.5 228.2 228.3 228.7 230.5 232.5 234.9 236.9 237.6 237.7 235.6 233.4 230.7 227.9 226 225.1 222.7 221.1 220 219 217.4 215.9 214.4 214.4 216 217.4 215 211.6 207.9 202.6 197.5 195.5 194.2 196.5 201 201.1 201.2 198.4 194.4 190.4 186.6 184.7 185.8 186.6 186.3 185.7 181.1 182 185.9 188.2 189.5 189.9 190.7 190.3 188.7 190 191.4 192.9 195.6 200.8 212.7 222.8 229.3 234.4 236.1 236.5 235.1 231 220.2 217.7 220.6 225.3 229.9 231.7 233.6 234.2 234.2 233.7 231.7 228.9 224.6 221 218 209.4 203 199.4 196.5 193.4 189.4 188.4 188.7 190.8 190 189.6 189.3 188.8 187.8 187.8 192 195.1 196.8 194.8 193.3 191.3 189.3 186.8 186.9 188 188.2 190.1 193.6 198.3 201.6 204.8 204.2 199.5 195.9 191.9 187.9 183.9 179.2 172.1
299.5 297.1 296.8 297.4 297.3 296.5 296.2 297 296.2 294.1 294.5 296.9 293.7 291.4 289.5 288.1 288.2 289.3 290.5 291.6 292.3 291.4 291.2 290.1 287.6 284.5 282.4 280.7 278.7 278.3 278.1 277 276 274.1 269.8 264.3 268.8 268.8 268 271 280.8 283.3 280.9 281.6 282.5 284.9 283.6 285.7 289.4 291.5 289.6 282.1 276.7 277.1 283 286.2 288.5 293.7 291.7 288.4 281 275.5 271.3 266.3 261 256.6 253.9 253.4 252.5 250.9 248.7 247 244.9 243.5 237 233.8 231.9 230.7 229.4 229.4 229.4 229.9 230.8 232.8 234.9 236.9 238.1 239.3 237 235.2 233.7 230.5 226 226 225.5 225.7 223.3 220.9 220.5 219.3 217.4 216.3 217.7 218.9 216.3 212.9 209.3 205.2 199.9 200.3 200.8 202.7 203.3 201.7 200.4 198 194.3 190.4 187.6 186.3 185.5 187 187.9 187.7 185.5 180.1 186.2 188.6 188.9 189.3 189.1 187.1 185.8 186.7 188.3 189.8 192.6 197.8 206.9 216.1 223 226.6 228.5 230.2 230.5 222.6 215.2 212.9 217.7 222.7 226.1 227.9 229.8 230.2 230.3 230 228.2 227.1 223.7 220 216.8 210 203.8 198.7 195.7 192.5 189.4 188.7 189.6 189 187.8 187.3 187.4 188.1 188.9 190.5 193.3 195.4 196 195.9 193.9 191.7 189.4 187.7 188.9 189.9 190.9 193.5 196.5 199.5 203 204.8 202.4 196.6 192.3 189.2 185.2 181.5 177.5 171.3
295.1 294.4 294.7 294.7 293.9 293.7 293.6 293 291.8 291.1 290.2 290.6 289.1 288.2 287 287 288.6 289.8 290.4 290.7 288.8 286.6 285.8 285.2 283.8 280.7 280.1 279.9 277.9 279.5 281.3 281.2 278.7 273.6 268.6 262.2 261.5 261.7 264.4 267.6 272.6 273.8 274.2 275.8 278.4 277.6 278.7 282.2 287 288.6 282.2 276.7 276.4 281.9 286.6 289.9 293.5 293.9 292.5 287.6 280.8 278.5 273 266.3 260.6 255.8 253.1 252.1 251.1 249.7 247.8 246.9 244.7 240.9 234.6 232.9 231.7 230.6 230.2 230.5 230.4 230.6 232.5 233.4 234.5 236.3 237.8 239.5 238.5 237.1 236.2 235.7 234.4 232.1 232.1 229.8 226.9 224.1 222 223 219.3 219.6 220.3 220.9 217.5 214.2 210.7 206.8 204.2 205.8 206.8 206.4 205.7 203.8 200.7 197.5 194.5 192 189.5 187.1 186.8 186.7 187.9 188 185.6 179.4 179.9 182.3 185.3 188.5 186.5 184.4 182.9 183.4 185 186.7 189.4 194.3 199.4 204.9 214 218.9 220.8 222.7 221.7 217.1 209.8 209.1 216 219.8 222.3 224.1 226 226.3 227.5 226.3 226.7 225.7 222.8 219.2 213.4 206.2 201.3 196.4 193.7 190.8 188.3 186.8 186.1 185.6 185.5 185.5 186.6 188.1 189.4 189.5 191.8 192.2 192 191.4 190 187.6 186.4 186.4 188.8 190.5 191.5 193 196.1 199.1 203.1 202.7 199.4 193.2 188.9 185.2 181 179.6 176.3 173.1
294.2 292.9 292.5 292.8 292.7 292.3 292.3 291.9 291 290 288.5 287.4 286.5 285.5 285.3 285.8 287.7 288.8 288.9 287.9 285.3 282.8 281 280.1 277.9 277.4 277.1 277.4 278.3 280.3 284.3 282.9 273.8 270.8 266.5 261.6 256.3 258.2 262 271.8 272.9 270.1 269.9 271.1 271.5 272.3 273.7 278.7 282.7 280.7 275.1 275.3 278.8 284 288.5 291.8 292.9 291.8 290.8 286.8 283.2 279.9 274.1 266.7 259.7 254.4 251.8 250.4 250.2 248.4 246.8 245.7 243.9 237.7 234.2 232.8 231.5 230.5 231.9 232.3 232 232.2 234.1 235.5 236 236.9 238.7 240.4 240 240.4 239.6 239.1 238.8 238.7 236 233.5 230.8 228 224.9 223.1 223.5 223.8 224.9 223.1 219.9 216.3 212.1 209.6 209.1 210.2 210.1 209.5 208.5 205.4 202.7 199 195.4 192.7 190.3 188.1 187.1 186.9 187.5 187.5 186.9 179.8 178.5 178.6 180.6 183 181.8 180.8 180.3 180 181.9 184.1 186.4 190.4 194.3 200.4 207.3 211.2 213.4 215.5 214.7 209.4 204.7 208.7 212.4 215.3 217.7 220.6 222.3 225.3 226.6 225.9 225.2 223.3 221.4 218.7 211.9 204.2 200.6 193.1 190.6 188.9 187 185 184.8 184.5 185.8 186.7 187.6 187.5 186.2 187.6 187.6 186.5 186.5 184.8 185 183.6 182.5 184 186 188.3 189.8 192.4 195.7 199.3 201.1 200.2 199 189.1 185.6 183.6 182 181 179 175.4
294.1 293.4 292.8 292.7 292.6 292.6 292.5 292.5 291.7 291.5 290.4 287.7 285.1 283.9 283.5 284.6 284.6 284.6 285.6 284.8 281.9 278.9 277.5 275.5 274.5 274.1 273.9 273.4 274.1 274.6 277 272.5 268.3 266 263.2 258.5 254.3 255.8 261.4 267.3 269 266.8 265.5 266.3 267.4 268.4 269 271.1 272.6 271.7 272.8 275.9 280.8 285.4 287.8 290.7 290.7 289 287.5 285.5 282.8 279.7 272.9 266.8 256.3 252.6 250 248.4 248.1 246.7 245.4 244.6 240.3 236.5 234.3 232.9 231.4 231.2 232.1 233.7 233.7 234.1 235.5 236.8 236.6 237.8 240 241.3 241.7 242.2 242.7 242.8 243.1 242.9 240.2 237.3 234.7 231.8 228.4 225.2 227.7 228.5 228.6 227.7 226.5 223.8 218.4 213.9 213.9 213.4 213.3 212.9 211 208 205.2 202.1 198.2 194.6 192.3 190.1 189.1 188.7 188.2 188.3 186.9 185.8 180.1 177.6 177.5 178.6 177.6 178.5 179.6 178.7 179.8 181.9 184.1 186.3 189.4 195.7 201.3 204 205.8 207.4 206 201 199.2 204 208.2 210.6 212.8 216.8 220.7 223.8 226 224.8 223.5 220.7 217.9 215.1 208.9 202.8 197.3 191.3 189.1 187.5 185.6 183.6 184 183.8 184.4 185.3 185.1 184.4 182.7 182.9 182.4 180.9 180.4 179.3 179.1 179.2 180.1 182.6 184.7 186.2 189.6 193.6 198.4 203.7 198.6 198.1 196.1 187.1 184.8 183.9 185.4 184.1 180.5 177.5
294.6 293.5 293.2 293 292.9 293.3 293.3 293.4 293.2 293.2 292.2 289.2 286.1 284.2 282.4 281.6 281.6 281.7 281.3 279.9 277.8 275.9 274.1 272.2 271.5 271.7 270.6 269.2 269.7 268.6 268.9 265.9 264.6 261.7 258.8 255.7 253.2 253.2 256.6 260.8 262.9 260.8 261.3 262.7 264 265.2 265.9 268.1 270.4 268 269.7 270.9 275 281.5 284.6 287 288.2 286.6 285 283.4 281.8 276.6 269.8 262.6 254 250 247.5 246.6 245.2 244 242.9 242.3 239.7 237.4 235.4 234.1 232.5 231.7 232.6 233.6 234.4 235.5 235.5 236.7 237.2 238.8 240.6 241.9 242.4 242.9 244.3 245.7 247.2 247.2 244.9 241.6 238.5 235.1 230.7 227.6 229.6 231.6 232.2 231.8 232.2 230.6 226.9 222.2 217.8 217 216 215.9 213.2 210.2 208.5 204.6 200.6 197.9 194.8 192.3 191.7 191.1 190.6 190 189.9 188.7 184.6 181.5 179.2 176.7 176.1 175.4 174.7 174 175.5 177.8 179.8 181.9 183.8 186.8 192.4 195.8 198.9 200.2 197.9 192.9 194.2 200.1 203.7 206.8 210 214.9 220.6 222.7 223.9 223.7 222.9 218.1 214.6 210.8 205 199.4 194 189.8 188 186.2 184.3 182.7 182.4 182.8 182.4 182.1 180.7 180 178.6 177.8 177.3 176.3 175.8 173.5 174.4 175.8 177.7 180 182.8 185.7 188.8 192.9 197.6 198.6 195.7 195 192.6 184.3 183.4 183.8 186.5 186.1 180.9 177
297.8 296 296.3 295.7 294.3 294.2 294.1 294 294.1 293.7 292.2 290.5 286.7 284.9 283 281 279.6 279.6 278.8 277.2 275.4 273.9 272.2 271.1 270.2 269.7 268.2 267.7 266.2 264.3 262.7 261.5 260.3 258.2 256.8 254.1 252 250.2 251.8 250.8 253.2 256.3 257.2 258.4 260 262.2 265.7 269 267.1 266.9 267 267 272.6 277.6 282 283.2 284.4 282.6 281.7 280.7 278.2 272 265 257.8 251.1 247.3 245.6 244.6 244.2 242 240.6 240.1 240.2 240.7 239 236.9 235 234.1 234.5 235.2 235.9 237.1 237.9 237.6 237.8 239.4 240.8 242.1 243.2 244.9 246.1 247.5 250 250.1 248.9 246.7 241.7 237.1 231.9 230.1 230.4 233.3 235.4 236.6 236.6 233.8 233.9 232.2 223.8 220.7 219.3 218 215.2 212.5 209.4 206.2 203.9 201.5 198.6 196.8 195.6 194.5 192.9 191.5 190.9 189.2 186.7 184.8 182.3 179.4 179.4 175.3 174.8 174.1 173.7 174 175.4 177.5 179.3 180.6 183.8 186.8 189.7 192 190.1 188.6 190.1 193.1 199.8 204.3 208.4 212.6 217.5 221.1 222.4 223.1 220.6 216.2 210.7 206.3 201.6 196.8 192.5 188.5 185.6 184.3 183.5 182 180.6 180.4 179.4 178.6 177 175.7 174.4 173.2 172.5 172 172 172.1 172.3 173 174.8 177.8 180.8 183.8 186.8 189.6 191.6 193.9 192.5 189.9 185.7 179.9 180.7 182.5 184.7 184.4 181.2 177.3
304.4 307.7 305.9 297.6 295.7 295 294.9 295 295 294.1 292.5 289.7 287.3 285.6 284.1 282.1 280.2 278.1 276.9 275.8 274.3 272.9 272.3 271.7 270.4 269.1 266.5 265.7 263.9 263 261.8 259.3 256.9 255.6 254.1 251.3 249.3 248 249.1 247.1 249.8 252.7 254.6 257.2 259.9 264.7 269.6 270.6 266.1 265.2 264.4 265.6 268.8 274.2 278.2 279.8 280.9 279.3 275.8 273 270.7 263.9 255.7 250.5 246.8 244.6 243.5 242.6 241.8 241.7 240.5 239.1 241.2 242.5 241.3 239.6 237.7 237.5 238 238.4 238.9 239.1 239.9 239.9 239.2 239.8 241.4 242.8 245 246.8 248 249.6 252.2 252.6 250.7 248.4 244.2 238.6 233.7 231.9 232.1 234.1 237.1 239.4 242.5 240.6 238.3 237.7 226.5 223.7 222.3 220.3 217.4 214.9 212.6 210.1 208.1 205.7 203.6 202 200.6 198.4 196.5 195.1 194.1 191.6 189.7 187.7 185.4 182.8 180.9 181 178.3 176.7 175.2 173.4 172.4 173.1 174.7 176.3 176.9 179 181.1 183.4 183.5 184.7 184.9 189.6 196.8 201.6 205.4 210.2 216.4 221.1 221.9 222.6 218 212.2 206.4 202.1 199.7 194.9 190.1 186.2 184 183.3 182.6 181.8 179.8 178.2 177.4 176.8 175 172.9 171.8 171.6 171.1 170.7 170.6 170.7 170.9 172.1 174.4 175.8 177.6 180.7 184.2 187.1 189.8 189.8 187.7 185.6 179.3 179.7 181.7 182.2 183.8 183.7 179.6 175.6
312.8 314.4 305.9 298.9 296.9 296.3 296.3 297.7 297.3 295.1 292.5 290.5 288.8 287 286.1 285.2 284.3 281.2 278.1 276.5 274.8 274.6 273.9 273.5 272.9 272.1 272 270.9 268.7 265 262.7 260 257.5 254.2 251.9 251 247.7 244.8 244.5 245 247.5 251.2 253.3 255.8 257.5 266.5 272.4 268.9 265.9 263.6 262.4 264 264 269.6 272.4 273 273.9 270.2 267.3 264.5 261.7 254 248.7 245.8 242 241.2 241.1 239.9 239.1 238.8 238.7 238.6 240.5 243.3 243 241.8 240.5 240.9 241.4 241.8 242.2 242.4 242.6 242.2 240.5 240.7 242.8 244.2 245.4 247.6 249.3 251.4 253.5 253.9 251.7 249.6 244.9 239.1 234.5 232.5 233.2 234.4 237.6 240.8 243.2 242.5 243.5 241.5 231.6 226.5 225.6 224.3 223.3 220.4 217.2 214.4 212.5 210.3 208.4 206.6 204.5 202.3 200.1 199.4 197.9 194.6 192.7 190.7 188.4 186 184 182.1 180.5 177.9 176.5 174.6 172.8 171.2 170.8 172.4 172.6 173.8 176.2 177.4 178.5 179.5 182.4 187 193.4 197.6 202.7 207.9 213.9 221 222.4 220.6 214.8 208.5 202.9 198.6 196.7 193.4 187.6 182.9 182.1 181.9 181.7 180.9 179.8 178.4 176.9 176.2 175 172 171.4 171.1 170.4 169.6 169.3 169.3 169.8 172.6 174.6 174.3 174.8 179.2 181.9 185 189.3 186.7 182 178.8 177.8 179.4 181.2 182.6 185.3 184.5 178.6 174
315.8 315.8 305.6 301.4 299.2 298.8 299.7 301.6 300.7 298.2 295.2 292.6 290.9 289.4 289.3 289.7 287.4 284.1 280.9 278.3 277.2 276.5 275.9 276.6 277.9 279.9 279.9 276.8 273.6 267.9 263.9 260.6 257.6 255.7 253.6 251.2 248.3 244.1 241.5 241.8 245.3 250.5 252 254.2 262.7 272 269.8 269.2 272.3 263.4 261.6 260.2 260.5 261.8 264.2 265.1 264.3 261.1 257.9 255.6 249.4 245.6 244 242.5 238.8 238.1 238.2 237.9 236.6 236.4 237.5 238.6 240.3 242.5 245.6 245.6 244.7 244.3 245.6 246.5 246 245.7 245.6 244.7 242.7 241.8 244 245.5 246.6 247.4 249.7 253.4 255.1 254.4 252.3 249.6 244.5 239.2 234.5 232.9 232.3 234.2 236.7 240.5 244.4 244.8 246.4 241.9 238.6 232.1 230.8 231.2 228.5 226 223.7 220.1 217.3 215 212.4 210.1 209.4 207.1 205.3 204 201.7 197.6 195.7 193.6 191.5 189.2 187.2 185.2 182.7 180.2 177.9 176.1 173.7 171 170.4 170 169.7 169.5 170.5 171.6 174.3 176.2 179.2 183.2 189.2 194.2 199.4 204.8 212.4 218.5 218.8 216.9 212.3 205.6 196.8 193.2 189.5 186.6 183.5 180.6 180.3 180.6 180.6 180 180.1 179.9 178.1 177 175 173.4 172.6 171.5 170.3 169.9 169.6 169.3 170.2 174 174.4 173.2 174.4 178.3 180.7 184.5 189 181.7 176.1 174.8 176.9 179.2 181.3 182.9 185.1 184.6 177.8 172.8
324.5 316.8 309.9 303.8 301.8 302.9 304.2 305.8 304.1 301.4 298.1 295.6 293.9 293.1 294.3 295.4 295.2 291.5 286.8 281.8 279.9 279.2 278.9 279 280.9 285.7 285.3 282.5 275.5 268.8 265 261.2 258.5 255.9 253.6 251 248.4 244.9 242.1 239.2 241.9 245.4 247.7 253.5 265.6 269.5 269.7 280.5 272.1 263.6 261.7 260 255.8 255.7 257.4 257.9 254.9 250.3 246.7 241.7 239.7 239.2 239.9 239.2 237.1 235.1 236.1 236.1 235 235.1 237.5 238.6 240.2 242.3 246.2 250.2 249.7 249.9 250.9 249.9 249.5 248.7 248.4 246.9 244.4 242.7 244.7 246 247.3 248.7 250.2 252.3 253.7 252.6 250.9 247.3 242.3 237.3 234.5 233.2 232.7 233.3 234.7 240.5 243.5 246.7 246.4 245.1 241.8 238 237.6 238.9 235.1 231.6 229.7 226.7 223.1 220.3 217.5 215.8 214.4 212.6 210.9 209.1 205.6 201.1 198.6 196.6 194.5 192.4 190.1 187.8 185.1 182.4 179.8 177.6 175.4 173.6 169.8 169.3 169.3 169.2 168.7 169.7 170.7 173 176.1 180.3 185.1 190.3 195.8 204 211.9 214.9 216.4 213.8 205.9 198.9 191.4 187.4 183.8 181.9 179.8 178.2 178.7 178.9 180 180.3 180.5 181.6 179 179 177.5 174.8 173.5 172.3 170.8 170.1 169.8 169.6 170.3 172.6 171.6 172.3 174 176.7 177.9 178.5 178.8 175.4 172.9 174.3 178.7 181.8 180.8 181.2 183.6 182.2 176.6 170.7
327.5 324.6 316.7 307.2 307.4 308.1 309.4 311.8 308 304.4 301 298.6 297.2 298 298.9 300.4 301.9 297.6 293.8 290.3 286.3 285.3 285.2 284.4 282.2 287 286.9 283.9 276.3 269.8 265.8 262.1 259.1 256.2 253.6 251.3 249.4 246.9 244.1 238.8 237.2 239.9 245.6 254.6 261.5 263.3 275.4 278.6 267.8 264.8 262.6 261.3 259.2 253.5 250.8 248.9 242.2 239.4 237.1 234 234.3 235 235.7 236.4 235.7 233.3 234.4 233.7 233 233.4 235.7 238 240.1 243 246.8 250.3 252.6 252.8 251.2 250.7 250.9 250.1 249.7 248.5 245.7 243.8 245.5 247.2 248.9 250 250.6 252.1 251.4 250.2 248.8 244.7 240 236.2 234.3 233 233.1 233.5 235.7 239.2 242.7 245.8 247 246.2 243.2 241.3 241.7 243.8 240 238 235.2 233.2 229.9 225.6 222.8 221.3 220.1 217.6 215.6 213.7 210.1 206.8 202.6 200 197.8 195 192.7 190.1 187.5 184.8 182.2 179.8 178.3 176.3 173.1 170.2 170.2 168.8 168.3 168.1 168 170.4 173.5 176.9 180.9 186.2 192.1 203.4 208.8 213.2 214 207.1 201.1 193.8 185.5 181.5 179.1 177.9 176.1 176.5 177.3 178 181.5 181.3 181.5 182.4 181 179.8 178.5 176.2 173.5 172 170.5 169.4 168.8 168.5 168.8 170.2 171.1 173.4 174.1 174.5 175.6 178.9 177 172.1 172.4 176.5 180.9 180.4 177.5 178.1 180.4 177.2 171.7 167.7
329.8 324.5 317.4 316.3 317.8 314.3 317 316.3 312 307.3 304.3 302.2 302.9 304.3 306.3 307 304.6 303.9 303.1 299.7 295.5 291.9 291.1 286 285.2 289.3 288.8 284.3 278.6 271.1 266.6 263.1 259.9 257 254 251.3 249 246.5 243.9 240.8 235.7 238.5 246.4 254.4 252.4 266.9 274.9 275.2 269.2 266.5 264 263.6 262.3 255.1 245.6 234.4 233.2 233.2 232.1 232.1 232.1 233.2 234.2 234 233.3 232.2 231.2 231.1 231.1 232.7 234.9 237.8 241 243.7 246.4 249.9 252.7 253.5 251.6 250.5 251.1 251.7 251.2 249.3 246.7 245.4 247.1 248.3 250.2 250.5 249.9 249.3 249.1 247.9 246.8 243 238.3 235.1 233.7 233.4 233.4 233.3 233.5 237.2 240.8 243.8 245.9 246.4 244.4 242.9 246.7 247.8 244.3 242.1 239.3 237.7 234.9 230.9 229 228.9 227.7 224.8 221.4 218.9 215.8 212.3 208.2 204.1 201 197.7 195.3 192.5 189.8 187.4 185 182.9 180.4 179 177.5 175.1 171.9 169.8 168.3 168.1 167.8 168.1 171.8 174.8 177.8 182.3 191.6 201.8 205.8 209.3 206 203.4 197.9 191.3 182.7 177.7 175.7 175 174.6 175.6 176.4 178 181.5 181.3 182.8 183.6 182.2 180.7 179.4 176.7 173.4 171.6 170.3 169.3 168.1 167.4 167.5 169.2 172.1 175.2 175.1 175.9 178 181.2 174.9 171.2 173.2 178.1 179.1 176.5 173.3 173.3 174.3 170.8 168.6 164.8
329.8 326.7 327.6 323.9 319.8 319.6 321.6 320.1 314.8 309.5 307.6 306.1 306.1 309 313.2 310.5 308.9 309.4 309.8 306.6 300.5 295.7 291.5 287.4 286.9 290.8 288.5 285.9 281.1 274.2 267.6 264 260.7 257.7 255.4 251.6 249.4 246.3 243.6 240.8 234.5 238.6 245.4 247.4 249.1 260.6 271.9 271.6 270.1 268.4 264.9 263.5 261.7 252.8 242.4 231.3 228.7 230.4 230.1 230.2 230.2 231.3 232.6 233.2 231.8 230.7 229.7 229.5 230.3 231.9 234.8 238.7 242.5 245.9 249 251.1 252.8 253.4 252 250.9 250.4 251.3 250.9 248.9 246.4 247.6 250.1 250.6 251.5 250.1 249.4 248.7 246.9 245.7 244.2 241.8 239.1 237.1 235 233.8 233.6 233.3 232.5 234.4 237.7 241.3 243.6 244.8 244.3 244.5 249.4 249.1 247.7 245.4 242.4 240.7 239.4 236.9 235.9 236.1 236.3 233.4 228.5 225.5 223.1 218.8 212.7 208.4 204 200.5 197.6 195.3 192.6 190.1 187.9 185.8 183.2 181.5 179.6 176.9 173.3 170 169.2 168.1 167.5 167.5 169.9 172.8 175.7 181.8 188.7 195.5 201.5 201.9 203.5 201 196.1 187.2 179.5 174.5 174.1 173.6 173.8 174.7 176.2 177.9 180.9 183.8 185.3 184.8 183.9 181.8 179.4 176.5 172.8 171.2 170.2 169.1 167.4 166.1 166.8 168.9 174.2 176 175 175.7 176.6 177.2 171.3 168.6 171 174.5 172.8 169.8 167.6 164.9 166 166.4 165.5 163.3
330.1 329.9 324.7 323.7 322.3 323.4 323.9 322 317.1 311.7 310.1 308.9 308.8 309.5 309.9 310.9 311.1 310.2 309.4 305.1 300.2 293.5 289.8 286.9 288.5 289.8 288.7 287.2 283.5 275.4 268.7 265.2 262.4 260.3 256.1 252.9 251.4 249 243 239.2 234.6 236.3 241.2 240.1 247.8 261.6 267.7 267.8 271.7 263.7 263 262.6 260.5 252.4 237.8 230.9 227.3 227.8 228.2 228.2 228.3 229.6 230.6 230.1 229.4 228.7 229.3 229.5 229.7 231.9 235.7 239.4 243.1 246.8 250.9 252.8 254.4 253.7 252.4 251.2 250.6 250.8 249.8 248.2 247.9 248.2 251.4 252.3 252.2 250.6 249.3 246.5 244.5 242.9 241.5 239.6 240.2 240 237.6 235.3 233.2 232.1 232.4 234.4 236.7 239.6 241.8 242.6 243.9 245.3 248.2 248.2 247.7 248.3 244.9 241.4 240.9 241 242 241.4 241.8 239.1 234.8 232.3 229.9 226.5 218 212.2 208.4 204.6 201.4 199.8 197 194.1 191.5 189 185.9 182.8 180.2 177.3 173.5 171.1 168.5 167.2 167.3 167.2 167.7 169.9 173.7 178.3 184.4 189.5 193.4 201.5 202.3 199 193.2 181.4 174.6 173.1 172.6 172.2 173.3 174.5 176.3 179.4 183.1 186.5 187.4 186.6 185.3 183.4 180.4 176.5 173.4 170.6 169.2 167.9 166.4 164.9 166.7 168.4 171.1 172.4 172.1 171.7 173.3 172.7 168 166.9 168.2 171.8 168.6 163.8 162.8 163.5 161.8 162.9 163.2 163.9
329.9 327.1 327 325.8 326.8 327.6 325.5 322.1 317.5 313.5 312.4 311.7 313.1 309.7 308.9 310.2 313.7 311.5 308 304 296.2 290.5 288.8 290.6 294.8 292.9 289 286.7 280.9 273.4 270.4 267.9 266.1 261.2 257 254.5 254.1 249.4 247.1 240.4 235.3 229.3 232.2 235.7 244.3 259 257.7 259.4 264.9 261.1 262.5 265.3 266.8 252 237.2 232.2 226.3 224.2 226 226.2 226.5 227.7 227.8 226.9 226 226.3 227.5 228.6 229.6 232 235.7 239.4 243.2 246.8 250.3 254.2 255.2 254.1 252.9 252.1 251.2 250.4 249.9 248.3 248.7 249.3 252.2 253.3 252.8 251 247.6 244.4 242.4 240.8 239.2 238.5 240 240.8 239.2 235.4 231.9 230.2 232.1 234.4 235.5 237.4 239.7 241.3 243.9 245.4 244.8 245.6 246.7 247.1 244.4 242.3 243.3 244.2 244.1 245.8 245.8 243.1 241.3 238.6 235.9 232 226.3 219.6 215.6 211.7 208.5 207.3 203 198.9 195.7 192.8 188.8 184.6 181.3 178.8 175.6 172.3 169 166.7 167 166.8 167.3 168.4 171.2 175.7 179.4 186.2 193.4 199.2 198.9 195.4 189.9 178.4 172.7 171.5 171.2 171 172.4 173.7 177 181.3 186 187.9 188.3 188.1 186.7 184.7 180 176.3 173 170.3 168.3 166.7 165.5 164.7 167.4 170.3 170.9 168.1 167.5 166.8 168.6 167.1 165.1 165.2 166 167.9 167.3 162.4 162.4 163 161.8 161.8 162.6 163.3
328.5 329.4 330.4 330.5 331 331 328.7 322.7 316.1 314.8 314.7 316.2 313.5 309.1 309.2 309.8 312.1 310.8 305.8 298.5 293.8 291.3 290.8 292.2 295.8 292.9 289.9 285.3 278.1 274.4 272.2 271.4 269.9 261.4 257.5 257.2 255.5 251.2 250.3 246 239.2 229 223.4 229.9 238.5 244.2 243.2 248.5 253.9 254.9 260.9 265.5 261.8 247.5 236.3 230.3 223.7 221.3 223.6 222.6 223.9 224.9 224.4 223.5 223.3 224.5 225.8 228 230.4 233.1 236 239.5 243.2 246.9 250.7 253.6 253.9 253.9 253.2 252.5 251.8 251 250 248.9 249.3 249.4 252.8 253.8 253.2 249.6 246 242.4 240.3 238.7 237.1 237.1 239.2 240.5 237.9 234.1 230.9 229.3 230.2 231.5 232.2 233.2 234.7 236.8 239.1 240.4 240.3 240.7 241.6 243.1 242.6 241.5 244.6 246.6 246.3 247.3 247.3 245.2 244.7 243.8 242.4 239.1 232.8 226.9 223.1 219 216.2 214.9 210.6 207 203 196.1 191.7 187.2 183.5 180.4 176.7 173.5 169.7 166.4 166.2 166.4 166.6 167.5 169.5 173 178.3 185.2 193.5 196.9 194.9 190.8 182.7 172.8 170.7 170.1 169.9 170.1 171.5 173.4 178.1 182.7 187.3 188.8 189.2 188.6 187.4 184.5 180.6 176.5 173.1 169.9 168.2 167.6 166.2 164.5 167.2 170.7 170.3 166.1 165.7 166.7 167.7 165.9 163.7 163.2 162.8 163.7 163 162.4 162.7 161.9 161.7 161.7 162.7 164.5
329.1 331.1 331.2 330.6 329.9 330.7 329.7 320.8 316.3 316.6 318.1 314.8 309 308.1 308.3 309.1 309.2 304.8 300.8 297.1 294.3 294.4 297.1 298.6 295.8 295.6 289.8 283.7 277.8 274.9 274.4 273.3 265.4 262.7 263.1 262.6 259.5 257.6 256.9 252.3 243.3 229.9 221.7 224.6 227.3 231.3 235.3 242.1 246.2 252.1 259.5 260.5 251.1 242.3 234.2 227.5 221 219 219.6 220.4 221.3 221.4 220.6 220.5 221.6 223.2 226 228.7 231.4 234.7 237.5 240.4 243.3 246.9 249.7 251 252.3 253 252.9 252.3 251.7 250.9 250.5 249.7 249.9 251.4 254 254.6 254.8 251.6 247.8 243.5 239.5 237.2 235.3 235.9 238 238.1 235.7 232.8 229.5 228.8 228.2 228.2 228.6 229.2 230.5 231.5 233.5 235.9 236.4 236.2 236.6 238.3 238.5 237.8 240.3 244.4 247.5 247.5 246.7 247.4 248 249.9 249.3 244.7 239.2 231.9 229.5 226.4 223.4 220.7 218.9 214.9 210.6 202.4 194.4 189.7 185 180.6 176.2 173.9 169.6 167.1 166.1 166.2 166.4 166.7 168.5 172.2 178.3 183.8 191.4 191.4 188.3 183.7 174.1 170.2 168.8 168.8 169.1 170.5 172 175.3 180.2 185.4 188.6 190.3 190.7 189.7 188.2 184.5 181.1 176.7 171.1 169.6 168.4 167.2 165.6 163.8 166.7 170.2 169.7 164.6 164.3 163.9 164.2 162.6 162.7 162.7 162.3 162.2 161.3 161.6 161.4 161.7 161.6 161.5 162.6 163.9
330.3 333 330.6 329.3 328.7 329.1 325.2 318 317.3 318.2 318.5 311.8 308.2 306.3 306 306.1 305.6 302.7 299.1 296.9 297.2 299.7 304 300.5 299 295.3 286.8 279.3 274.9 272.4 270.6 267.4 265.5 264 264 264.4 263.3 265.4 263.9 253.5 240.9 228.6 221.3 218 221.7 223.6 229 235 240.7 247.9 255.1 252.5 240.3 234.8 231.3 224.5 217.7 215.9 217.3 218 219.1 219.8 219.7 219.2 220.9 223.8 226.6 230.2 232.9 236.2 239.1 241.8 244.7 247.6 250.4 252 253.2 252.5 252 251.8 251.6 250.8 250.9 251.2 251.6 253 255.2 256.9 256.3 253.2 249.8 244.3 240.1 237 235.1 236.3 237.5 236.8 235.1 231.4 228 227.5 226.8 226.1 226.3 226.7 227.8 228 228.4 230.2 232.4 232.8 232.3 233.9 233.8 233.2 235.7 240.6 247.4 244.1 246.2 246.8 251.7 254.7 251.1 248.5 242.7 236.7 233.6 230.7 226.9 224.7 222.9 218.5 216.1 208.4 199.6 190.1 185.6 181 176.5 173.1 169.4 167.3 165.9 166.1 166.3 166.5 166.9 171.9 175.8 181.2 183.5 181.7 178.7 173.7 168.8 167.6 167.7 168 169.3 170 174 179.8 183.7 187.9 190.7 192.8 192.9 191.5 188.2 185.1 181.9 178.7 175.4 171.1 168.2 166.6 164.2 163.4 165.8 169.5 165.6 163.1 162.7 162.6 162.2 162.1 162.2 161.8 161.8 161.9 161.6 161.2 161.1 161.5 161.4 161.3 161.7 162.5
331.3 332.7 327.9 327.6 327.5 326.3 320.7 318.2 318.3 320.2 312.4 307.6 306.2 305.2 304.4 303.2 302 300.5 298.7 298.3 299.8 303.6 302.4 299.9 298.9 288.3 280.2 274.8 272.6 270.1 268 265.6 264 263.5 263.4 264 265.2 265.6 261.2 250.4 237.7 229.1 223.7 214.9 213.5 218.2 222.2 228.3 233.7 243.9 249.8 245.3 237 231.7 226.1 220.1 214.3 212.4 213.2 215.4 216.7 217.7 216.9 219.6 222.5 226.2 229.8 233.6 235.4 237.8 240.6 243.3 246.1 248.4 250.5 253 253.9 252.2 251.8 251.4 251.3 251.4 252 252.4 252.9 253.8 256.6 258.2 257.1 254.6 249.5 244.3 240.2 236.9 235 235 235.7 234.1 232.6 229.6 226.7 226.1 225.6 225.1 224.8 224.4 225 225.5 226.4 227.3 229.3 230.9 231 231.1 231.1 231 232 237.7 243.1 240 242.4 248.1 252.3 255 254.8 252.3 250.9 241.6 237.5 234.1 231.4 230 225.3 221.7 219.6 210.1 202.4 194.2 186.2 181.7 177.1 171.4 168.8 166.7 165.5 165.7 165.7 165.7 165.7 168 170.6 172.4 172.8 170.8 171.8 167.1 166.8 166.6 166.5 167.2 168.7 170.9 178.8 181.6 185.5 190.5 193.3 196.1 194.7 191.5 187.5 184.9 182.3 179.4 176.9 173.8 169 165 163.6 163.1 164.7 166.7 163 162 161.9 161.8 161.7 161.5 161.4 161.5 161.6 161.7 161.8 161.2 161.2 161.1 161.1 161.4 161.7 161.8
330.6 328.6 327.3 327.6 326.9 323.7 320.4 320.9 319.8 314.5 307.4 306.2 305.1 304.1 302.9 301.7 300.5 299.4 299.2 299.6 300.4 301 299.9 297 290.8 280.1 276 273.7 272.4 270.5 265.5 263.5 263 262.2 262.1 261.1 261.7 260.3 255.1 246.7 234.6 229.5 224.4 214.6 209.4 210.8 213.9 219 222.7 229.5 233.3 231.4 228.4 225.1 219 213.9 211.6 209.6 209.4 212.8 213.9 214.2 214.6 220.8 225.9 229.5 233.2 237.1 239.2 240.7 243.1 245.8 248.5 249.9 252 254.2 254.4 252.4 251.6 251.9 252.2 252.5 253.8 254.1 254.3 255.3 257.1 259.1 258.2 254.1 248.8 243.5 239.8 236.4 235.3 234.8 232.9 231.2 229.4 227.7 225.9 225.5 225 224.8 224.5 224.1 223.8 224.1 225 225.9 228 230 231.2 229.9 228.8 228.1 229.3 235.7 237.5 236.8 239.6 247.8 251.9 254.3 255.9 256.8 254.5 247 243.2 237 235.2 231.6 227.1 224.3 220.2 210.2 202.5 194.8 187 182.4 177.6 172.7 168.5 165.9 165 165.1 165.2 165.3 165.4 165.8 166.5 167.4 168.3 166.5 166.1 166.2 166.3 167.2 167.8 168.1 169.9 175.7 180.7 185.3 189 193.5 196.9 199.2 195.9 192.4 186.6 184.6 181.6 178.7 177.1 174.4 167.4 164.8 163.1 162.8 162.9 162.9 161.7 161.5 161.4 161.3 161.2 161.2 161.3 161.4 161.5 161.6 161.7 161.4 161.2 161.2 161.2 161.4 161.7 162.1
328.1 326.8 326.2 326.3 325.5 320.9 319.9 319.6 318.4 309.4 306.8 305.4 304 303 301.6 300.2 299 299.2 299.5 299.9 298 296.2 293.6 289.1 282.4 279.1 275.3 272.4 270 267.8 262.9 261.4 261.3 261.5 258.7 256.9 255.2 252.3 250.6 240.5 230.1 227.4 222.6 217.2 212.2 207.5 206 206.9 213.9 213.7 213.8 214.3 214.7 212.8 209.2 209.8 207.8 205.7 206.9 207.6 208.4 213.3 218 223.2 229 232.8 236.6 240.5 243.7 246.4 248.4 250.5 253.2 253.7 254.9 257.1 256 254.2 252.5 253.1 253.4 253.6 254.7 255.2 255.5 256.5 258.5 260.8 259.3 253.8 248.3 243.3 239.6 236 235.9 235.5 232.2 229.4 228.4 226.3 225.4 224.7 224.6 224.5 224.3 224 223.8 223.9 224.4 225.3 227.7 228.6 227.3 226.4 224.4 223.5 224.4 231.2 230.9 233.5 237.5 245.6 251 253.6 256.2 259.2 254.4 249.3 244.8 239.6 236.4 233.8 228.8 224.3 219.4 210.3 202.6 195.1 187.7 182.9 178.1 173.6 168.8 165.3 165.1 165 165 165 165 165.3 166.1 166 166 166.2 166.2 166.3 166.5 166.8 168.6 169.8 173.9 178 183.3 187.7 191.7 196.3 200.2 201.2 197.3 194.6 188.6 183.6 180.2 177.1 176 173.8 166.5 164.3 162.6 162.6 162.5 162.2 161.3 161.3 161.2 161.2 161.1 161.2 161.2 161.3 161.4 161.5 161.6 161.7 161.2 161.2 161.2 161.6 161.8 162.1
326.6 325.8 325.3 324.7 321.9 320.5 320.1 315.8 311.8 308.4 306.1 304.9 304.6 303.8 302.4 300.9 300 299.3 299.5 298.5 295.6 293.3 290.4 285.4 281.8 279.1 275 271.1 267.9 265.2 262.5 261 257.3 253.8 253.8 251.3 247.2 243.2 240.3 233.7 227 223.3 218.9 212.9 213.4 210.9 209.4 205.5 204.6 203.7 201.9 202.3 201.4 200.2 199.5 200.9 201.9 197.8 200.9 212.6 214.4 218.7 220.7 225.5 231.2 235.2 239.9 244.9 249.5 251.8 253.8 255.8 257.8 258.2 257.8 259.4 257.6 255.7 254.5 254.3 254.5 254.7 255.3 255.8 256.3 257.3 259.2 260.3 257.2 252.9 248.4 243.7 240 237.6 236.7 235.4 232.7 230 227.9 226.4 225.6 225.6 225.5 225.7 226.2 226.2 226.6 224.5 223.8 223.9 225.8 225.5 223.5 221.6 221.8 220.2 220.3 225.4 225.6 230.1 234.3 238 244.5 250.7 254.4 258 251.1 249.1 243.7 240.2 235.8 235 227.7 221.9 216.7 210 203 195.9 189.5 183.4 178 173.4 169.1 165.1 165.2 165.1 165 165 165 165.1 165.6 165.6 166 166.2 166.3 166.3 166.6 166.8 168.1 169.9 174.7 180.1 185.6 189.2 192.9 197.8 202.5 202.1 199 195 189.9 182.4 178.7 175.5 174.1 171.8 165.6 163.5 162.2 162 161.7 161.5 161.2 161.2 161.1 161 161.1 161.2 161.2 161.2 161.3 161.4 161.5 161.6 161.3 161.2 161.3 161.7 162 161.7
325.6 325.3 324.8 324.2 322.4 321.7 319.2 313.5 309.2 307.4 305.6 305.3 305.2 304.5 303.1 301.5 301.1 300.8 299.2 295.7 292.8 291.3 287.2 283.2 280.4 277.8 273.5 269.5 266.4 264.3 265.2 263.4 254.9 251.7 249.2 247.1 242.3 243.2 238.9 232.5 228.3 222.5 220.1 217 215.9 214 212.4 207.7 199.9 198.9 197.4 197 195.7 192.9 191.7 192.6 196.1 194.9 214.1 214.8 216.1 218.8 222.2 227.9 233.3 237.9 242.8 248.4 252.7 255.4 257.4 259.4 260.2 260.8 261.3 261 259.1 258 258.3 257.6 257.3 256.6 255.8 256.3 256.8 257.4 258.7 258.7 256.3 253.1 248.5 243.9 239.5 238.5 237.7 235.1 232.3 229.6 227.4 225.8 226 225.9 225.9 226.9 228.7 229.4 228.8 226.7 224 223.5 223.3 222.6 224.1 225.5 225.3 223 219.4 218.7 221.4 225.6 230 233.3 237.5 242.7 249.2 255.4 245.1 242.6 239.7 238.4 233.5 231.9 224.7 220.4 213.6 208 202.2 195.9 191.4 183.1 178.1 174.4 170.7 165.6 164.4 164.6 164.9 165 165 165.1 165.2 165.6 165.9 166.3 166.3 166.3 166.5 166.9 167.6 169.5 174.6 181.2 185.2 189 192.8 197.4 202.4 199.4 196.5 192.2 187 181.2 178 173.7 170.9 166.7 164.1 162.6 162.2 161.9 161.6 161.3 161.1 161 160.9 161 161.1 161.1 161.2 161.2 161.3 161.3 161.3 161.4 161.5 161.3 161.4 161.7 161.8 161.5
324.8 324.5 324.2 323.7 323.4 322.2 318.5 312.3 308.9 307 305.5 304.8 304.9 304.1 302.6 303 302.7 301.3 298.6 293.3 290.7 288.5 284.8 281.3 278.4 275.9 271.8 268.8 265.8 264.6 265 261.8 253 251.9 250.9 248.6 246.6 247 242.5 237 229.9 226.3 226 224.1 221 218.3 216 214.6 205.5 198 196.7 200 196 193.7 191.3 191.7 191.3 208.1 212.3 215.9 215.5 216.2 219.3 226.6 232.6 239.4 244.6 249.8 254.5 257.3 259.3 260.1 260.8 261.2 261.6 261.7 262 262.6 262 261.8 260 256.8 256.1 256.7 257.3 257.9 258.2 257.4 255.9 253.5 248.9 244.3 239.7 237.2 236.8 234.1 231.7 229.1 226.9 226 226.1 226.4 226.3 227.8 230 230.7 230.4 228.8 225.9 223.6 223.5 224 226.6 229.2 229.9 227.2 223.6 218.2 217.2 222 225.6 228 229.5 234.3 238.9 245.3 236.1 234.3 235.6 235.5 228.9 225.3 219.7 215.2 207.8 203.3 200.8 195.5 186.9 183.6 180.4 176.7 173 168.6 163.8 164.2 164.5 164.7 165.1 165.4 165.3 165.5 165.9 166.2 166.4 166.4 166.4 166.8 167.2 169.6 174.8 179.8 184.3 188.4 191.6 195.9 198.4 196.9 193.8 189.2 183.9 179.9 176 170.3 166.8 164.1 162.7 162.5 162.2 161.9 161.6 161.3 161 160.9 160.9 161 161 161.1 161.1 161.2 161.2 161.3 161.3 161.3 161.4 161.3 161.5 161.9 161.7 161.6
324.7 324.3 324 323.6 321.9 320.8 316.9 311.1 308.7 306.8 305.3 304.2 304.3 303.6 302.6 302.7 303 300.9 298.2 295 291.8 285.9 282.1 279 276.5 274.1 271.3 268.2 265.8 263.9 262 255.2 255.6 255.2 253.8 254 253.8 249.6 245.9 239.4 234.8 233.7 233.3 231.7 227.2 222.2 219.6 215.6 210.5 205.2 205.1 209.8 206.5 200.7 193.2 190.4 190 205.7 209.3 211 212.2 215.5 219.1 224.5 232 239.2 245.1 250.1 255.4 257.3 259 258.8 259.3 259.4 260.7 261 261.7 263.2 263.6 262.6 259.5 256.1 256.8 258.3 258.7 258.3 257.7 256.9 255.4 253.3 249.5 245.8 240.4 237.6 235.2 232.2 230.1 228.4 226.6 226.2 226 226.6 226.8 228.6 231.1 231.6 231.1 229.7 226.8 223.9 224.1 224.8 227.4 230 230.5 227.4 223.3 218.6 214.4 216.8 219.5 221.8 223.3 225.6 227.6 229.4 225 224.7 225.5 225.4 222.4 216.6 214.1 207.9 200.5 197.8 195.8 186.8 183.6 183.6 181.5 178.5 174.3 170 164.8 164.1 164.3 164.5 164.9 165.3 165.5 165.1 165.7 166.2 166.4 166.5 166.5 166.8 167.4 169.2 173.3 177.2 182.2 186.4 189.1 191.7 193.3 192.1 190 186.2 180.2 176.6 173.1 169.6 163.8 162.9 162.4 162.3 162.2 161.9 161.6 161.2 160.9 160.8 160.9 160.9 161 161.1 161.1 161.1 161.2 161.2 161.3 161.3 161.3 161.3 161.6 161.9 161.8 161.8
326.4 325.7 325.3 325 322.2 318.8 313.9 309.7 308.3 307 305.2 303.7 303.5 302.9 302.7 302.7 300.9 300.3 297.7 295.3 291.3 286.6 284.6 281 276.7 273.9 271.7 268.5 266.6 263.4 260.1 258 259 261.2 260.4 263.1 258.7 256.1 249.1 244.6 243.6 242.7 241.1 238.9 232.8 223.5 219.6 215.9 211.8 213.4 214 215.2 210.7 205.4 199.3 188.9 187.9 193.9 206.9 207.4 209 215.3 223.7 228.3 233.8 239.6 246.4 250.8 254.2 257.3 258.3 258.1 257.3 257.1 257 257 258.8 260.3 260.5 258.6 256.2 257.1 259 259.9 259.7 258.6 257.4 256.6 254.5 251.7 247.8 242.5 239.5 236.4 233.4 230.9 229.3 227.6 227.6 227 226.4 226.5 227.2 228.8 230.7 231.1 230.7 229.2 226.8 224.9 224.5 225.6 227.6 230.3 230.8 227.1 222.4 217.7 214.2 213.3 215.4 215.2 217.5 216.7 216.9 215.3 215.8 214.8 212.6 211.9 210.6 208 203.4 197.9 193.5 191.2 188.1 183.2 182.2 182.5 180.6 177.7 173.6 168.7 164.1 163.9 164.1 164.3 164.7 164.9 165 165.2 165.3 166 166.4 166.5 166.6 166.9 167.9 169.4 171.1 174.5 180.2 183.2 185.8 187.6 189.2 187.5 185.9 183.2 178.3 173.2 169.7 167 162.9 162.2 162.1 162 161.9 161.8 161.5 161.2 160.9 160.9 160.8 160.9 161 161 161.1 161.1 161.1 161.2 161.2 161.3 161.3 161.5 161.6 161.8 161.9 161.9
328.6 327.9 327.6 327.4 322.5 317.5 312.1 309.7 308.6 307.4 305.5 303.5 303.1 303.5 302.2 301.6 300.9 300.5 298.9 296.1 291.6 289.1 287.4 284.3 279.2 274.4 271.8 269.4 267.5 265.8 263.1 262 263.8 268.9 272.1 271.3 268.9 263.1 251.7 249.1 247.6 246.9 244.1 241.9 233.8 225.3 219.1 216.1 215.4 215.4 216.4 218.2 214.3 209.5 204.2 196.2 186.7 197.8 203 203.6 206.5 212.2 224.3 232.7 238.4 243.5 247.9 249.5 251.7 254.1 253.1 251.9 251.4 251.1 252 252.9 254.6 254.7 253.2 252.8 253.7 255.9 258.2 259 259.5 258.7 257.3 255.4 253.1 249.9 245.6 241.5 238 234.5 231.6 230.6 229 228.6 229.3 228.8 228.2 227.5 227.9 228.7 229.4 229.8 230.2 229.1 227.7 226.6 226.6 227 227.7 231.2 230.4 226.3 221.7 216.7 213.6 212.9 210.7 209.3 211.4 210.5 209.6 207.6 206.6 205 203.5 200.8 199.1 197.9 193.9 190 187.9 184.5 181.5 180.1 179.4 180 177.9 175.1 171.8 167.5 163.7 163.8 163.9 164.1 164.5 164.5 164.6 164.8 165 165.7 166.5 167 167.5 167.7 168.5 169.1 169.9 171 176 179.4 182.6 183.9 184.3 183.1 181.8 179.7 173 168.9 165.7 162.8 162.2 162 161.8 161.7 161.6 161.5 161.4 161.1 160.8 161 160.8 160.8 160.9 161 161 161.1 161.1 161.2 161.2 161.3 161.3 161.7 161.7 161.6 160.6 161.9
330.3 329.7 331 330 322.6 315.9 312.2 310.2 308.7 307.7 306.2 304.6 305.7 306.3 305.3 304.5 304.1 303.2 301.6 301 299.2 295.2 291.2 287.2 282.8 277.7 275.2 270.4 267.8 267 268.3 267.1 269.7 273.7 277.8 278.5 275 263.1 256.3 252.6 251.8 249.4 245.9 241.2 234.4 226.1 220.5 218.7 218 220 220.5 220.3 217.1 211.6 206.7 198 189 193 198.8 201.8 204.8 207.7 219.4 231.4 236.8 241.8 244.1 245.8 246.9 246.6 245.5 244.4 243.6 243.5 244.9 245.7 244.4 246.6 247 249 251.7 254 255.7 256.7 257.4 257.7 255.9 254.8 253.2 249.8 244.4 240.1 236.2 232.8 230.8 229.7 230.4 230.8 230.2 230.6 230 229.4 228.7 230.9 234.6 235.8 235.7 233.3 230.8 228.7 228.9 229.4 230.8 230.9 230.2 227.1 222.1 216.6 213.6 212.5 212.2 210.5 210.2 208.5 204.9 200 200.2 197.1 196.1 193.7 191.8 191.8 189.4 186.2 183.4 181.9 180.2 177.9 177 176.9 174.9 172.4 169.2 165.2 163.3 163.5 163.8 163.9 164 164 164.1 164.5 165.2 168.2 169.1 169 168.4 168.3 168.5 168.8 169.5 170.3 172.9 177 179.8 180.9 180.5 179.3 177.7 172.4 166.1 164.4 163.8 162.8 162.2 162.2 161.9 161.7 161.5 161.3 161.1 161 160.7 161.1 161 160.8 161.6 161.5 161 161.1 161.2 161.2 161.2 161.3 161.4 161.3 161.2 161.2 161.2 161.4
331.1 330.5 329.7 328.3 320.4 313.7 313 311.2 309.5 307.9 306.7 306.3 308.3 308.7 308.9 308.7 307 305.3 303 301.4 306 302.2 301.1 296.8 289.4 283.6 280.3 273.9 270.8 268.9 268.9 271 272.7 276 277.8 276.9 272.4 262.1 258.2 256.4 255 253.7 248.4 239.8 235.1 226.7 221.5 219.8 220.6 224 223.2 221 217.2 212.8 207.1 199.5 191.3 188.1 198.8 203.3 206.1 209 217.2 228.4 234.5 237.6 238.2 238.9 239.8 238.8 238.1 236.9 235.4 234.2 234.4 237.3 239.4 240.2 242.8 245.8 248.7 251.7 253.2 253.8 254.4 254.9 254.4 253.6 252.3 249 243.3 237.3 233.5 231.4 230 231.4 232.9 233.9 234.2 233.6 232.2 231.6 231.1 234.2 238.7 239.5 239.2 236.4 234.8 232.5 232.2 233.1 233.7 232.1 229.8 227 221.6 218 214.9 213.5 212.7 212.5 212.6 211.3 209.5 205.4 201.8 197.1 191.8 188.5 189.2 185.5 184.2 181.6 182.1 180.6 178.8 176.4 174.5 173.7 171.8 169.3 165.7 164.4 163.3 163.8 163.7 163.6 163.6 164 164.2 165 165.6 169 171.5 171.7 169.6 168.7 168.6 168.7 169.2 170.8 173.2 175 177.7 177.7 177.2 175.1 172.9 168.8 164.7 164.5 163.6 162.7 162.4 162.6 162.1 161.9 161.6 161.4 161.2 161 160.7 160.6 160.9 161.3 161.2 161.1 161.2 161.3 161.1 161.2 161.2 161.3 161.5 161.3 161.4 161.4 160.7 161.6
331.5 331.2 329.5 324.4 315.4 314.3 313.5 313.8 312 308.7 308.6 308.6 310.1 310.6 311.3 310.6 307.9 305.9 306.5 308.9 306.9 307.9 307.3 299.5 292.1 288.8 287.7 279.5 274.9 271.9 272.2 274.4 276.9 277.8 277.1 273.9 268.4 265.4 263.3 260.9 259.6 257.1 250.9 245.6 234.5 227.4 226 223.5 223.9 225.4 223.4 220.8 215.9 212.6 205.9 198.4 190.7 185.8 196.8 203.1 206.3 209.1 214.6 223.8 228.9 231.5 231.6 232.3 231.3 230.9 230.7 229.4 226.9 226.2 228.5 230.7 233.5 235 237 240.4 242.9 246.2 248 249.5 251.3 251.7 251.9 251.8 251.5 247.2 241.6 235.1 232.7 230.8 230.8 232.9 235.2 235 235.9 237 234.4 233.9 234.8 236.1 238.3 239.9 240.5 239.9 238.8 237.7 237.7 238.7 235.1 232.4 229.7 226.9 222.7 219.9 217.1 215.4 215.1 214.5 212.6 210.1 208.7 205.7 202.6 202.8 196.2 192.8 190.9 187 183.4 178.6 179.7 179.2 177.4 175.2 173.1 171 168.7 166.1 165.3 164.1 163.6 163.5 163.4 163.5 163.5 163.7 164.1 164.8 167.4 171.3 173.8 172.3 169.8 168 167.4 168.4 170.1 172.8 175.6 176.4 175.7 174.8 173.8 168.7 166.5 165.4 164.9 164.5 163.8 163.2 162.6 163.2 162.2 162 161.8 161.6 161.4 160.9 160.7 160.7 160.9 161.4 161.2 160.8 160.9 161 161.1 161.1 161.1 161.2 161.3 161.6 161.4 161.7 161 160.3
331.4 331.5 327.4 316.9 315 314.7 313.8 311.8 309.4 309.8 310.2 310.8 312.4 316.4 314.2 310.7 308 308 308.6 309.8 310.2 313.3 310.2 303.6 298.9 299.8 291.1 283.5 279.8 277.4 277.9 279.5 281 280.9 275.3 272.5 271.1 270.9 270.3 269.9 266.1 258.3 252.3 241.7 233.3 230.2 229.1 228 227.3 225.4 223.8 220.3 215 210.6 204.3 197.5 188.8 183.4 194.7 200.9 204.2 207.4 211.9 219 223.5 225.2 225.2 224.8 224 223.7 223.7 221.5 221.8 223 224.3 225.8 227.4 228.7 230.4 233.9 237.3 240.7 243.3 246.8 247.9 247.6 247.5 248.8 248 244.8 239.8 234.4 231.5 230.8 232.6 235.6 236.3 236.4 237.3 237.3 235.9 236.3 237 237.8 239.5 243.2 243.1 242.8 243.4 243.6 243.2 245.5 237.3 234.1 230.6 227 224.2 221 218.5 216.9 215 213.1 211.2 209.2 207.9 205.4 202.7 199.1 196.8 193.8 192.7 188.3 185.6 181.8 178.4 175.6 176 173.6 169.5 168.3 167.1 165.9 164.7 164.1 163.7 163.3 163.3 163.4 163.4 163.5 163.8 165.1 168.4 171 170.9 170.2 168.3 166.8 167.6 169.1 172.2 174.4 175 174 172 169.4 166.8 166.6 166.3 165.7 165.2 164.7 164.5 163.9 163.5 163.4 162.4 162.2 161.9 162 161.3 160.9 160.8 160.7 160.9 161.4 161.2 160.8 160.8 160.9 160.9 160.9 161 161.1 161.5 160.9 161.7 162.1 161.6 160.9
330.9 329.5 318.8 315.2 314.2 313.6 311.6 308.9 308.9 310.5 311.2 312.3 316.3 314.7 311.6 309.2 309.4 309.4 310.4 311.2 312.1 312.6 310.2 306.1 301 299.1 291.4 286.5 282.7 281.1 283.6 284.6 283.4 278 274.6 273.9 274.3 275.2 276.1 273.7 266.8 259.1 251.9 241 236.3 234.1 231.9 230.3 228.7 226.1 223.2 219.2 212.9 207.3 202 197.6 187.1 179.3 192.5 198.1 200.9 203.7 207.6 213 214.5 216.5 216.8 218.7 218.2 217.8 217.5 217.1 217.9 219.6 221.2 222.5 223.6 226.7 228.3 229.5 234.7 238.2 240.9 244.2 244.1 244.7 246.2 246.4 246.1 243.4 239.1 234.5 230.1 230.7 233 235.5 236.6 237.1 237 235.5 234.9 237.3 238.9 240 243 246.1 246.8 246.5 246.7 247.8 247.7 249.1 244.8 240.5 237.3 232 227 224.1 221.3 219 217.1 215.2 213.4 209.6 206.7 204.4 201.8 199.9 196.7 195 192.7 188 185.3 182.1 179.2 176.2 173 171 169.6 168.3 166.8 165.7 164.7 164.2 163.8 163.3 163.2 163.3 163.3 163.4 164.2 165.8 168.4 168.4 167.9 167.2 166.1 166.7 167.3 169 171.5 172.5 172.7 171.3 168.7 167.1 166.8 166.6 166.4 166.1 165.6 165.3 165.1 164.8 164.5 164.1 163 162.6 162.7 161.8 161.1 161 160.8 160.7 160.8 161.3 161.2 160.8 160.8 160.8 160.9 160.9 159.4 161.1 160.5 160 161.9 162.3 162.2 161.2
326.9 324.2 315.3 314.6 315.1 312.4 308.9 308.9 309.9 312.9 312.1 313.5 312.4 310.9 309.2 309.2 310.4 310.9 311.6 313 312.3 311.3 306.8 303.6 298.3 293.1 289.3 288.9 286.7 285.4 287.7 285.4 280.9 275.9 273.5 275.3 276.3 278 279.3 273.6 267.3 261.4 254.8 243 237.7 235.4 233.7 231.8 228.5 224.5 221.6 218.8 213.8 206.2 200.9 195.6 185.9 181.9 189.2 193.1 196.7 199.7 204.3 206.7 208.1 209.6 211.1 213 213.2 213.3 213.8 214.8 215.4 216.8 218.2 219.3 220.9 225.6 228.7 230.1 232.4 237.3 239 240.9 242.4 243.9 244.5 243.7 243.6 242 238.6 235 230.1 230 231.8 233.8 234.7 234.6 233.9 232.6 235.3 238 240.7 242.5 246 248.8 250.5 250.2 249.8 250.4 253.3 251.2 249.8 249.4 246.2 241.4 235.9 231 227.4 224.3 220.3 217.4 214.5 210.7 209.2 205.5 203.9 201 198.5 196 193.6 189.6 186.8 183 180.7 178.2 175.6 173.6 170.8 168.3 166.7 165.5 164.7 164.3 163.9 163.5 163.1 163.2 163.2 163.6 164.7 166.4 166.1 165.8 165.5 165 166.2 166.8 167.5 169 170.7 171.4 170.4 168.9 167.4 167.2 166.9 166.7 166.4 166.2 165.9 165.7 165.4 165.1 164.9 164.6 163.8 163.5 162.2 161.3 161.2 161 160.9 160.8 160.8 161.2 161.2 160.8 160.8 160.8 160.8 160.9 160.8 160.5 160 161 162.3 162.4 162.2 161.3
321.6 316 313.9 316.5 315 308.9 308.9 308.9 310.1 311.8 316.2 313.5 311.1 311.4 311.2 310 311.1 312.7 315.8 313.8 311.3 307.3 302.1 299.2 294.2 290.8 290.5 289.3 287.3 285.3 289.4 283.4 277.6 273.6 273.4 275.4 276.6 277.1 276.3 272.2 267.1 262 255.3 245 238.8 237.3 235.5 232.2 227.2 223.3 221.8 217.4 212.9 206.1 199.8 193.1 183.4 180.5 185.3 188.7 192.5 196.5 200 201 202.3 204.4 207.2 209.1 209.2 209.4 211.3 213.8 213.9 214.9 217.6 218.9 220.7 224.8 229 231.1 234.2 237.5 239.8 240.9 241.6 243.1 242.6 242 241.3 240.5 238.7 234.7 231 229.6 230.1 230.9 232 232.7 232.2 232 235.3 238.4 240.8 243.5 246.7 249.5 252.2 253 253.4 255.1 259.2 256.2 253.4 252.7 250.1 247.6 245.2 240.1 234.3 231.2 227.5 223.8 218.6 215.4 212.1 209.8 207.1 204.8 202 199.2 196.6 193.4 189.6 186.8 183.2 181.1 179.1 177.4 173.9 170.2 166.8 165.3 164.7 164.5 164 163.6 163.2 163.1 163.6 164 165.1 165.1 165.1 164.4 164.5 165.1 166.2 167.1 168.7 170.1 172.2 171.9 170 167.5 167.4 167.2 167 166.8 166.5 166.3 166 165.9 165.7 165.4 165.1 164.8 164.4 163.3 162 161.4 161.2 161.1 161 160.8 160.8 161 161 160.8 160.8 160.8 160.8 160.8 160.8 160 161.1 162.2 162.1 162 161.7 161.3
314 312.2 312.8 312.4 308.9 308.9 308.9 308.9 308.9 313.8 314.1 312.6 312.5 313.2 312.8 312.5 314.4 316.9 314.4 311.9 307.7 302.7 298 294.8 290.4 288.8 287.3 287.2 288.1 287.1 286.2 279.6 272 270.2 270.5 271.8 273 272.6 271.9 269.3 264.7 259.8 253.6 247.7 243.5 239.2 236.8 233.2 226 222.3 221.5 218.3 213.1 206.3 199.1 192.4 185.2 174.8 182.4 186.4 190.5 194.8 197.3 197.4 198.6 201.1 203 205.2 206.8 208.1 210.3 212.3 214.1 215.2 217 218.9 223.6 228.6 233.1 235.4 237.4 239.6 241.1 242.3 241.5 241.4 240.8 240.4 239.5 238.6 236.3 233.5 230.8 229.7 228.9 228.8 230.2 231.1 230.9 231.7 235 238.1 241.7 244.3 247.1 249.8 252.2 254.5 255.8 258.5 262.3 258 255.5 254 251 249.9 249.3 247.2 245 241.2 238.4 233.2 226.5 222.8 219.5 215.4 211.5 207.5 204.8 202.2 199.6 197 194.3 191.9 188.3 187.7 181.1 178.9 174.9 171.3 167.8 165.5 164.7 164.6 164.1 163.7 163.3 162.9 162.7 163.4 163.6 163.5 163.9 163.6 164.8 166.4 168.2 171 173.1 174.6 173.9 172 168.5 167.5 167.3 167.1 167 166.8 166.6 166.4 166.1 165.9 165.7 165.4 165.2 164.7 164.2 163.5 162.7 161.7 161.5 161.2 161 160.9 160.7 160.9 160.9 160.8 160.8 160.7 160.7 160.9 160.9 161.1 161.7 161.9 161.7 161.8 161.3 160.9
313.1 312.5 311 309.4 308.9 308.9 308.9 310.4 312.4 314.7 314.2 313.7 314.7 315.7 315.8 316.9 317.4 315.5 312.4 308.2 304.2 299.1 294.1 291.6 290.5 290.2 283.6 285 287.6 287.8 285.1 274.1 268.7 267.4 267.2 268.4 268.8 268.5 268 265.4 261.5 257.5 253 250.6 248.8 244.3 239.8 234.3 226.6 222.4 221.7 218.3 213.9 209.3 203 196.6 186.1 176.9 177.9 183.2 188.9 192.6 195.3 195.5 197.3 199.1 201.2 204 205.6 207.9 210.1 212.2 214.4 217.2 219.3 224.8 229.2 233.7 238.4 240.1 241.1 241.9 243.2 243.7 243 241.6 239.9 239.3 238.4 236.8 234.8 232.1 229.8 229.1 227.9 227.7 227.3 229 228.7 230.7 232.6 235.5 241.4 244.5 247.2 248.8 252.5 254.8 257.8 260.5 263 259.3 256.5 255.1 250.2 251.4 251.8 252.2 248.8 246.9 243.8 240.8 236 231.7 228.2 223.9 219.1 212.9 210.3 208.2 204.4 200.3 196.9 194.4 192 188.5 183.6 180.7 176.6 171 167.9 166.3 165.1 164.6 164.4 164.5 163.4 162.7 162.5 162.4 162.8 162.9 163 163.1 164.9 166.6 171.4 174.2 176.9 177.7 174.6 170.4 167.2 167.4 167.2 167.1 166.9 166.7 166.5 166.4 166.2 166 165.8 165.5 165 164.6 164.1 163.4 162.6 161.9 161.7 161.5 161.2 161 160.8 160.7 160.7 160.8 160.8 160.8 161 160.9 160.7 161 161.2 161.2 161.3 161.3 161.1 160.9
314.9 315.1 309.7 308.9 308.9 308.9 312.8 316 317.3 318 319.2 319.6 319.4 318 318.5 317.6 316.4 314.8 310.9 305.5 300 294.8 290.2 288.7 289.5 286.1 280.2 283.2 285.8 285.5 278.9 269.6 267.3 265.8 264.1 265 266.2 265.8 263.8 262.4 260.4 257.3 255 253.8 252.6 249.9 244.8 237.2 227.8 224.3 222 218.8 215.3 211.1 206.2 199.6 188.3 180.9 173.7 178.1 184.7 189.7 190.8 191.6 192.1 198.1 200.8 202.9 206.2 208.6 210.7 212.8 215.6 218.8 224.5 230.8 234.6 238.2 241.5 242.7 242.8 243.1 244.3 244.6 243.7 242 239.7 238 236.3 234.6 232.9 231.3 229.5 228.6 227.4 226.3 225.6 225.9 226.5 226.9 229.6 233 238.9 243.2 245.2 248.5 252.3 254.1 256.8 260.2 264.9 260.3 257.6 255.4 252 252.1 253 253 251.6 249.5 247.2 245 242 239 235.4 233.2 226.1 219.3 214.9 210.8 206.8 202.7 199.6 196.9 193.8 190.1 186.5 183.4 178.6 173.9 169.4 167.2 165.9 166.4 166.3 165.7 164.6 162.7 162.5 162.4 162.5 162.5 162.8 163.1 164.6 166.9 172.6 176.3 179.4 175.9 172.2 168.9 166.9 167.1 167.3 167.1 166.9 166.8 166.6 166.4 166.2 166 165.7 165.3 164.9 164.5 164 163.2 162.4 161.6 161.3 161.3 161.1 160.9 160.7 160.6 160.6 160.6 160.7 161 161.3 161.2 160.9 160.6 160.8 161.1 161.3 161.5 161.6 161.4
322.4 313 308.9 308.9 308.9 316.1 320.4 319.6 319.9 320.5 322 323.8 320.2 319.5 318.3 316.6 315.4 313.2 305.1 298.9 294.2 289.5 287.8 287.1 286.6 278.4 278.7 281.5 283.7 282.2 273.8 266.2 264.8 263.3 261.2 260.9 261.9 260.6 260.2 259.3 257.4 257.2 257.7 257 255.8 253.4 250.6 238.4 228.9 224.6 224.4 221.8 218.8 212.1 207.2 201.6 192.5 184.4 175.5 170.5 177.2 186.6 178.3 190 192.5 198.3 201.6 204.7 206.9 209.9 211.7 213.4 216.9 222.7 229 232.9 236.8 239.5 242.5 243.4 244 244.3 245.2 245.3 243.1 240.8 238.8 236.5 234.4 232.8 230.9 230.2 229.1 228 226.7 225.6 224.3 223.1 223.5 224.2 226.4 229.4 235.6 239.5 242.8 245.6 249.6 252.2 256 259.4 262.3 259.2 258 256.5 254.7 252.9 252.9 254.5 251.2 250.5 248.9 245.6 243.6 242.5 240.3 236.4 228.3 221.6 216 212.6 209.1 205.4 202.7 199.1 196.3 193.1 189.3 185.8 182.8 177.8 172.7 169.5 168.6 168.4 166.8 165.4 162.8 162.6 162.5 162.4 162.3 162.5 162.8 163.1 164.1 167 172.2 175.1 174.8 172.2 169.3 166.7 166.7 166.8 167 167.2 167 166.8 166.6 166.4 166.3 166.1 165.5 165.2 164.7 164.3 163.8 163.1 161.7 161.2 161.2 160.8 160.8 160.7 159.3 160.4 160 160.8 160.6 161.2 161.5 161.4 161 160.9 161.1 161.2 161.4 161.6 161.7 161.4
316.7 312.6 309.4 309.6 314.5 321.6 323.6 324.3 323.2 322.9 324 323.1 320.5 320 319.2 316.5 314.9 309.2 300.1 289.7 287.6 285.6 283.8 282 276.1 275.2 276.9 279.7 280.5 279.1 267.8 264.9 263.6 262.3 257.2 256 256.3 257.8 257.4 256.4 255 256.8 259.3 259.3 257.7 254.9 249.6 238.3 233.5 230.9 228.4 225.2 220.6 213.3 207.4 204.3 199.4 192.5 184.8 171.4 166.8 177.3 185.7 189.5 193.8 199.5 203.9 206.7 208.1 211.5 213.6 216.3 221.9 227.2 231.2 235.1 238.6 240.8 243.6 243.6 244.5 245.4 245.9 245.8 243.5 241 238.3 235.8 232.6 230.7 228.7 228.2 228 227.1 226 224.4 223.3 222.5 222.7 223.2 223.6 226.1 229.7 234 238 241.8 245.8 250.1 254.1 257.8 259.9 260 259.8 257.9 256.1 253.7 254.4 254.2 250.7 250.8 250.7 244.8 242.6 242.3 241.3 237.5 229.1 221.6 216.7 214.3 212 210 207.4 206.3 200.1 197.2 195.3 190.5 187 182.1 176.4 173.4 171.2 168.8 165.9 164 162.7 162.6 162.5 162.4 162.3 162.4 162.7 163 164.2 166.2 169.7 170.7 170.7 168.4 166.5 166.8 166.8 166.7 166.7 166.9 167.1 166.9 166.7 166.5 166.3 165.9 165.2 164.8 164.7 164.2 163.7 162.4 161 160.9 160.9 160.4 160.6 160.1 160.7 160.6 160.8 160.6 160.5 161.2 161.7 161.5 161.1 161.2 161.4 161.5 161.6 161.7 161.7 162.2
314.9 312.5 310.9 317.5 324.5 327 328.3 326.2 323 322.6 322.2 321.4 321 320.8 319.5 315.6 310.7 304.7 291.6 286.9 283.4 280.8 278.6 274.7 272.7 271.9 273.9 275.9 274.9 268.4 266.1 267.4 264.6 258.8 253.6 252.6 250.5 251.9 254.1 253.4 252.6 255.3 257.5 258.5 256.9 252.8 246.6 238.3 236 233.2 230.3 226.1 220.9 215.2 211.7 209.1 204.6 198.9 192.9 170.3 166.1 179.1 187.5 193.2 197.4 202 205.3 207.3 208.8 212.5 215.6 220.2 225.2 228.4 232.3 236.1 238.9 241.7 244 243.8 244.6 245.4 246.4 246.6 244.5 241.2 236.8 234 230.8 228.5 226.5 226.2 226.4 226.1 225.9 225.8 223.2 222.3 222.1 222.5 222.8 223.1 224.9 229 230.3 235.9 242.6 247.7 251.7 254.9 256.3 258.7 263.1 259.3 255.8 254.4 253.8 252.8 250.5 247.4 246.1 243.9 242 241.7 240.5 236.6 229.6 223 220.4 219 216.6 216.1 220.7 216.5 209 205.1 201.8 196.2 191.1 184.5 179.9 175.8 172.4 168.8 165.1 162.9 162.7 162.6 162.5 162.4 162.3 162.3 162.6 162.9 164.5 165.1 166.6 166.4 166.2 166 166.3 166.7 166.9 166.9 166.8 166.7 166.8 167 166.8 166.6 166.4 165.7 165 164.3 164.3 164.2 163 161.6 160.4 160.6 160.6 159.2 160.7 160.6 160.6 160.5 160.5 160.5 159.9 160.7 161.9 161.6 161.2 161.5 161.8 161.9 161.9 162 162 162.2
313.9 314 318.9 326.2 332.1 332.7 328.3 324.2 323 321.9 321.2 321.2 320.6 318.6 314.6 311.1 305.9 297.4 287.9 283.1 279.7 277.6 275.2 273.1 270.9 269.7 270.1 270.8 269 267.1 269.7 268.7 263.6 254.4 250.1 248.6 247.1 247.3 249.1 249.7 250.9 253.7 255.2 255.8 252.4 248.3 240.6 238.3 237.1 235.2 231.7 227.4 222.8 218.2 214.6 211.5 206.7 200.6 191.7 166.1 172.3 181.2 187 194.3 197.8 203.5 206.1 207.3 209.7 213.3 218.9 222.5 226 229.1 232.8 236 239.1 241.6 242.4 243.5 244.6 245.2 246.2 246.6 243.9 238.9 234.2 231.1 228 226.6 224.4 224.6 225 226 228 225.9 223.6 222.3 221.7 221.6 221.8 221.9 222.6 223.2 225.8 230.6 236.6 242.3 247.4 251.3 252.5 255.2 262.1 257.3 253.3 254.8 252.7 250.4 248.4 246.1 245.3 242.3 241 240 238.8 234.5 230.5 225.8 223.7 222.8 220.7 223.8 229.8 223.2 213.7 209.3 204.8 200 194.4 187 182.2 177.5 173.5 168.6 164.2 162.8 162.4 162.6 162.5 162.4 162.2 162.3 162.5 162.7 164.2 164 164.5 165.1 165.8 166.1 166.3 166.5 166.8 167 166.9 166.9 166.8 166.7 166.8 166.7 166.2 165.5 164.7 164 163.8 163.2 162.1 160.9 160.4 158.7 160.6 160.7 160.6 160.5 160.4 160.4 160.2 159.8 160 161.7 161.8 161.6 161.5 161.8 162.1 162.2 162.2 162.1 162.1 162.1
314.9 318.9 324 329.9 330.4 324.8 324.9 325.8 321.8 320.1 319.1 317.9 315.9 313.6 308.4 303.6 298.2 290.8 283.6 279.1 276.8 274.5 272.7 271.1 269.1 268 268 267.9 267.1 266.3 266 262 258.5 252.4 247.1 245.4 244.2 243.3 243.9 244.9 246.4 248.6 248.2 249.3 245.3 240 239 238.6 237.9 237.2 232.5 228.1 223.5 219.2 215.9 212.6 207.1 199.8 188.8 174.1 167.2 176.5 184.8 189.5 197.1 201.9 205.1 206 208.3 212.1 217.3 221.1 224.8 228.3 230.9 233.8 236.9 239.6 241.6 243.1 244.5 245.7 246.1 245.3 243.1 238.1 232.7 229.1 225.9 224.4 223.5 223.6 224.8 225.7 227.3 225.4 224.1 223.7 223.4 223 222.2 220.9 221.2 221.8 222.3 226.8 229.3 232.6 239 243 245.9 250.2 254.1 255.2 249.9 250.5 249.6 247.8 246.7 247.1 246.1 241 239.4 237.3 235.3 233.9 230.5 227.5 227.2 227 227.1 231.4 231 221.6 211.5 209.4 205.3 201.2 196.6 188.9 183.9 178.7 174.6 169.8 164.5 162.7 162.2 162.3 162.5 162.3 162.2 162.3 162.4 162.7 163.2 163.9 164.6 165.3 166 166.2 166.4 166.7 166.9 167 167 167 166.9 166.9 166.8 166.6 165.9 165.2 164.5 163.8 163.3 162.2 161.1 160.3 160.4 160.4 160.4 160.6 160.7 160.8 160.7 160.7 159.4 159.9 161.2 162.1 161.9 162.3 163.1 163 162.8 162.5 162.3 162.2 162.2 162.2
316.4 320.4 322 326.1 323.4 325.3 327.1 322.4 320.3 319 318.2 315.9 312.4 307.5 302.4 298.3 293.5 286.9 279.7 276.2 274.4 272.6 270.8 269.1 267.4 266.3 266.3 265.6 266.4 267.2 265.9 261.8 258.1 250.8 245.8 242.4 241.6 241.1 240 240.3 241.3 243.2 242.6 241.1 240 238.5 237.4 237 237.5 235.2 229.2 226.9 222.8 220.1 216.9 212.2 207.5 198 188.5 173.7 163.4 180.7 186 191.2 194.5 198.3 202.2 204 206.2 209.1 213.9 218.2 222.6 227.1 230.3 231.6 234.2 236.7 238.1 240.3 243.1 244.3 244.2 243.5 242.2 236.6 230.6 227.1 224.7 223.3 222.2 223.3 224.5 225.4 226.4 225.5 225.5 225.2 225.1 225.1 224.1 222.4 220.7 219.9 219.6 223.6 224.8 226.4 230.1 234.8 240.8 243.6 251.4 249.9 247.6 248.9 248.5 247 247.4 248.2 244.6 240.1 237.6 235.2 232.2 232.6 230.8 228.9 228.4 228.2 230.4 235.7 231.6 219.7 210.7 208.2 206.3 202.7 198.5 190.9 185.6 179.9 175.1 169.3 164.8 162.8 162.1 161.7 162.1 162.3 162.2 162.3 162.4 162.8 164 165.1 165.4 165.6 166.1 166.3 166.5 166.7 166.8 167 167 167.1 167 166.9 166.7 166.4 165.9 165.1 164 162.9 161.9 161 160.4 160.4 160.2 160.1 160.2 160.6 160.8 161 161.1 161.2 160.9 161.3 161.8 162.8 163 163.9 164.1 164.5 163.7 162.9 162.5 162.3 162.3 162.3
315.3 316.5 318.8 319.9 325.1 324.6 322.9 321.9 320.3 318.9 316.1 312.6 308.5 302 297.6 293.6 289.3 280.5 276.8 275.4 275.2 272.6 269.4 266.3 265 263.8 264.2 265.6 266.8 268 265.5 261.9 257.6 250.5 246.3 242.1 239.9 238 237 236.9 236.9 237.7 235.9 236.3 236.5 235.5 235.4 235.2 233.7 231.4 226.9 225.7 223.1 219.9 215.3 211.2 207.2 198.9 188.3 172.2 172.8 184.4 187.4 190 191.7 194.8 198.6 201.6 203.2 204.7 209.5 212.9 217.2 222.2 224.9 226.4 229.3 231.2 233.9 237.3 240.5 242.1 241.8 241.5 240.6 234.4 229 225 223.3 222.2 222 223.4 224.8 226.3 226.8 227.1 227.2 227 227.1 227.2 225.2 223.4 221.6 219.6 218.9 219 220.4 221.8 224.5 228.5 233.5 236.6 241.6 242.6 245.8 247.6 246.3 245.8 247.7 247.6 243.6 240.1 238.6 235.3 229.2 229.2 228.6 227.8 227.5 227.2 229.1 230.8 224.7 214 209.1 208.9 208 205.1 201.3 195.5 190.9 184.6 175.1 168.6 165.1 162.9 162.2 161.5 161.5 162 162.2 162.3 162.7 163.1 164.3 165.3 165.6 165.9 166.2 166.3 166.5 166.6 166.8 166.9 167 167 166.9 166.7 166.6 166.2 165.7 165.2 164.6 163.8 162.1 160.6 160.4 160.3 159.9 159.9 160 160.6 160.9 161 161.2 161.3 162 162.5 163.1 163.6 163.8 164 164.2 164.4 164.6 163.7 162.8 162.5 162.4 162.6
315.6 316.1 317.2 323.6 324.1 323.3 324.2 322.6 320.5 316.3 311.3 306.7 302.7 299 293.9 288.4 283 278.1 275.9 275.4 275.3 272.8 269.2 264 260.9 261 261.6 262.4 263.2 263.9 262.9 261.2 258.4 251.9 246.7 242.6 239.3 235.6 234.2 234.1 233.8 231.7 230.4 230.3 229.9 229.1 229.1 230.1 229.3 227.7 225.9 225.9 223.6 219.8 213 209.2 206.2 198.6 187.4 174.2 170.1 183.1 186.1 188.1 190.1 192.2 195.1 198.6 199.7 200.3 204.9 207.6 211.6 215.7 218 220 223.1 222 228.3 233.8 236.6 236.4 236.1 236 234 229 228 223.8 221.9 221 222.8 225 226.8 228 228.4 228.8 229 229.1 229.1 228.7 226.1 224.1 222 219.8 218.4 217.9 218 218.3 219.3 221.5 225.9 227.9 231.7 236.8 240.1 242.5 243.8 243.7 245.1 244.6 241.3 240.8 240.5 232.2 226.9 226.1 225.5 225.6 226.2 225 227.5 225.6 218.1 211.1 208.9 209 211 207.3 204.3 200.1 199.2 188.6 176.2 169.7 166 163 162.3 161.6 161 161.5 161.9 162.8 163.2 163.6 164.5 165.4 165.7 165.9 166.1 166.3 166.4 166.6 166.8 166.8 166.9 166.8 166.7 166.6 166.4 166 165.5 164.9 164.4 163.7 162.6 161.1 160.3 159.8 159.7 159.7 159.9 160.4 160.9 161.1 161.3 161.4 162.6 163.2 163.8 163.9 164 164.1 164.3 164.5 164.8 164.6 163.7 162.8 162.8 163.2
315.9 316.9 322.5 322.9 322.9 323.6 324.8 322 320 313.2 308.3 304.6 300.1 295.7 291 285.5 280.1 277.9 276.5 276.8 273.1 267.1 264.1 262 258.4 259.2 259.3 259.1 259.4 260.1 260.1 260.6 257.9 254.2 249.8 243 238.4 233.7 230.9 230.8 229.8 228.4 226.4 224.2 223.9 223.8 224.3 223.9 223.6 226.2 227.1 228.3 227.6 218.3 208.5 204.4 197.7 194.1 186.7 174.1 160.2 180.5 182.4 184.4 186.3 188.5 191.7 193.1 195.3 196.6 199.6 202.3 205.9 208.3 209.7 211 210.7 213.8 220.3 226.8 230.7 229 229.9 229.9 226.6 225.7 226.8 224 221 220.9 226 226.7 228.8 229.5 230 230.3 231.3 231.5 231.4 230.1 227.6 224.7 222.5 220.1 219.2 218.5 216.5 215.9 216.8 217.7 219.5 222.3 229.2 232 235.3 238 240 241.3 242 241.1 241 241.3 239.6 230 225.4 223.8 223.1 222.6 223.1 222.4 224.4 220.3 212.8 209.3 208.6 208.7 210.3 208.4 205.5 204.3 200.9 188.4 174.7 169.1 165.4 162.8 162.1 161.4 161.1 161.2 161.7 162.3 163.5 164.1 164.8 165.4 165.7 165.9 166.1 166.2 166.4 166.6 166.7 166.8 166.7 166.6 166.5 166.4 166.3 165.8 165.2 164.7 164 163.4 162.4 161.4 160.4 160.2 160 159.6 159.7 160.1 160.9 161.1 161.3 161.9 163 163.9 164.1 164.2 164.3 164.4 164.4 164.5 164.7 164.9 164.6 163.7 163.1 163.8
316.3 321.1 323.1 323.5 324.4 326.5 326.7 323.9 319.3 313.5 309.4 306.1 299.4 294.6 289.8 283.1 279.4 277.6 278.6 275.1 271.1 266.3 264 262.1 259 254.8 250.3 252 252.9 254.6 256.3 256.7 255.8 252.5 248.8 242.6 235.8 228.3 224.9 225.8 225.3 224.4 221.8 219.7 218.6 218.7 217.7 217.3 219.5 222.8 226.2 224.6 218 208.5 201.2 197.5 187.6 183 182.3 168.6 155.7 177.2 178.8 180.8 182.6 184.4 185.3 186.4 188.4 191.7 193.8 196.4 199 201.6 202.6 201.8 206.8 211.5 215.3 219.1 219.9 221.8 223.9 224.2 222.9 222.8 224.8 224.4 218.3 221.6 225.3 228.6 229.7 231.1 231.5 232.5 233.5 234.4 233.5 231.4 228.5 226.3 224.2 223.3 222.5 220.2 217.6 215.4 215.2 215.7 216.5 218.7 222.8 226.3 230.5 233.4 235.7 238.1 240.4 238.9 238.7 237.7 235 227.8 224 221.9 221.1 220.5 220.3 219.9 218.2 214 209 209 208.8 208.5 209.5 207.9 206.9 205.8 200.1 186.9 173.2 168.3 164.8 162.5 161.9 161.5 161.3 160.9 161.4 161.8 162.9 164.1 165 165.4 165.6 165.8 166 166.2 166.4 166.5 166.7 166.6 166.5 166.5 166.4 166.3 166 165.5 165 164.3 163.6 163 161.9 160.6 160.4 160.3 160.2 158.6 159.9 160.2 161.1 160.9 160.9 163.5 163.9 164.2 164.3 164.4 164.5 164.6 164.7 164.8 164.9 165 164.2 163.7 163.4 164.4
321 322 323.4 324 324 324.6 323.3 323 321.2 317 313.1 307.3 299 292.9 290 281.3 279.2 281.4 277.9 275.1 271.1 267.7 267.7 265.3 263.7 258.2 249.6 241.2 244.4 248.8 251.5 251.2 249.8 248.8 246.2 239.5 232.9 225.6 219.7 221.7 221.6 220.2 217.8 215.9 215.1 213.3 211.1 210.4 209.1 211.9 213.6 208.9 204.9 196.3 191.4 173.3 170.7 170.5 175.1 169.2 160 171.3 175.1 177.2 179.2 180.1 180.9 181.8 183.5 185.7 187.6 189.8 192.1 194.3 196.1 198.5 203.3 207.1 210.1 212.9 214.1 216.2 219.1 218.4 218.2 219.3 220.7 217.4 220.4 221.2 227.1 229.5 230.1 232 233 233.7 234.5 235.3 234.8 232.9 230.5 228.2 227.9 226.7 225 222 218.8 215.4 214.6 215 215.4 218.1 220.7 222.6 223.8 226.5 231.3 233.5 235.2 235.1 236.1 236.4 232.9 226.8 222.5 220.7 219.7 218.9 218.6 217.9 213.5 209.7 208 208.1 208.4 208.6 208.4 208.2 207.3 205 195.5 184.4 173.4 167.4 164.6 163 161.6 161.7 161.5 161.1 161.1 161.5 162.6 164 165.4 165.6 165.7 165.9 166 166.2 166.3 166.5 166.5 166.5 166.4 166.3 166.2 166.1 165.8 165.2 164.6 163.9 163.3 162.5 161.2 160.5 160.4 160.3 160.2 158.6 159.9 160.5 161.4 161.9 162.7 163.7 164.3 164.4 164.5 164.7 164.8 164.9 165 165.1 165.2 164.9 164 163.3 163.5 164.1
322 321.8 322.2 321.1 321 321.7 322.4 325.2 325.5 319.8 318 309.9 303.7 297.8 286.9 281.3 281.3 280.3 281.7 279.3 272.3 272.4 270.1 268.9 265.5 257.2 244.3 239.5 238.3 238.5 240.9 242.1 241.3 240.6 239.3 235.4 228.2 219.8 215.5 217 218.3 216.8 213.7 212 211.6 210 206.5 203.6 201.8 200.3 199.8 198 192.1 186.2 179.9 179.6 179.3 173.2 162.8 160.9 156.4 159.9 170.7 174 176.3 175.7 176.4 177.4 178.3 179.7 181.6 183.5 184.1 186.5 189.3 195.5 199.3 204.1 205.7 208.6 210.7 212.7 214.6 216.1 214 211 214 218.5 221.9 224.9 228.8 231.2 232.2 234 234.2 234.6 235.4 236.1 236.1 234.7 232.5 231.2 231.4 229.9 226.8 223.3 219.7 215.8 213.8 214.1 214.6 217 219.3 219.9 220.1 220.7 224.5 227.7 229.7 231.6 234.2 236.7 231.8 224.6 221.9 220 218.9 218.3 218 216.1 210.9 208.7 207 207.1 207.2 207.2 209.3 209.8 208.7 205.7 196.4 186 175 168 165.3 163.7 161.3 161.6 161.5 161.2 161.1 162.3 163.6 164.6 165.6 165.6 165.5 165.7 166.1 166.2 166.4 166.5 166.5 166.4 166.3 166.2 166.1 166 165.6 165 164.4 163.8 163.2 161.9 160.6 160.4 160.2 160.4 160.3 159.1 160.2 160.3 160.7 162.1 163.4 164 164.5 164.6 164.7 164.9 165 165.2 165.3 165.3 165.3 164.5 163.8 163.1 162.9 163.3
318.4 318.7 318 319.7 320.1 322.7 324.2 326 323 324.2 319.7 311 309.3 297.5 283.1 281.5 280.6 280.9 281.1 276.6 278.8 275.2 271.1 269.4 262.1 251.1 242.3 239 236.4 234 231.1 231.9 230 230.1 230.1 227.6 221.8 212.6 212 213.3 213.8 212.5 208.8 205.9 208.2 205.5 204 200.4 199 197.9 196.2 194 187.6 179.9 178.9 186.4 183 180.5 177.6 175.3 173.5 153.3 160.8 165.3 169.8 171 172.4 173.8 173.4 173.7 174.9 180.1 183 187.2 189.5 190.1 191.5 188.3 195.5 203.6 203.9 206.1 205.1 208.2 212.8 218.5 219.6 222.1 225.1 228.9 232.6 233.5 234.5 235.5 235.6 235.6 236.2 237 236.8 236 233.9 235 234.4 233.6 230.7 225 221 217 214.3 213.6 214.3 216.3 218.3 217.7 217.5 217 217.6 221.3 224.1 226.5 230.4 228.3 223.6 221.6 222.3 220.4 218.6 217.8 218.4 215.6 208.6 207.3 205.8 205.6 205.6 208.2 210.8 211.8 213.2 209.1 200 190.6 181.5 172.5 166.3 163.3 161 161.4 161.4 161.4 162 163.2 164.6 165.5 165.3 165.2 165.4 165.9 166.1 166.3 166.4 166.5 166.5 166.5 166.4 166.3 166.1 165.9 165.5 164.8 164.2 163.6 162.7 161.5 160.6 160.3 160.2 160.1 160.3 160.2 160.4 160.6 160.7 161.8 163.8 164.2 164.5 164.8 164.9 165 165.2 165.4 165.5 165.6 164.9 164.2 163.5 163.1 163.6 164.4
315.8 318.3 317.5 318.1 323 327.9 326.2 324.6 324 323.8 314 313.5 307.8 293.4 281.9 281.2 281 283.1 281 282.8 284.2 276.2 271.9 268 259.7 250.7 243.3 239.3 236.1 230.9 225.7 225.5 224.4 221.7 221.3 218.5 215.5 211.5 210 209 205.9 203.5 203.7 201.3 201.4 198.9 195.8 192.8 191.3 197.2 191.3 186 177.5 185.2 187.6 189.7 188.1 185 182.6 179.3 175 168.6 156.7 155.3 158.5 162.3 167 164.5 168.9 178 181.7 185.2 186.3 190.1 195 199.6 203.8 206.6 208.4 208.9 208.3 210.5 214.5 214.9 218.2 224.1 230.6 233.3 232.2 233.1 235.9 236.6 237.1 237.2 236.9 236.9 236.8 237.3 236.8 236 234.9 237.3 235.6 237.7 234.6 229 223.4 217.6 214.9 213 214.8 216.6 216.4 215.6 214.7 213.8 212.9 215.2 217.9 219.1 222.3 220 219 220 220.7 220.1 218.1 218.1 218.1 213.8 208.5 206.5 203.8 203.4 206.5 209.8 212.3 216.1 219.5 213 203 197.1 186.8 174 167.8 163.7 161 161.3 161.6 161.7 162.8 163.7 164.2 164.5 164.9 165.1 165.6 166.1 166.2 166.3 166.4 166.4 166.5 166.5 166.4 166.2 166 165.8 165.4 164.7 164.1 163.4 162.5 161.6 160.7 160.1 160 159.9 160 160.2 160.4 160.6 160.8 162 163.6 164.1 164.4 164.7 165 165.2 165.3 165.5 165.7 165.5 164.8 164.2 163.4 164.1 165.9 164.1
318.8 317.5 318.8 322.8 328.6 328.5 323.3 324.3 323.9 316 310.9 311.2 303 288.7 282.7 286.7 289.7 288.8 285.2 286.9 285.6 280 277.1 267.5 258 252.1 245.9 242.3 236.3 233.1 229.9 227 223.8 220.9 221.7 221.7 219.9 218.2 217 215.5 212.5 210.2 207.6 206 203.5 198.2 198 199.4 196 192.6 193.3 192.5 192.8 192.5 193.4 193.5 191.3 189.3 187.1 184.5 180.9 177.3 172.6 169 164 151.2 156.6 169.6 171.8 175.5 179.9 185.7 191.3 195.7 201.7 206.9 209.8 212.9 216 216.8 217.8 219.5 221.6 223.7 226 230.5 235.6 240.2 240.2 238.3 238.6 239.1 239.7 239.5 238 237 236.7 237.2 236.7 235.3 235.7 236.1 237.2 239.3 237.6 233 227.6 219.6 215.2 213.4 213.6 214.6 213.9 212.9 211.5 210.4 209.6 210.1 210.6 211.8 214.6 215.2 217.1 219 220.3 218.5 216.6 218 218 212.7 208 206.2 203.6 203.1 205.9 209.6 213.7 220.1 224 217.4 208.4 199.5 188.6 176.7 168 164.1 161.2 161.1 161.6 161.6 162.1 163.2 163.5 163.9 164.7 165.2 165.7 166.1 166.3 166.3 166.4 166.4 166.4 166.4 166.3 166.1 165.9 165.8 165.3 164.6 163.8 162.6 161.7 161.1 160.6 160.3 159.9 159.8 160 160.1 160.3 160.6 160.9 161.5 163 164.1 164.3 164.6 164.9 165.2 165.5 165.6 165.6 165.6 164.9 164.1 163.3 165.8 164.6 164.2
316 318 322.6 324.9 327.2 322.4 321.9 321.6 316.9 309.8 308.8 306.8 296.6 287.9 289 296 295.9 288.9 291 291.2 284.1 281.3 273.2 268.8 262.6 252.7 247.7 244.3 237 232.8 229.7 226.8 225.2 225.7 225 224.2 222.6 220.6 218.7 216.3 214 211.6 209.4 207.6 205.8 205.1 203.1 201.1 200.6 201.4 202.5 201.5 202.5 201.2 201 198.9 195.9 193.4 191.1 188.6 185.9 182.6 178.8 176.3 166.5 156.3 156.9 167.6 170.9 175.3 179.8 187.9 194.9 201.6 206.9 211 213.1 217.2 221.6 224 226.1 227.4 228.3 229.4 230.5 235 239.5 243.9 245.1 244.5 243.7 242.1 242.3 241.2 239.1 237.2 235.5 236 235.2 232.6 233.2 234.4 237.3 239.7 239.3 234.5 229.4 221.3 216.6 215.2 213.2 211.6 211.3 210.2 208.9 207.7 206.8 205 204.8 203.6 207 213 214.6 216.1 218.6 215.5 215.2 217.8 217.4 214.2 209.6 206.4 200.1 203.6 204.1 208.7 213.9 223.1 223.3 216.3 206.9 199.8 190.1 179.3 169.5 164 160.9 160.9 161.2 161.5 161.8 162.5 163.4 164.3 164.8 165.3 165.9 166.2 166.2 166.3 166.3 166.4 166.4 166.3 166.1 165.9 165.8 165.7 165.2 164.4 163.6 162.8 161.7 161.2 160.3 159.8 159.8 159.2 159.8 160 160.2 160.6 160.9 162.1 163.1 163.9 164.3 164.5 164.8 165 165.1 165.2 165.3 165.2 164.6 163.9 163 166.3 165 164.7
317.7 321.6 325.2 326.3 323 320.5 319.4 319.1 310.3 309.7 307.9 302.3 290.2 290.9 294.9 304.9 295.9 298.9 300.1 293.1 287.8 282.4 280.3 272.7 264.1 253.6 248.9 244.5 237.6 233 228.8 228 227.8 227.1 226.4 225.6 224.7 223.1 221.1 217.8 215.3 212.9 210.4 208.3 207.2 206.8 206.1 206 205.7 206.1 206.9 205.8 205.1 204.6 203.8 201.9 200 197.2 193.5 190.9 187.9 185.1 181.7 176.8 167.4 157.3 148.9 165.8 170.4 175.4 183.2 192.1 198.9 203.3 207.5 212.3 216.7 220.5 225 226.6 228.5 229.2 230.7 233.3 235.1 238.7 242.8 247.1 246.6 245.4 245.6 245.5 243.6 241.8 239.4 236.4 234.9 234.3 230.2 228.9 230.1 231.4 234 238.7 239.7 235.7 229.4 223.1 219.1 217.9 216.4 214.8 212.7 210.1 207.5 206.8 205.7 208 209.6 209.9 202.2 209.6 209.6 211.7 213.5 210.3 215.5 217.1 216.8 214 208.3 203.9 198.5 200.4 202.4 207.1 213.2 220.5 220.2 216.5 206.2 199.4 189.5 178.8 169.3 163.7 160.6 160.8 161.1 161.3 161.8 162.8 163.9 164.4 164.9 165.4 166 166.1 166.2 166.2 166.3 166.3 166.2 166.1 166 165.9 165.7 165.5 165.2 164.6 163.8 163 161.8 160.7 160.1 159.8 159.8 159.5 159.5 159.9 160.2 160.7 160.9 162.2 163.1 162.1 163.5 164 164.3 164.5 164.7 164.6 164.4 164.2 163.7 163.2 163.3 166.7 168.8 172.7
319.7 323.5 324.5 322.1 317.7 317 315.6 310.2 306.9 306.9 300.1 294.4 292.1 297.6 304.8 303.8 305.1 305.6 298 295.2 291 287.4 280.5 273.5 263.3 254.6 250.4 246.8 237.3 232.3 230.7 228.2 228.8 228.5 227.8 226.9 226 225.2 223.5 219.3 216.8 214.3 211.7 209.7 209.6 208.7 208.5 209 209.6 208.9 209.1 208 207.3 205.9 204.8 200.6 200.2 197.6 195 192.7 189.8 186.7 181.7 176.3 167 154.4 148.1 164.9 169.9 175.1 185.2 192.7 198.6 202 207 211.8 217.3 220.2 223.8 225.8 227.6 229.5 233.3 236.1 237.3 242.4 246.3 247 247.2 245.8 246.1 244.2 241.8 240.3 238.2 235 233 231.9 226.5 224.7 225.7 227.5 230.8 237.2 235.4 237.4 233.5 230.8 229 222 220.4 218.2 215.8 212.9 209.2 209.6 210.6 210.3 210.4 208.9 204.2 200.2 205.1 205.7 204.8 209.7 214.9 217 215.4 212.9 207.3 202.1 196.5 196.6 200.6 205.7 211.5 216.7 215.7 213.5 206.4 197.3 189 180.6 170.9 164.6 160.5 160.7 161.2 161.8 162.5 163.4 164.1 164.5 165 165.5 165.9 166.1 166.2 166.2 166.3 166.2 166.2 166 165.9 165.8 165.7 165.4 165 164.7 164.1 163.2 161.7 160.3 159.9 159.9 160 160 160 160.2 160.5 160.8 160.8 161.9 162 161.4 162.4 162.6 162.8 163.1 163.7 164 163.8 163.4 163.1 162.8 165.6 169.7 179.3 184.4
319.6 323.7 321.6 315.9 315 314.2 309.3 308.2 307.7 304.5 297.9 294.4 296.8 302.1 305.7 310.8 308.1 302.8 298.9 296.5 294 290.4 282.9 272 263.4 257.3 252.7 246 238.4 233.3 230.8 228.9 229.3 229.8 229.1 228.3 227.4 226.2 224.2 221.4 218.2 215.5 213.6 212.5 212.2 212.8 211.5 210.6 211.6 211 210.5 209 207.7 205.9 204.5 201.9 199.9 198 195.5 192.9 190.4 187.6 182.6 178.3 171 160.7 146.5 162.1 168.1 172 180.9 188.3 194.9 200 205 210.3 215.1 218.4 219.9 222 222.7 224.6 230.3 233 236.9 243.3 246.2 246.7 245.8 244.1 244 243.6 238.8 237.6 235.2 231.5 230.5 225.8 221.9 221.3 221.6 224.6 229.2 231.4 234.7 239.5 236.5 237.6 240.4 231.9 226.2 222.7 218.9 215.7 212.2 212.3 211.1 210.5 209.4 207.7 204.8 201.7 198.6 198.8 201.5 209 212.1 214.1 213.2 210.4 206.1 200 194.5 195.4 198.6 204.2 209.1 210.8 210.2 208.1 202.9 194.9 188.4 180.4 172.2 164.2 160.8 160.9 161.2 161.5 162.7 163.7 164.2 164.6 165.1 165.6 165.8 166 166.1 166.2 166.1 166.1 166 166 165.8 165.7 165.5 165.2 164.9 164.6 164.3 163.4 162 160.4 159.9 160.1 160 160 160 162.1 162 160.9 160.8 161.4 160.9 161 161.1 161.4 161.8 162.4 162.6 163 163.2 162.9 162.7 166.3 171.2 179 190.7 195.7
316.7 317.2 314 312.3 312.8 309.7 308.8 308 304.5 298.7 295.1 296.5 298.5 303 311.3 307.2 303 301 300.2 296.9 295.4 292.9 283.1 273.4 264.2 256.6 250.2 243.7 238.6 234.1 230.3 229.4 229.9 230.3 230.5 229.1 227.7 226 224.1 222.3 221 220.1 217.6 215 214.9 213.9 212.7 211.7 211.4 211.2 209.8 208.9 207.6 205.8 204.3 202 199.9 197.7 196.2 194.9 192.1 189 185.3 181.2 175.2 164.2 148.4 160.6 165.3 171.6 176.3 183.6 190.7 197.1 202.7 207.7 210 211.5 214.8 217.7 219.5 222 228.2 231.7 236.7 242.5 245 244.5 242.6 241.7 240.1 237.6 235.1 231.5 228.4 226.6 224.7 218.8 216.1 216.2 217.3 220.5 229.3 232 236.6 237.8 236.9 241.2 245.9 239.4 235.7 228.2 221.7 218.6 214.8 213 211.9 210.5 208.6 206.3 204.8 201.6 197 196.1 199.4 204 207.9 211.8 210.7 207.6 203.4 198 194.1 194 197.4 201.2 204.1 204.5 204.8 203.8 200.3 193.2 189.2 180.3 170.5 163.1 160.7 160.9 161.1 161.2 162.5 163.5 164.2 164.7 165.1 165.4 165.6 165.8 166 166.1 166 165.9 165.9 165.8 165.7 165.6 165.4 165 164.7 164.4 164.1 163.5 162.3 160.6 159.7 160 160 159.8 159.8 161.3 164.6 164 162.8 160.9 161 161.2 161.2 161.2 161.4 161.9 161.8 162.1 162.5 163.5 168 174.5 184.3 195.9 208.3 215.2
311 310.5 310.3 310.5 310.2 309.5 307.6 303.8 297.9 293.6 294.3 297.2 299.8 301.7 297.9 296.8 297.9 300.3 301.9 297.2 297.9 292 282.1 273.3 264.3 256.7 249.3 244.6 238.7 234.2 230.8 230.7 231.3 232.7 233.9 231.1 229.1 227.6 225.9 224.1 222.6 221.9 219.6 217.2 216.4 215 213.7 212.7 211.7 209.3 209.3 207.8 206.7 205.6 203.8 201 198.7 197.7 195.8 194.7 193.2 189.9 186.4 182.4 175.2 166.7 149.4 156.9 164 169.6 172.8 178.3 185.7 192.4 199.7 201.9 203.7 207 210.5 214.6 218 226.5 230.9 231 235.8 237.8 239.5 239.2 237.9 238.3 236.9 233.1 225.8 222.5 221 220.8 216.9 213.3 212 212.4 212.9 217.5 222.7 228.8 229.9 231.6 235.8 243.9 244.5 240.5 236.6 231.4 224.5 220.4 216.3 214.3 212.5 210.1 206.7 204 203.4 201.2 197.1 195.2 197.8 202.2 206.1 208.9 207.9 206.6 201.2 196.1 192 190.9 194.3 197.7 199.2 199.5 200.8 199 196.4 190.7 189.5 179.5 170 161.6 161 161 161 161.1 162.2 163.1 163.8 164.6 164.9 165.3 165.4 165.6 165.8 165.9 165.9 165.8 165.7 165.7 165.6 165.5 165.1 164.8 164.5 164.2 163.4 162.8 162.2 160.7 158 159.9 159.9 159.9 159.5 160.8 166.1 166.8 166.3 164.8 163.9 163.2 163.2 164 165.8 164.8 163.6 162.8 165.8 169.8 176.9 192.3 205 215.4 225.9 235.8
309 308.6 308.7 309 309.4 303.8 297.6 291.9 290.6 291.4 293.8 297.3 298.8 297.3 294.5 294.5 299.8 298.2 298.6 301 297.7 288.9 281.4 273.5 265.1 256.6 249.3 245.6 239.5 234.9 233.3 233.4 234.9 236.4 237.6 236.1 232.2 229.2 227.6 225.8 224.4 222.9 220.9 218.7 218.2 216.9 215.9 214.8 212.3 209.5 208.3 206.7 205.4 204.3 201.6 199.4 196.7 196.4 195.4 194.3 193.1 189.9 185.7 181.1 174.1 167.3 161 141.5 159.8 164.8 167.7 173.3 179.9 187 192.9 195.2 198.6 202.2 206.2 211.2 220.1 225.2 226.9 228.3 231.3 231.9 232.1 231.7 232.3 233 230.6 224.1 217.1 216.4 215.4 214.3 211.9 209.8 210.4 211 211.3 213.6 217.8 219.1 220.8 223.6 227.6 230.5 232.1 234.7 231.6 227.8 223.5 219 215.3 213.3 211.9 208.4 204.5 201.7 201.5 200.2 195.3 193.8 195.4 199.7 202.6 204.8 204 202.4 198.8 194 188.9 188.4 190.9 193.7 194.3 195 195.6 194.2 191.6 189.1 185.3 177 167.6 161.2 160.6 160.8 160.9 160.9 161.4 162.5 163.3 164.2 164.8 165.1 165.3 165.4 165.6 165.8 165.7 165.7 165.6 165.5 165.4 165.2 164.7 164.3 163.9 163.7 162.8 161.1 160.7 160.4 159.7 159.8 159.8 159.8 159.6 160.2 165.7 166.9 167.5 167.7 167.6 167.6 167.5 167.8 167.4 166.7 166.4 167.1 170.7 178.1 191.8 210.2 221.1 232.6 243.5 252.9
306.7 307.3 307.4 304.2 299.7 290.3 289.4 289.9 291.9 293.1 297.1 299.1 295.5 294.1 293.5 299.5 299.5 298.1 297.7 298.3 291.4 285.4 278.6 272.1 264.4 256.1 249.5 245.5 240.1 236.5 235.9 237.5 239 240.3 241.3 240.5 236 232.5 230.4 228.9 227.1 225.9 225.6 223.8 220.4 219.8 219.1 216.7 214.8 211 207.7 205.4 203.1 201.3 199.5 197.3 195 194.2 194.1 193.3 192.3 189.5 185 179.8 174.6 168.7 163 151.3 144.5 160.1 164.4 168.9 174.4 181.5 185.2 189.6 193.3 200.2 206.7 210.9 218.5 220.6 222.7 224.8 226.9 227 226.9 225.2 224.6 224.3 218.6 214.9 210.8 211.5 210.5 210.9 209.1 209.8 209.3 210.7 210.5 211.6 213.1 214.2 215.6 217.3 222.1 222.2 221.2 222.3 222.5 223.2 220.2 217.2 213.8 211.6 211.1 207.1 202.9 199.5 199.3 195.2 194.7 193.5 192.5 194.8 198.4 200.6 200.6 197.9 194.4 189.4 186.1 187 189.1 190.1 190 190.5 190.4 190.3 188.2 185.7 180.1 173.5 165.7 161.2 160.3 160.5 160.6 160.8 161.1 161.9 162.8 163.7 164.6 164.9 165.1 165.3 165.4 165.6 165.6 165.5 165.4 165.2 165.1 164.9 164.4 163.9 163.5 163.1 162.3 160.4 159.3 159.2 159.7 159.8 159.8 159.8 159.8 160.5 165.4 167.2 168 168.9 168.7 168.6 168.8 168.9 168.7 168.5 169.2 170.9 175.1 186.5 202.9 220.4 235.1 246.4 258.5 260
303.9 304.7 303.5 297.1 288.9 287.7 287.4 289.3 291.9 294.5 298.5 296.3 293.1 292.2 295 303.7 300.9 298.9 296.1 294.2 288.3 283.4 276.6 269.9 262.9 255.3 250.7 243.8 240.1 238.8 239.9 241.4 242.9 244.4 245.2 241.2 239.8 236.2 235.7 233.8 231 229.7 228.6 228.5 225.2 224.4 222.1 219.1 215.9 212.4 208.5 205.5 202.1 198.1 196.6 194.5 192.7 192 191.9 191.5 190.5 188.2 183.7 178.6 173.7 168.2 164.6 157.3 145.3 155.6 160.4 164.6 170 174.4 183.4 187.1 190.9 200.3 208.6 212.5 214 215.8 218.2 220.7 222.2 222.3 221.6 218.3 216.6 215.3 210.5 208.9 208.7 208.9 209.6 209.2 209.5 210.6 211.5 212.5 214 212.7 211.9 211.8 211.8 213.4 214.1 213.5 211.9 211.2 211.8 214.8 213.4 213 210.6 209.5 209.3 205.5 201.3 198.2 197.4 195.9 195 195.1 194.5 191.3 194.1 197.8 196.8 194.6 190.5 187.3 185 184.4 185.6 186.4 186.9 187.7 187.2 186.3 183.3 180.5 174.4 168.4 164.4 161.2 160.3 160.5 160.6 160.7 160.9 161.6 162.3 163.3 164.2 164.7 164.9 165.1 165.3 165.4 165.4 165.2 165.1 164.9 164.8 164.6 164.1 163.6 163.1 162.7 161.4 159.8 159.6 159.6 159.7 159.8 159.8 159.7 159.9 160.6 166.5 167.8 168.2 168.9 168.9 169.4 170 169.8 169.6 169.7 171.2 174 181.1 195.9 213.7 232.2 244.3 258.7 265.1 268.4
300.8 301 297.7 288.7 286.3 286.2 286.9 289.1 291.6 293.5 294 292.1 290 294.8 300.8 302.2 296.1 295.1 294.9 290.9 288.7 281.4 274.5 267.9 261.1 254.3 250.6 244.4 242.1 240.6 242.4 245.1 246.6 249.2 251.1 244.7 243.4 241.9 241.1 238.1 235.2 233.3 232.3 230 226.5 223.4 221.2 216.9 212.7 210.5 208.4 205.7 201.7 196.8 193.6 192.4 191.3 190.1 189.6 189.5 189.2 185.7 182.2 178.5 173.6 169.5 165.9 160.7 150.8 143.5 156.5 160.1 166.3 172.5 177.1 183.7 193.7 203 208.3 210.7 210.8 212.2 216.2 217.9 217.2 217.7 215.7 214 210.7 209 209 208.2 208.1 208.3 208.4 209.8 210.5 214 218.5 218.4 219 214.3 212.6 211.8 211.8 210.9 209.2 206.2 205.3 205.3 205.1 205.8 206.8 207.9 207.9 207.1 206.2 203.6 201.7 200.9 199.6 197 195.2 195.4 195.9 191.8 192.4 193.7 194.1 190.5 186.6 183.9 181.9 181.5 181.5 182.6 183.2 185.2 185.7 182.1 178.1 175.1 171.3 168.4 165 162.1 160 160.3 160.5 160.5 160.7 161.2 161.7 162.8 163.8 164.5 164.7 164.8 164.8 165.2 165.1 164.9 164.8 164.6 164.5 164.3 163.9 163.3 162.8 162.4 160.4 159 159.4 159.6 159.7 159.9 159.9 159.9 160.1 161.1 167.9 168.5 168.8 169.1 169.1 169.4 169.6 170.4 170.1 172.5 173.8 180.2 194.8 211.5 227.7 246.4 265.6 270 270.6 270.7
297 291.1 286.9 285.6 285.6 285.7 287.9 290.2 290.5 292.4 289.1 289.1 293.5 300.4 303.7 296.2 293.7 293.6 292 289.2 285.2 278.6 272.4 265.8 259.7 256.6 250.7 246.5 244 243.4 245 247.3 251 253.8 251.5 248.6 246.9 247.5 246.2 242.3 239.3 237.4 234.5 230.6 226.7 223.1 220.3 215.1 209 208.4 206.7 204.6 201.4 195.7 191.8 190.7 189.9 188.9 189.9 190.3 189.3 186.8 183.3 179.5 174.5 170.3 166.7 162.2 157.2 143 157.2 160.7 163.7 168.9 175.8 185.4 194.8 202.9 205.9 205.6 204.7 208.2 213.6 212.7 212.3 213.6 213 210.5 208.8 208 207.7 207.9 207.8 207.8 209.2 211.5 215.1 222.1 227 224.1 221.9 215.9 213.9 212.8 212.3 210.6 205 202.9 201.5 200.4 201.4 203 204.8 205.4 205.9 206.8 205.8 205.8 208.3 209.1 203.6 199.8 195.8 195.7 195.5 192.2 187.4 188.2 187.3 184.6 183.2 181.9 179.9 179.5 179.3 179.1 181.1 181.9 180.6 179.1 176.4 172.5 170.4 168.3 165.7 162.9 160 160.1 160.3 160.4 160.7 160.9 161.3 162.2 163.2 163.9 164.2 164.3 164.7 164.9 164.8 164.7 164.5 164.3 164.2 164.1 163.6 163 162.5 161.6 160.1 158.1 159.6 159.8 159.8 159.9 159.9 159.9 160.2 159.8 167.9 168.4 168.8 169.1 168.3 168.1 168.4 169.5 172.7 177.4 181.2 193.4 210.7 229 242.8 258.7 272.1 275.8 276.4 275.9
292.4 285.9 284.9 284.8 285.4 287 290.4 288.2 289.1 288.4 288.7 294.9 301.2 300.5 295.1 289.8 289.3 288.8 287.8 286 281.9 275.7 270 265.1 261.8 258.3 251.9 249.1 246.7 246.2 246.5 250.5 254.7 253.8 252.2 251.7 251.3 252.5 250.4 246.5 243 240.2 236.3 230.9 226.8 223.3 217.1 208.8 206.9 205.9 205.5 203.5 201.6 196.1 190.8 189.7 188.6 188.8 190.2 191.1 189.4 186.9 184.3 180.4 175.4 171.2 167.5 162.8 152.2 142.1 158.4 162.6 165.9 171.5 177.5 186.2 193 200.4 200.7 198.3 200.2 205.2 209.1 208.5 209.1 209.9 211 209.8 207.5 207.7 208.1 208.7 208.7 208.6 212.6 220.1 224.7 229.3 233.8 230 225.5 216.6 215.1 212.9 211.3 209.4 204.2 200.7 199 198.7 199.3 201.2 204.1 204.3 204.8 205.8 206.6 208.9 208.9 206.6 204.7 201.8 197.6 195.8 195.9 193.4 189.2 184.9 182 182.4 181.2 180.1 179 178.6 178.4 179.3 181.5 182 179.7 178.7 175.9 171.8 169.6 167.4 165.4 163 160.5 159.8 159.9 160.1 160.6 160.9 161 161.3 162 162.5 163.7 164.1 164.5 164.6 164.5 164.5 164.3 164.1 163.9 163.8 163.3 162.8 162 159.8 159.5 159.1 159 159.5 159.8 159.8 159.9 159.9 159.8 159.5 167.5 168.2 168.6 168.1 167.3 167.3 167.3 170.6 185.5 189.3 198 209.4 228.1 246.6 261.8 268.2 278.9 280.5 279.1 281.7
286.9 284.1 283.9 284.3 285.7 287.2 287.2 285.5 285.6 286.3 291.6 296.3 298.6 295.8 290.6 288.6 287.6 287.1 286.2 284.4 278.8 273 269.1 265.8 263.5 260.7 255.8 252.7 251.6 250.6 253.2 256.4 256.2 255.4 255.4 254.2 255.4 254.6 254.1 250.8 245.9 243.7 238 232.2 228.4 223.2 214.2 207.8 204.8 203.9 204.1 202.3 200.5 196.8 191.6 188.5 187.4 188.4 190.3 191.9 189.6 187.1 184.5 181.2 176.2 172 166.5 146.2 141.5 143 160.4 164.1 168.4 174.3 178.5 184.5 191.5 194.2 192.8 191.8 196.8 201.2 204.1 205.4 206.7 209.8 208.8 207.2 207.8 208.9 209.2 209.2 209.7 214.2 220.3 227.2 230.7 234.3 235.8 231.7 227.7 220.5 215.4 212.8 210.8 209.4 204.7 200 198.4 198.2 198.7 199.4 201.5 202.5 202.3 202.9 204 205.4 204.9 205.2 204.5 199.5 195.6 195.9 195.5 193.5 189 185.6 183.5 181.9 180.4 178.9 177.6 175.8 176.5 178.9 179.8 180.9 180 181.9 176.3 171 168.8 166.8 164.7 162.4 160.4 159.4 159.2 159.4 160 160.6 161 161 161.5 162.5 163.3 163.9 164.3 164.3 164.2 164.2 164.1 163.9 163.7 163.5 162.7 161.7 160 159.5 159 158.8 158.7 159.1 159.5 159.8 159.8 159.8 159.6 159.3 167.1 167.9 168.3 167.6 167.3 167.3 167.3 177.3 190.4 196.4 216.1 223.1 244.9 261.6 270.9 273 281.6 280.1 279.6 288.8
283.2 282 281.4 282.4 283.8 284 282.9 282.2 283.6 287.2 290.3 293.5 294.9 290.6 288.6 286.5 286.3 285.9 284.9 282.2 275.4 272.2 268.8 265.9 263.4 261.2 258.3 256.1 255.4 255.2 258.2 257.3 256.8 256.4 255.8 255.8 256.6 257.9 258 254.6 249.6 246.4 240.6 234.7 230.5 223.5 215.4 209.2 203.4 204.1 204.4 202.5 200.5 196.6 191.8 187.5 187.7 188.2 189.9 192 189.6 187 184 180.2 176.1 170.4 155 139.1 148.4 158.3 162.2 165.5 171.2 173.5 176.2 180.9 184.6 185.4 185.8 188 193.3 196.3 199.6 203.4 206 210 207.1 208.8 210.8 213 214.4 214.4 214.3 219.7 226.7 231.3 234.3 238.4 237.1 233.1 229.2 224 216.3 214.5 211.9 210.2 205.5 201.1 198.4 197.5 197.2 197.8 198.3 199.1 198.8 199.1 199.8 200.5 201.3 201.5 199.9 195.1 195 195.6 196.1 193 189.3 186.4 185 183.6 182.4 180.9 178.5 176.4 174.2 177.6 179.1 180.3 183.2 178.2 173.7 170.1 168 166 164.1 162.3 160.5 159.3 159.2 159.5 160 160.6 160.9 161 161 161.6 162.1 162.8 163.7 163.9 163.9 163.9 163.8 163.7 163.4 163.1 161.4 160.4 159.4 158.7 158.4 158.2 158.3 158.6 159 159.4 159.7 159.6 159.3 159.3 167.4 168 168.4 167.9 167.3 167.3 167.3 184.4 193.3 203.2 227.4 236.5 253.2 261.9 270 276.9 283.2 278.5 281 292.2
280.7 279.4 279.5 280.1 281.4 279.6 278.5 278.8 282 285 287.7 289.5 290 288.4 286.6 286.2 286.7 286.3 284.8 280.2 274 270.4 267.4 265.1 263.5 262.4 261 259.3 258.2 258.4 259.3 257.2 256.6 256.2 258.4 258.2 258.4 259.6 257.7 255.2 252 248 242.5 237.3 231.6 225.9 219.1 209 199.3 205.4 204.6 202.8 200.5 196.8 190.8 186.6 187.4 188.7 190.5 191.9 190 187.2 183.2 179.5 175.5 169.8 145.8 141.9 156.2 161.6 163.6 164.8 166.3 167.9 170.6 175.9 178.1 178.2 180 184.5 189 194.9 199.1 202.6 207.3 209.5 206.8 212.1 214.4 217 219.2 220.3 220.7 225.4 230.4 236.6 242.7 243.3 238.5 234.4 230 224.1 220.5 216.3 213.3 211 206.2 202.2 198.4 197.1 195.9 196.2 196.5 196.1 195.6 194.9 194.5 194.8 195.6 196 194.8 194.3 194.5 196.5 197 196.1 193.2 190.9 187.8 185.7 184.4 182.1 179.6 177 174.5 173.9 176.2 177.7 177.9 174.8 171.6 168.3 166.3 164.8 163.2 161.1 159.4 159.4 159.4 159.7 160.2 160.5 160.6 160.8 160.7 160.5 161.1 161.5 162.2 162.4 162.6 162.8 163 163.3 163.1 162.6 161.5 159.4 158.5 158.1 158.1 158.1 158.1 158.1 158.6 159.2 159.7 159.5 159.2 159.4 165.3 168 168.3 168.2 167.6 167.3 168.6 185.8 194.8 206.4 228.5 245.4 255.9 260.2 268.7 276.9 272.5 270.3 284.5 287.2
276.6 276 276.6 277.5 278.5 277.7 275 276.9 280 282.8 285 287.2 287.1 286.4 286.3 286.9 287.9 287.2 284.4 278 271.9 268.4 266.2 264.2 262.1 260.2 259.4 259.2 257.5 258.1 259.7 257 255.8 256.1 257.1 257.6 258.8 259.3 259.2 255.5 251.7 246.9 241.5 235 230.9 226.1 216.5 201.5 201.3 205.1 200.7 199.3 198.5 192.7 187.8 185.7 188.2 189.2 191.2 192.3 190.8 187 182.1 178.7 174.7 168.1 148.6 141.9 156.5 159.5 159.7 158.7 160.8 163.1 165 169.1 171.8 174.3 178.6 183 188.6 194.5 199.8 205.8 209.7 207.6 199.8 213.2 217.5 219.5 220.3 222.2 225.5 228.7 235.3 241.4 241.4 239.6 238.3 236.5 233.5 228.1 224.8 222.4 215.6 211.6 207.3 203.4 199.4 197.7 197 196.2 195.5 194.4 193.4 193.2 193 192.9 193.1 193.3 193.5 193.8 195.2 197.9 198.9 198.7 196.8 194.8 192.1 189.4 187.6 185 179.9 177.5 175.2 170.5 172.3 173.4 172.8 170.6 168.6 166.9 165 163.5 162 159.8 159.5 159.5 159.4 159.9 160 160.2 160.4 160.7 160.5 159.8 160 160.4 160.8 161.1 161.1 161.2 162 162.4 162.4 162.1 161.3 158.9 158.1 158.1 160 159.3 159 159.2 159 159.6 159.6 159.6 159.3 159.5 163.3 167.1 167.4 167.4 167.6 167.8 169.2 184.6 192.1 203.3 225.9 242.1 246.7 255 260.6 262 259.3 272.6 279.8 283.6
273.1 271.9 272.6 273.3 274.2 273.5 272.4 274.7 278 281 284.1 285.4 285.6 286.3 288.5 291.3 290.6 288.4 284.2 274.6 271.9 269 265.2 263.2 260.2 257.6 256.3 256.7 255 257 257.7 255.5 254.6 254.6 255.4 256.9 258.2 259.9 260.8 256.5 250.3 245.5 240.6 236 230.5 224.4 208.2 195.4 199.7 198.8 196.6 195.2 194.7 188.2 184.1 187.4 189.3 190.9 191.9 192.8 191.9 186.7 181.6 177.7 172.8 168.4 158.4 137.4 143.6 153.5 154.2 153.2 153.6 156.9 161.1 165.1 168.2 171.5 176.6 180.3 190.4 196.6 202.1 206.4 208.8 194.6 194.7 212.4 215.4 218.2 218.4 222.7 227.3 230.8 237.9 241.4 237.8 237.7 238.6 240.2 236.4 230.6 230.1 227.7 221.7 215.1 207.9 204 201.6 200 198.7 198.2 197.5 196.8 195.6 193.9 192.8 192.2 192.3 192.6 192.8 193.2 195.6 198.6 200.5 200.2 198.7 196.8 195.2 193.8 192.7 191.4 184.1 178.1 175.8 171.7 167.7 167.7 167.6 167.2 166.9 165.4 163.6 162 160.8 159.7 159.7 159.6 159.4 159.6 159.8 160 160.3 160.7 160.5 160.3 160.3 160.3 160.4 160.4 160.4 160.4 161.2 161.4 160.7 159.8 159.5 158.3 159.4 159.7 160.5 160.6 160.1 160.5 159.5 159.3 159.6 159.6 159.3 159.6 161.2 165.7 167.3 168.3 167.8 168.2 172.2 178.8 186.1 198.5 215.3 228.5 228.3 240.9 246.4 247.7 252.3 270.3 270.3 277.5
270.2 268.7 269 269.4 269.6 269.6 270.4 272.5 276 279.8 284 286 287.2 289.1 293.1 291.6 289.1 286.1 278.8 273 271.4 268.6 265 260.4 257.7 255.1 253.2 252.5 252 254.4 254.1 252.6 252.6 253.2 254.4 256.5 258.2 261.1 260.8 255.2 248.5 243.2 239.6 233.6 226.3 221.2 200 194.4 194.9 193.5 191.2 191.3 190.6 185.1 186 189.1 190.3 191.8 193.9 196 192.8 185.2 179 176.4 172.4 168.3 163.4 155.5 143.8 137.8 146.2 146 146.6 151.2 156.6 162.1 165.1 169.3 176.7 184.2 192.7 198.5 201.1 202.9 204.3 184.7 202.8 210.3 213 215 216.2 223 228.1 230.5 237.3 237.8 236.2 235.4 238.8 239.1 238.1 235.6 234.7 234.2 227.2 220.7 212.9 207.1 204.3 202.5 201.2 200.4 200 200 198.9 194.9 192.6 192 191.8 191.9 192.4 192.9 195.6 198.4 199.9 199.6 198.7 197.8 197 197.6 199 196.8 189.6 180.3 176.5 172.7 167.2 165.9 165.5 165 164.6 163.5 162.2 160.7 160.1 159.9 159.8 159.6 159.5 159.4 159.6 159.9 160.3 160.7 160.5 160.4 160.1 160.1 160.2 160.2 160.2 160 160.4 160.5 158.6 158.8 159.6 159.4 159.7 160 160.4 160.9 161.1 159.5 159.5 159.5 159.5 159.5 159.5 160 160.8 164.7 168 168.4 167.2 169.7 172.5 175.9 180.9 194.7 209.3 217.4 224.2 234.2 234.8 236 244.5 256.2 260.5 262.6
267.3 266.3 266.3 266.6 266.8 267.8 271.1 275.4 276.6 280.5 284.3 287.3 289.7 289.6 289.5 288.3 285.5 280.4 274 270.9 270.2 268.4 264.3 260.9 256.9 253.3 250 249.2 248.6 249.7 249.5 249.2 250.2 251.4 254 256.3 258.7 260.7 258.4 252 246.2 240.7 238.3 230.9 222.1 212.5 192.4 194.2 190.7 189.6 188.6 187.6 186.6 182 188.2 190.3 189.7 191.4 194.4 194.2 189.4 182.1 178.7 175.6 171.7 168.3 165.1 163.9 156.2 149 134.8 137.7 149.6 154.2 157.8 161 164.6 170.6 178.6 186.3 192.4 194.7 197.3 198.3 187 191.6 202.5 208.6 210.6 211.7 214 220.9 224 227.9 232.9 234.6 234.3 234.3 237.8 239.2 239.1 240.1 240.4 243.3 234.6 226.3 217.4 211.2 207.5 205 204.6 204.7 203.5 201.9 200.6 197 193.5 192.1 191.9 191.6 191.8 193.2 195.6 197.1 198.2 197.8 198.5 198.5 198.4 202.9 203.6 200.5 193.8 185 178.2 173 169.2 166.7 164 163 162.4 161.8 161.2 160.8 160.3 160 159.9 159.7 159.5 159.2 159.5 159.9 160.3 160.7 160.6 160.5 160.3 160 160 159.8 159 157.9 159 158 160.7 160.7 160.4 160 160 160.3 160.7 161 160.8 160.2 159.5 159.5 159.5 159.7 160.1 160.5 161.3 162.7 166.7 166.7 167.6 170 173.5 178.5 187.2 197.6 208 216 224.3 228.9 230.5 234.2 240.4 251.6 254.9 257
265 264 263.8 264.2 265.3 268.5 271.7 275.9 278.5 281.1 284.5 286 286.2 284.9 284.7 284.4 281.7 273.4 270.8 270.2 269.5 267.9 265.3 262 257 253 249.3 247.5 245.6 245.9 246.3 246.7 247.6 248.9 252.4 255.5 257.6 259.6 254.8 249.6 243.6 238.9 235.1 227.4 219.9 209.4 189.1 187.9 187.7 186.5 185.3 183.1 181.3 180.6 183.7 185.6 186.7 188.6 190.1 187 184.8 179.9 178.6 179.6 175.5 172.7 170.7 169.5 160.4 149.9 145.3 133 144.4 152 155.8 159.9 163.4 169 178.6 186.4 188.5 190.9 193.7 191.6 173.8 195.5 200.6 205.5 207.5 209 211.8 219.2 222.1 226.8 230.7 232.8 231.7 234.3 237.3 239.4 240.7 242.5 244.5 247.7 238.4 228.4 219.4 212.9 209.4 208.1 207.7 207.3 205.5 202.9 200.2 197.4 193.8 192.5 191.9 191.6 191.3 192.9 194 195.1 196.2 197.6 199.2 199.9 203.1 207.5 207.8 204.4 198.3 189.7 182.2 175.2 170.4 166.9 164.1 162.6 162.3 162 161.4 161 160.5 160.2 159.9 159.6 159.4 159.2 159 159.3 159.9 160.4 160.7 160.6 160.4 160.1 159.6 157.7 159.4 159.5 159.5 160.3 161.1 161.3 161.3 160.7 160.3 160.6 160.9 161.3 161.6 161.7 161 160 159.5 160.2 160.6 160.9 161.8 162.6 165.2 165.8 167.4 172.2 183.1 194 205.3 214.2 219.1 221.8 225.2 230 232.7 236.6 241.9 249.3 253 256.6
262.7 262.2 262.9 264.8 265.9 269.1 272.4 275.8 278.8 281.3 283.6 280.2 278.9 278.7 278.7 278.4 274.1 267.6 269.3 268.9 268 267.2 265.3 261.7 256.7 250.6 247 245 243.1 243.2 243.8 244.2 245.1 246.6 250.9 254.7 256.4 254.8 250 244.7 240.2 236.5 232.7 226.2 218.5 204.5 191.3 184.2 184.8 183.4 181.5 179.3 178.5 179.1 179.3 180.6 182.3 183.4 184.5 184.5 181.7 178.6 179.6 178.5 177.2 175.3 174.1 172.1 163.2 152.3 144.4 134.2 137.6 148.9 153.5 157.6 162.6 167.9 176.9 183.5 185.3 187.5 185.1 166.7 186.2 193.6 195.9 200.1 203.2 206.9 211 215.7 219.7 227.8 228 229.3 230.3 234 238.2 240.3 242.2 243.8 246 247.2 239.9 230.2 220.7 214.4 211.2 209.6 209.5 209 206.3 201.9 199.9 197.8 194.5 192.6 192.3 192 191.7 191.4 192.5 193.7 195.7 197 198.4 201.2 206.8 211.3 210.9 208.5 202.5 194.1 184.8 176.6 171.6 167.6 164 162.5 162.2 161.9 161.4 160.7 160 160.1 159.8 159.5 159.3 159.1 158.9 158.7 158.7 159.2 159.3 159.3 159.9 159.7 159.5 159.2 159.6 159.8 159.8 160.5 161.2 161.9 162.1 161.6 161 161.1 161.9 162.1 162.1 162.1 161.8 160.8 159.8 160.5 160.5 161.2 162.1 163 166.2 168.6 171.4 179.9 192.1 204.9 215.7 223.4 228.9 231.7 232.6 234.8 239.1 242.3 250.2 252.8 254.8 257.8
260.5 260.8 262.7 264.5 266.7 269.7 272.7 274.5 276.1 276.6 274.1 271 270.1 268.7 267.4 265.2 266.1 264.8 266.2 265.8 266.4 266.5 264.7 261.4 256.8 250.2 244.4 241.9 240.6 239.9 240.9 241.7 242.6 244.8 249.6 254.1 252.9 248.3 243.6 239.6 236.7 235.8 232.7 225.3 214.1 200.9 190 185 180.7 180 178.1 176.3 177 177.6 177.7 179.6 178.9 177.4 177.9 178.5 176.3 177.3 178.4 177.4 176.6 174.3 172.9 170.8 165.4 152.2 145.7 140.1 135.6 145.3 149.8 154.5 160.7 167.2 173.8 179.4 182.9 177.7 159.5 177.7 187 187.6 191 192.4 200.1 204.1 206.9 213.7 218 223 228.8 228.8 231.6 235.7 239.8 241.8 243.8 245.5 245.5 245.1 239.5 232.9 221.6 215.6 213 211.2 210.4 210.1 207.3 203.4 200.4 198.3 194.7 193.4 193.5 194 194.6 194.1 191.2 193 197.6 197.8 198.8 201.4 210 214.5 215.7 212 206.4 198.6 188.5 178.9 173 168.8 164.8 162.4 162.1 161.4 160.3 159.6 159.7 159.8 159.8 159.5 159.2 159.1 158.9 158.7 158.5 158.4 158.7 159 159.5 159.4 157.7 159.9 159.9 159.9 160.2 160.7 161.3 161.9 162.6 162.7 162.4 162.6 162.3 162.2 162.2 162 161.8 161.5 160.5 160.5 161.3 161.7 162.5 166 167.8 171.5 178.9 188.4 203.4 216.9 225.3 231.2 238.7 242.4 242.9 246.1 250.5 254.9 255.5 256.2 258.5 261.2
259.4 261.4 263.3 264.9 267.9 268.1 269 269.4 269.9 267.3 264.3 263.9 260.1 256.7 255.1 255.5 257.6 260.5 262.3 262 263.4 264.3 261.8 258.2 253.6 247.6 242.2 239.3 238.1 236.9 237.2 237.5 239.4 242.4 247.3 250.6 247.5 243 239.8 236.6 233.9 234.6 228.4 220.9 210.7 200.1 189.2 184.2 180.6 178.3 176.2 174.1 175 173.2 173.2 175.5 175.1 175 173.6 171.7 172 173.8 175.1 174.4 172.8 170.4 168.9 166.6 163.9 150.9 145.2 139.7 130.9 142.3 147.8 151.8 155.8 162.6 169.5 174.5 179.8 157.2 173.9 182.2 180.8 181.4 183.2 198.2 202.2 204.2 213.7 217.3 221 226.3 230.3 231.1 233.7 238.6 240.6 242.5 245.2 246 245.4 243.8 239.4 232.6 225.3 219.6 216.4 213.8 213 210.5 207.6 204.6 201.7 199.8 199.2 198.6 199.4 199.5 199.1 197.8 194.6 192.6 197.2 198 199.6 203.9 211.7 216.6 219.2 215.5 209.7 199.4 185 176.7 172.6 167.8 165 162.8 161.5 160.2 159.3 159.4 159.5 159.6 159.7 159.5 159.2 158.8 159.1 159.1 158.9 158.8 159 158.7 157.8 158.8 159.4 160.2 160.3 160.4 160.5 161.3 162 162.8 163.4 163.7 164 163.9 163.1 162.3 162.2 162 161.7 161.5 161.1 160.8 161.1 161.8 165.9 168.6 170.3 175.7 183.7 195.9 212.3 223.2 231.6 241.4 246.7 251.1 253.1 258.9 263 264.9 263.5 262 264.3 268.2
260.2 262.3 264.6 264.9 266.4 265.8 266.3 268.3 265.5 260.4 257.9 255.5 252.5 250.6 248.7 248.4 251.5 254.6 256.7 255.9 261.4 260.3 258.2 255.4 250.6 245.4 240.2 237.5 236.5 234.1 231.1 232 234.6 238.5 243.8 244.3 241.3 239.2 235.7 232.3 230.8 227.6 220.8 215.2 208.3 198.3 189.2 184.5 181.5 176.8 174.8 172.7 171.1 169.7 169.3 169.3 164.1 162.7 158.2 150.3 156.4 167.7 167.7 167.2 164.9 166.9 161.9 157.8 155.1 148.9 143.6 132.6 130.5 141.6 146.1 149.1 152.3 157.2 164.5 170.3 164 160.7 176.4 178.8 174.6 173.3 188 201.3 206.4 212 216.2 219 223 227.2 230.3 231.7 233.2 240.1 239.9 242.4 243.2 243.9 247.1 243.4 239.5 234.1 228.1 223.3 220.3 217.4 215.2 212.8 208.1 205.3 203.7 203.2 203.4 203.4 203.5 202.9 201.5 199.6 196.6 189.9 195.9 197.4 201 207.2 213.5 218 219.4 215 206.6 195.1 180.4 175.4 171.4 167.9 165.5 163 160.7 159.3 159.1 159.1 159.2 159.3 159.4 159.5 159.2 158.5 158.6 158.9 159.2 159.1 157.7 159.1 159.4 159.6 159.8 160 160.5 160.6 161.1 162.5 163.6 163.8 164 164.4 164.8 164.5 163.8 162.4 162.2 161.9 161.7 161.4 161.2 160.9 161.8 164.1 170.2 173.6 175.1 177.6 189.1 202.9 216 226.3 236 242.9 248.7 255.1 262.6 269.1 272.6 271.9 270.8 270.9 275.5 278.9
261.8 263.7 266 265 264.5 262.9 263.2 262.4 260.6 253.5 250.6 249.3 247.5 245.5 244.2 243.8 245.6 247.9 249.6 253 256.8 257.7 256.6 253.3 249 243.6 238.3 234.7 234.9 232.5 229.4 226.7 229.8 234.4 239.4 239.7 236.6 235.3 232.4 226.8 222.9 219.4 215.3 211 205.3 195.8 190.2 184.9 180.7 175.1 173.4 172.1 170.6 170.5 172.9 172.6 173 171.1 167 161 153.6 150 159.4 158.2 160.3 157.4 153.3 149.8 148.9 144.7 132.5 129.8 132.7 137.7 143.2 146.4 149.6 153 159 164.5 148.5 167 170.1 169.4 169.5 179.8 192.9 204 209.7 214.5 218.7 221.3 226.9 231.2 232.1 232.6 235.8 239.9 238.5 238.2 238.8 244.3 244.2 242.4 239.1 232.1 227.4 225.6 223.3 221.6 218.8 215.1 209.8 204.9 202.4 201.3 201.8 202.8 204.5 204.7 202 200.3 198.1 189.4 195.7 197.9 204.7 209.7 215.1 215.5 213.6 210.5 201 191 180.1 175.1 171.3 168.4 166 162.8 159.9 159.2 159.2 159.2 159.1 159.1 159.2 159.3 159.1 158.4 158.2 158.5 158.9 159.1 159 159.2 159.5 159.8 160.1 160.4 160.7 160.9 162.3 163.6 164.2 164.4 164.7 165 165.1 164.8 163.7 162.7 162.4 162.2 161.8 161.3 160.9 161.2 162.9 167.5 174.8 179.8 183.2 186.3 192.1 203.8 214.4 225.9 235 240.2 246.2 260.8 269.4 274.4 274.7 276.3 278.9 281.9 283.7 285.8
265.4 266.3 266.8 263.5 261.4 260.6 260.5 259.6 255 248.1 246.1 244.8 243.4 241.8 240.4 239.8 239.7 240 244.7 249 252.6 254.3 253 250.1 246 241.1 235.1 232 232.5 231.9 229.4 223.7 224.8 228.7 232.8 235.1 232.3 230.3 225.9 219.9 215.7 214.3 209.1 207.2 203 197 191.2 185.9 179.4 173.4 172.9 173.8 174.2 174.5 176.5 176.5 176 174.1 172.2 166.3 157.6 147.5 147.8 151.2 153 148.3 146.9 145.4 136.4 127.9 129 129 130.4 132.8 140.1 144.1 147.6 150.7 154.5 153 154 161.8 161.4 161.9 170.5 179.6 194.1 204.4 211.8 217.7 222.8 225.9 230.1 234.6 233.8 233.6 237.4 238.5 237.9 237.9 239.1 241.3 239.8 236.5 232.4 229.3 228 226.3 224.8 222.4 219.6 215.4 210.7 203.5 200.6 199.7 199.4 200 201.6 204 201.8 200.7 198.4 192.2 195.6 198.1 203.5 207.9 212.1 213.5 211.9 208.5 196.3 185.8 179.7 174.8 171.7 168.9 165.8 162.6 159.5 159.3 159.2 159.2 159.2 159.2 159.2 159.1 159.1 158.4 157.8 158 158.3 158.9 159.1 159.4 159.7 160 160.3 160.6 160.9 161.9 163.2 164.1 164.7 165 165.2 165.3 165.4 164.9 164 163 162.4 161.9 161.5 161.3 160.8 161.2 162.6 171.1 181.7 187.5 192.2 195.3 193.7 201.2 212.7 220.7 227.5 232.1 247.6 257.2 269.9 272.8 276.5 283.4 285.7 288.6 288.8 288.8
263.9 263.6 262.9 262.2 260.9 259.3 258 256.2 248.5 245 243.1 241.4 239.8 238.7 237.7 236.6 235.6 236.2 239.8 243.8 247.4 248.8 248 246 242.5 236.6 229.7 229.7 230.8 231.5 229.5 224.4 217.8 221.3 227.9 229.7 226.6 222.6 218.4 213.4 209.4 206.7 205.2 204.2 199.8 196.3 191.8 184.8 175.6 172.3 177.3 177.5 177 176.8 178 179 178.2 177.4 175.5 166.8 154.4 149.7 140.5 145.3 146.4 144.2 139.7 127.1 125.5 127.1 127.7 129.7 133.7 134.8 134.7 135.8 143.6 141.5 142.7 141.9 154 154.9 154.3 161.8 169.6 179.4 194.1 200.9 210.2 216.7 221.6 225.7 230 234.3 234.3 234.6 239 237.7 237.9 240.6 240 239.2 236.3 233 230.2 229.2 229.6 228.8 227.2 223 218.1 213.4 209.1 203.3 199.1 197.2 196.4 197 199.2 201.8 201.5 200.1 198 193.9 190.5 196.8 201 205.2 208.9 210.1 207.8 200.8 191.1 181.9 177.3 174.4 171.1 168.3 165.6 162.5 159.7 159.3 159.3 159.3 159.2 159.2 159 158.9 158.7 158.2 157.8 157.8 158.1 158.9 159.2 159.5 159.8 160.1 160.4 160.8 161.1 162.4 163.7 164.6 165.2 165.4 165.4 165.4 165.4 165.3 164.9 163.9 163.4 162.6 161.9 161.4 161.3 162.1 166.3 178.2 189.5 195.5 200.4 203.9 205.9 206.6 214.2 220.9 225.6 232.3 245.3 253.7 260.2 271.9 280.2 281.5 284.1 285.5 289.6 285.5
262 261.6 261.2 261.2 259.3 258.9 256 250 244 242.3 240.5 238.2 237.4 236.4 235.3 234.2 232.6 232.6 235 238.6 241.6 242.5 242 240.9 238.6 231.2 227.1 228.2 230.3 231 229.9 226.3 219.7 213.5 219 221.3 219.4 215.5 212.6 207.7 203.4 204.1 203.8 202.8 197.5 193 188.3 179.2 171 176.4 179.1 179.7 178.9 178.1 178.9 179.5 177.1 174.3 167.6 157.5 149.7 146.3 138.8 131.4 137.7 131.6 127 125.3 127.6 128.3 129.7 132.6 135.8 139 140.3 139.1 143.9 143 141.2 141 141.6 146.2 153.7 160.7 166.6 174.9 184.7 193.4 202.7 211.3 217.6 223 229 232.4 232.6 236.6 238.1 236.9 237.6 239.3 239.8 237.8 233.4 230.7 230.1 230.3 231.6 230.9 229.3 225 220.8 214.8 208.6 203.2 198.9 195.6 195.2 195.2 198 200.7 201.2 200 197.6 194.6 187.8 193 197.3 202.3 205.6 203.3 199.5 194.2 186.8 179.7 176.4 173.6 170.7 167.8 165.2 162.3 160 159.3 159.2 159.1 158.9 158.8 158.6 158.5 158.3 157.9 157.8 157.8 158.5 159.1 159.4 159.7 160 160.3 160.6 160.9 161.4 162.8 164.1 165.1 165.2 165.3 165.3 165.4 165.5 165.3 165 164.8 164.1 163.4 162.9 161.7 163.8 164.7 173.4 189.5 201.4 204.1 206.6 208.2 210.6 211.4 214.7 221.1 227.3 232.9 239.1 243 252.5 266.9 274 281.7 286.6 285.5 284.9 281.3
