ncols 200
nrows 86
xllcorner 260000
yllcorner 274500
cellsize 50
21.7 22.4 23.4 22.3 22.8 25.3 26.6 28.3 29.3 29.8 29.6 30.6 31.2 31.8 33.1 34.2 40.2 51.7 68.6 79.7 86.2 76.3 73.6 75.1 68.8 62.7 71.8 86.1 109.4 121.7 129.6 131.9 129.2 119 112.9 104.8 97.5 92.5 90 86.3 81.3 84.2 87.4 86.2 95 98.2 98.2 102.3 105.6 106 105.7 107.3 109.8 110.7 111.3 111.2 110.5 110.1 109.4 107.2 105.2 105.4 106.1 101.6 107.5 108.8 111.2 112.8 114.1 117.5 119.3 121 122.2 122.4 122.5 124.2 120.2 123.8 126.9 129.7 133.1 136.5 141.5 146.6 151.5 157.4 164.3 169.4 172.4 173.1 172.2 171.4 170.9 169.9 169.1 169.2 168.9 169.5 170.4 169.5 168.9 165.9 162.4 162.5 165 167.4 168.6 169.2 170.4 165.5 157.5 154.1 130.3 103 78.6 56.6 41.3 29.6 27.5 25.6 24.2 23.6 24.3 25.4 25.5 26 26.6 27.1 26.7 26.9 27.3 27.3 25.2 26.5 25.8 25.1 32.2 40.2 45.7 49.2 45.5 35.8 36.2 35.4 35 32.4 29 37.2 37.4 37.6 37.5 37.9 38.6 38.7 33.4 35.3 34.9 36.3 39.3 39.6 40 40.1 40.1 41.2 41.5 43.5 58.5 72.9 86.5 95.2 95.5 84.5 73.5 70.7 69.3 71.2 74.6 75.7 73 91.4 106.2 119.5 131.6 145.7 150.2 156.9 167.7 171.4 171.1 173.7 177.3 177.5 176.6 178.2 180.2 183.3 186.1 187 194 211.5
26 26.1 26.5 25.2 23.1 22.5 23.4 24.1 24 25 28.9 26.5 28.5 27.1 28.9 28.9 30.5 38 51.1 55 55.4 53.2 57.2 63.2 57 53.2 60.5 83 113.8 128.4 131.6 135.5 124.3 112.4 104.2 97 90.7 86.1 82.7 80.1 75.6 73.6 74.1 79.4 88.2 94.1 95.5 92.3 93 92.7 90.1 91.8 94.1 92.5 94.1 96.3 96.7 98.1 99.4 99.2 96.8 95 93.4 99.8 100.7 105.2 107.4 108.8 109.9 113.3 116.2 117.6 117.9 117.8 117.8 118.4 116.2 119.7 121.7 124.6 128.6 132.3 134.1 136.2 142.4 149.1 156.5 159.4 159.9 159.2 160.1 162 163.1 162.4 162.5 164.6 164.2 165.6 167.1 168.1 167 165 163.3 165.2 167.5 169.9 172.3 173.5 173.2 171.2 165.6 159.5 147.4 121.7 100.1 82.6 60.5 46.4 33.1 28.6 25.6 25.1 25.8 26 26.2 26.5 27 27.4 27.4 27.3 27.1 26.4 27.6 25.8 25.8 25.6 27.3 34.5 35 35.1 34.7 34.3 34.2 34.3 33.5 30.6 29.2 37.1 37.3 37.3 37.5 37.8 39 39.3 39.2 38.9 37.5 39 39.4 39.6 40 40.5 40.6 45.9 56.9 68.2 80.5 94 108 118.2 118 104 93.1 85.1 79.7 78.9 80.4 83.4 78.8 84.6 101.9 113.4 119.3 124.8 128.7 134.5 140.5 145.8 147.5 150.3 153.7 156 156.2 157.5 161.8 168.7 174.7 175.8 180.5 192.4
32.1 30.7 29.8 27.8 25.7 24.6 24.8 25.3 26.6 28.3 28.9 28.7 28.8 28.8 30.4 32.9 30.8 30.7 35.8 38.2 40.9 43.6 46.7 47.3 45.9 47.1 55.7 74.4 102.1 122.6 128.7 132.9 115.9 101.5 92.5 85.5 81.4 76.7 72.4 69.2 66.3 68.1 67.6 72.2 79.8 84.9 84.6 81.8 82 83 82 84.8 86.8 86.5 87.4 88.1 86.9 88.6 90 92.1 90.4 88.9 93.3 96.4 98.7 101.7 104.4 104.9 107.4 110.6 112.1 112.5 113.4 113.8 113 111.5 110.9 113 115.7 119 123.3 125.4 127.3 131 136.4 142.2 146.5 149 148.9 147.1 151.2 155.5 157.3 156.9 157.9 159.3 159.1 162.5 164.2 164.6 163.7 164.1 164.4 166.1 169.4 170.4 172.7 174.7 174.8 173.2 169.4 165 159.9 147.1 128 106.6 86.5 70.6 51.5 38.9 29.1 26.9 26.6 26.8 26.9 27 27.6 27.6 27.7 26.8 27.4 25.8 25.8 25.8 25.8 25.8 32.2 32.7 32.8 33 33 33.1 32.9 33.3 31.1 29 33.3 37.2 37.2 37.4 37.5 37.9 39.5 39.5 40.8 40.5 39.6 40.1 40.6 41.4 41.6 44 48 57.9 76.7 96.5 104.3 118.2 134.9 148.3 145 128.9 114.9 104.9 97.1 90.6 86.6 88.2 85.7 75.1 96.2 99.3 103.6 103.8 105.8 110.6 116.9 120.5 122.7 124.1 125 132.6 134.8 145.7 151.2 159.2 163.1 162.3 172.5 181.6
43.7 38 33.6 31.6 29.5 27.7 27.3 27.7 28.6 28.9 30.4 31.6 31.2 33 31.8 36.5 36.7 37.6 35.7 31.2 35.3 35.5 37.5 37.9 37.7 40.6 49.5 66.5 92.8 116.5 121.1 120.1 106.3 91 81.9 75.5 72 67.2 64.6 61.7 60 61.8 62.4 66.3 70.7 73.6 72.6 73.1 74.7 74.8 76.9 80.1 82.5 83.9 84.9 85.2 82.7 83.1 84.5 85.2 86.2 88.6 90.6 92.8 95.8 99.2 99.3 101.8 104.6 107 108.2 108.8 109 109.6 109 107.3 104.5 107.4 110.2 113 117.7 118.9 121.4 125.8 130.6 135.9 138 139 139.1 141.8 145.9 149.9 152 152.5 153.6 155.2 157.7 159.7 161 161.6 161.6 162.2 163.4 165.2 168.2 169.5 171.2 173.6 174.7 174 170.9 167.6 165.1 158.9 145.4 127.4 109.3 88.2 76.5 60.4 42.3 33.2 27.9 27.8 27 27.5 27.9 26 26.6 27.5 27.9 25.8 25.8 25.8 25.8 25.8 32.2 31.9 32.2 32.9 32.6 32.6 32.9 30.2 30.1 28.9 37.3 37.5 37.8 39.1 39.6 39.3 40.2 40.8 41.3 41.2 41.9 43.8 48.5 49 49.5 52.7 56.1 70.5 94.5 113.6 124.3 141.8 159.9 169.7 173.9 156.7 141.7 128.4 119.4 111.1 103.6 100.5 95.5 84.5 83.5 87.6 88.2 97.6 103.8 105 107.9 112.8 117.3 121.4 127.5 133.1 136.4 142.2 143.7 142.4 149.3 156.1 163.6 168
53.5 50.3 43.6 38.1 35.8 34 32.1 32 31 31.1 30.7 33.2 34.4 35 35.8 38.1 41.5 46.1 43 38.6 37.1 37.8 37.9 38.1 36.9 36.5 40.2 57.2 79.8 109.9 110.1 108.5 95.5 79.2 71.4 65.8 61.8 59.5 57.3 56.6 57 56.8 56.7 60 63.7 66.3 65.7 67.2 68.6 69.6 70.8 73.5 76.5 79.4 83.2 83.5 81.5 79.1 77.7 78.8 80 83.9 85.1 88.1 92.6 89.5 97.8 101.1 102.2 103.4 104.6 105.2 105.6 105.5 104.4 104 100.6 102.2 105 106.7 108.6 111.1 114.3 119.9 124.6 129.4 132 135 138.2 141.1 143.9 145.8 147.8 149.4 153.3 157.5 159.4 159.9 161.1 161.9 162.3 163 163.8 164.9 167.1 169.5 172 174.7 174.6 172.9 171.8 169.5 167.2 162.5 152.8 139 122 104.5 90.5 77.1 61.2 51.3 40.5 28.9 27.2 27.4 26.3 27.9 27.5 26 26 28 26.9 25.8 28.5 25.8 31.1 31.4 30 31.8 32.1 32.3 31.2 29.4 29.6 28.4 37.3 38.3 39 39.8 40.1 40.3 40.9 41.6 42.5 43.3 45 48.8 52.1 52.4 56.6 60.1 68 75.5 104.9 124.3 137 150.6 167.1 176 192.6 180.9 167.9 158.2 144.7 133.5 125.5 119.1 112.6 104.7 106 108.1 112.2 118.2 124.7 127.9 131 136.5 140 146 152.2 156.4 156.3 159 163.4 165.5 168 170 177.5 185.5
61.1 58.3 48.7 51.4 47.5 44.3 40.5 36.1 33.6 33.3 34.1 36.2 37.1 37.7 38.8 40.5 43.7 50.5 46.6 46.1 43.4 42.9 40.8 42.6 42.3 41.4 37.6 48.1 66.6 95.6 92.4 94.2 81.3 69.4 62.5 58.4 55.5 52.6 51.9 51.2 53 53 52.3 54.9 57.1 62.2 62.1 61.9 62.7 62.7 59.8 62.3 67.6 74.6 78.9 83.5 80.4 68.5 68.8 69.3 71.5 77.5 79.3 82.6 83.2 90.7 94.5 94.9 96.7 99.3 100.9 101.6 102.3 101.9 100.7 101.3 98.8 98.1 99 101.7 104.3 106.6 109.1 113.4 118.4 123.3 127.3 131.6 134.7 136.7 141.1 145.4 148 151 154.6 157.3 159.9 160.6 161.7 162.9 163.1 163.6 164.3 165.3 167.7 169.5 172.7 175 175.5 173.8 172.7 170.8 169.7 165.9 159.3 146 131.7 115.2 101.4 92.3 80.4 73.1 58.6 41.8 31.3 27.3 26.6 26.3 27.3 26.3 26 26 28.2 28.3 28.6 28.3 31.5 30 27.2 27.2 31.2 32.4 29.1 29.1 29 33.1 38.3 39.5 40 40.5 41.2 41.9 41.1 42.8 44.1 46.9 50.9 54.5 59.5 67.3 73.7 80.6 90.9 91.7 112.2 137.5 146.9 157.6 169.3 182.3 194.2 199.8 195.2 188.5 174.3 160.6 149.5 145 136.9 134.1 134.3 136.4 139.2 144.2 149.8 152.6 156.8 161.6 166.2 170.5 175.6 179.1 179.4 181.2 185 185.3 184.7 186.4 194 201.9
68.2 65.3 61.8 59.9 58 57.3 52.8 47.8 39.3 40 38.5 42.2 41.5 41.4 42 43.8 51.8 53 52.7 59.5 51.7 47.1 45.4 46 46.7 45.7 40.5 40.4 63.2 75.2 71.7 68.9 63.8 56.7 54.7 52.1 48.9 47.5 47.5 47.9 48.9 50.1 50.5 51.8 54.6 57.4 58.1 58 58.1 59.2 58.8 59.6 59 63.7 71.5 78 68.9 76.2 76.6 75.6 73.5 72.2 74.6 77.1 79.6 86 89.4 90.4 92.7 96.1 97.8 98.4 98.9 98.6 98.1 97.1 96.2 95 95.3 98.1 100.9 102.6 105.7 109.4 113.9 118 122.6 125.9 131 137.3 142.5 146.3 149.6 152.9 155.4 157.5 159.7 160.8 161.8 163.5 163.6 164.1 164.6 166.7 169.3 170.1 172.1 174.6 175.2 175.3 174.7 173.5 171.9 168.1 163.6 153.8 140.2 123.3 110.6 101.4 93.1 87.2 74.3 60.3 47.9 32.1 27.4 26.5 27.8 27.8 26 27.8 28.9 28.6 28.9 29 29.4 28.4 27.2 27.2 27.7 29.3 28.8 29.3 27.6 39.9 40.8 42 42.8 43.2 43.2 43.3 44 45.2 47.1 51.4 58.9 67.1 78.4 93 103.4 110.1 119.8 125.2 121.5 147.6 153.7 162.3 174.9 183.3 190.1 201.7 213.2 212.5 205.3 193.2 181.1 171.3 164.1 165.4 165.2 165.8 169.2 173.7 178.3 182 185.9 189.1 195.1 197.5 200.4 203.8 202.8 203.4 206.2 207.8 206 209.2 215.6 220.6
76.2 69.9 66.7 65.1 64 65.4 63.5 61.5 61.4 62.1 61.3 56.9 50.3 46.6 47.4 59 65.4 59 62.2 68.9 61.8 54.9 51.4 49.4 49.5 48.2 45.5 39.8 46.5 51.6 50.4 49.8 48.6 47.4 47.8 47.7 46.5 45.8 46 46.2 47 48 48.4 50.4 52 53 53.9 54.8 55.4 57.4 60.9 64.4 68.3 70.5 65.6 68.8 74.7 81.8 81.6 80.7 82.2 79.5 81.9 84.1 88.6 85.4 84 87.5 91 93.1 94.9 95.6 95.7 95.5 95.4 93.6 93.5 92.7 93 94.6 97.7 98.6 101.6 105.4 110.7 112.5 117.4 123.9 129.7 135.3 140.5 144.8 149.5 153 155.2 157.4 159.8 160.8 161.8 162.9 163.8 164.4 165.4 167.2 169.2 170.1 172 175.1 177.1 176.7 178 176.9 175 171.7 167.5 160 149.5 136.9 121.1 109.4 100.5 93.3 84.9 73.3 57.9 45.7 37.5 28.5 26.5 28 27.2 27.2 27.3 29.1 27.6 28.7 27.2 27.2 27.2 30.6 28.5 28.7 29.1 29.2 28.2 40.4 42.4 44.7 45.3 46.2 46.4 46.4 47.7 48.8 52.8 59.9 70.3 87.4 104.4 117.1 128.3 142.6 150.5 150.7 144.8 144.2 152.1 162.7 174.2 182.6 189 197.8 210.1 219.3 221.9 221 209.3 197.9 195.6 197.5 198 198.6 204.3 209.4 213.4 214.1 216.5 217.2 219.6 223.7 227.3 226.4 225.8 226.8 229 229.9 227.5 230.2 233.7 240.2
80.6 76.7 72.2 69.6 68.4 68.3 67.9 69.2 69.6 70.3 68.6 61.1 55.8 52.5 52.2 66.1 66.5 62.1 66.4 69.7 67.4 62.2 56.1 54.3 52.5 50.3 47.1 45.5 40.2 41.4 41.9 41.9 42 43.1 44.5 44.6 44.4 45.7 46 46 46 46.3 47.3 49.8 51.8 52.4 53.5 54.5 56.4 58.4 62.8 68.5 75.8 80.5 78.6 81.3 85.7 84.7 86.8 87.5 90.5 94.1 94.6 91.2 92.8 91.9 88.5 88.6 89.4 89.4 90.4 92.4 92.8 91.9 90.6 90.6 91 91.2 92.5 93.6 94.7 96.5 99.4 102.2 105.5 108.8 113 120.7 127.2 133 138.3 142.8 147.4 151.7 154.3 156.7 159.2 160.6 161.4 162.5 163.8 164.6 165.5 166.2 168.5 170 171.9 176.2 178.6 178.1 179.1 177.7 175.2 173.6 169.7 165.8 158 146.8 136.5 122.2 108.3 96.3 86.7 77.9 60.9 50.7 41.1 34.5 29.3 28.4 27.9 27.2 27.2 27.2 27.2 27.2 27.2 27.2 27.2 27.7 28.1 27.4 28.9 28.6 35.4 42 44 46.3 47.8 48.7 49.5 49.6 51.2 54.5 60.5 69.7 83.8 104.1 122.9 136.9 148.2 158.8 171.7 174.2 169.3 165.7 166.7 167.4 171.3 179.2 185.7 196.3 209 220.6 228.6 230.6 230.8 225.6 225.3 228 233.1 233.7 239 241.3 243.5 242.7 241.7 241.8 238.7 239.9 242.2 241.2 241.2 242.8 243.3 245.3 246.7 247.4 254.5 262.6
88.6 82.8 79.5 76.7 74.3 74 73.8 74.8 75 74.1 71.1 64.1 60 58 59.6 62.9 68.7 69.3 70.4 71.2 69.8 67.5 62.3 58.2 55.7 52.1 49.3 47.7 44.6 41.9 41.9 41.9 41.9 42.6 43.2 43.3 44.2 44.8 46.1 46.2 46.2 46.6 47.6 50.6 53.4 52.7 54 56.1 59.5 60.5 64.7 70.5 80.5 88.5 91.8 88.9 89.9 90.7 91.4 93.3 104.3 112.1 109.8 102.4 99.5 97.5 96 94.6 91 88.9 88.5 88.1 88.3 88.8 89.6 90.2 91 91.7 93 94 94.6 95.3 98.4 101.1 103 105.8 110.1 117.2 123.8 130.4 135.8 140 144.6 149.2 152.3 154.6 156.9 160.2 161 161.9 163.5 163.9 164.8 167.7 168.1 169.5 173 175.3 177.4 179.2 178.2 176.9 175.5 174.8 173 169.8 163.8 153.7 146.7 137.4 119 102.3 87 75.2 62.9 51.2 49.2 42.4 34.9 34.8 28.9 27.8 29 27.2 27.2 27.2 27.2 27 27.8 28.6 28.9 29.4 27.3 35.6 43.4 44.2 45.7 48.5 50.3 51.2 52.1 51.8 53.8 59.8 66.9 77.9 92.8 114.1 134.9 153.2 163.9 176.7 187.1 189.6 188.5 186.4 187.5 188.6 191.8 194.9 200.3 205.4 210.2 223.5 233 238.2 243.8 243.3 247.3 251.5 256.7 258 257.8 256.3 257.3 258.4 257.9 256.5 257.2 254.3 254.4 257.1 259 258.6 259.1 260.4 264.7 264.1 269.3 279.3
92.1 92.2 88 86.2 83.7 82 81.1 80.3 79.3 78.1 73 68.5 65.7 62.9 66.7 71.5 72 72.7 73.7 73.2 72.6 70.7 66.2 60.7 57.2 54.2 51.9 49.8 44.8 42.1 41.9 46.4 45.3 43.4 44.6 44.8 46 46.3 46.2 46.4 46.8 47.4 49.4 52.5 57.8 56 56.5 61 64.8 66 68.9 76 89.8 98.7 102 100.8 103.5 103.5 100.1 107.9 117.9 125.2 124.9 115.1 111.6 106.1 103.9 104 101.9 98.1 96.2 91.8 91.6 91.2 91.4 92 92 92.9 94.7 96.4 95.5 94.6 97.5 99.3 101.2 103.1 108 114 121.1 128 132.5 137.2 141.8 146.3 149.9 152.6 154.7 157 158.6 159.7 161.4 162 162.8 164.5 166.3 167.8 169.7 171.7 173.6 175 174.9 173.9 174.5 174.3 173.7 172 165.5 158.8 152.3 142.1 126.2 107.3 91.9 78 66.6 62.1 55.3 47.7 41.3 38.5 36.5 29.2 28.1 28.2 28.2 28.3 28.6 27 28.2 28.9 32.3 42.2 45.5 45.4 45.3 46 48.7 51.8 53.3 54.1 54.8 55.3 57.8 64.5 72 82.3 97 120.5 138 157 170.5 178.7 187.3 195 199.6 202.1 203.8 203.7 204.5 209.6 214.9 219.8 218.4 226.2 235.8 244.2 250.2 253.3 254.7 259.5 263.6 266.4 266.9 267.4 268.5 268.8 268.1 267.1 266.8 265.6 265.2 271.2 273.6 273.9 274.3 274.7 277.6 280.6 283.6 290.6
100.7 102.1 99.8 98.5 96.8 93.4 90.9 89.3 86.1 82.7 77.5 74 70 69.7 72.6 77.4 76 76.3 76.3 76.3 76.2 73.9 69.7 67.6 62 58.2 54.8 52.3 48.7 47.4 46.2 48.4 47.3 45.3 45.6 46.3 48.3 48.5 48.9 50.3 50.1 50.1 52.6 59.4 70 63.4 59.6 68.2 71.6 72.7 74.4 82.1 94.3 104 109.6 110 113.3 122.4 120.6 119.7 126.9 130.7 131.1 126.3 124.7 119 118.4 119.9 117.5 120.2 113.3 107.2 101.1 96.5 95.1 94.4 94.4 94.4 97.3 99 98.5 97.6 96.6 96.9 98.6 101 104.4 110.9 117.4 122.6 127.6 132.7 138.1 143.3 145.5 147.8 150.3 151.8 154.1 154.3 155.8 158.1 160 161.5 163.3 164.9 166.8 168.6 170.4 172.5 172.2 171.4 172.4 174 173.7 174.1 170.1 163.1 155.7 143.2 119.3 103.1 86.3 82.6 79.6 66.8 59.2 54.5 54 46.9 43.3 38.3 31 29.7 26.6 26.7 34.1 35.6 34.5 33.5 45.9 50.2 50.9 49 48.3 50.5 53.4 54.3 56.2 57.3 58.3 59.4 62.9 71.4 80 90.8 103.9 120.7 136.5 150.8 157.5 164.8 172.3 179.5 187.4 196 202.2 206.8 211.2 218 224.1 231.5 234.9 233.6 237.1 248 254.1 254.9 259.6 265.3 271.3 275.2 278.2 277.1 275.5 274.9 273.6 273 273.3 273.7 274.5 280.8 280.6 279.6 279.4 281.5 282.7 286.9 292.1 296.3
105.6 108.6 110.8 111.9 110.3 109.6 107.9 105 100.2 96.2 83.1 79.3 74.7 74.4 78.3 82.3 80.7 80.6 81.2 80.4 80.1 79.3 76.9 75.5 73 69.9 62 58.5 54.9 54.5 54 54.2 51.1 48.6 48.5 49 51.4 52.9 57.3 58 55.9 56.4 60.5 70.4 81.4 73.4 59.9 71.7 77 79.2 81.7 87.8 98.4 108.9 118.4 118.4 121.6 131.2 132.5 131.1 134 136.8 136.3 135.2 135.8 135.7 136.4 134.7 132.1 134.4 130.6 124.1 119.9 113.1 103.9 101 99.5 98.6 100.3 101.4 101.2 100.6 98.4 98.6 98.9 98.9 102 105.6 111.6 117.4 120.8 127 132.4 137.1 140.4 141.6 142.5 143.5 147 147.8 149.5 151.7 153.8 157.6 160.5 162 163.6 164.7 167.3 170.2 170.5 171.1 171.6 173 174.6 175.6 173.8 167.4 157 137.9 114.7 96.7 94.7 96.3 90.5 79 75.1 67 63.5 54.6 47.4 45.1 43.6 44.8 39.5 44.3 47.5 50.2 51.8 52.1 59 62.1 61.9 62.2 60.6 59.4 58.3 59.3 60.9 62 62.6 64.2 70.2 79.5 88.5 97.8 107.1 118.3 131.6 139 146 153.4 160.1 166.1 170 179.1 187.9 196.6 208.2 216.1 225.9 235.6 241.8 243.6 243.9 250.7 251.6 255.1 261.4 267.8 271.9 277.2 280 278.6 275 272.3 269.9 270.9 271.1 272.1 275.9 278.8 277.5 275.3 275.4 279 280.5 283.1 287.6 289.9
111.6 113.9 119.5 122.5 120.7 119 119.4 120.5 112.6 103.7 93.5 85.6 85.2 86.2 87.5 87.4 86.1 86.7 87.7 87.6 87.2 87 84.6 82.3 79.7 76.6 73.5 70.4 63.7 62.8 61.7 61.3 56.4 53.8 56.4 55.4 58.4 59.8 64 63.8 63.7 66.1 70.1 82.8 86.9 79.6 68.9 70.2 79.6 83.3 88.8 94.2 104.8 113.8 120.6 122.9 127.2 132.6 136.6 137 140 142.9 144 142.9 142.7 145.3 143.7 141.4 139.4 138.9 138.1 137.6 137.7 132.2 121.2 113.3 108 106.1 104.9 104.2 104.8 106.2 106.4 104.7 101.8 99.4 99.9 101.8 106.8 110.7 114.5 121.4 126.2 130.3 132.7 133.8 135.1 136.5 138.4 140.3 143.2 145.4 147.9 151.7 155.3 159.2 159.7 161.3 164.2 167.5 169.5 171 172.4 174.1 175.7 176.7 173.9 167.4 154 133.1 112 101.6 108.6 110.4 106.9 102.5 92 82 70 61.3 55.5 51.1 48.4 48.9 49.3 50.4 58.4 68.7 77.8 76.4 76.7 77 74.9 76.2 78.2 76.9 71.9 68.2 68.5 70 72.9 71.4 69.8 79.3 85.3 93.7 103.4 113.4 121.3 125.2 135.2 140.1 150 160.7 170.8 179.5 187.7 197.6 208.2 216.6 225.3 236.5 246.2 251 253.8 254.9 255.7 259.4 265.6 269.7 272.7 277.4 277 273.6 267.7 261.8 261.1 262 263.7 265.1 270.4 270.8 268.4 266.9 267 266.5 266.2 268.1 274 276.9
117 120.5 125 129.9 129.2 128.7 131.1 133.6 125.6 111.9 103.1 97 99 98.5 98.3 95.4 94.7 94.3 97.9 97.7 95.1 90.7 91 91 88.4 84.8 85.3 84.1 80.1 76.6 70.1 66.6 63.3 62 64.2 64.3 65.4 66.9 70 69.5 69.9 73 79.8 93.7 90.7 82.3 76.7 69.5 78.2 86.3 90.3 98.7 106.5 112.6 117.6 123.1 130.4 134.2 138.1 140.5 144.6 148.1 147.2 145.4 145.8 147.4 146.6 146.2 144.8 144.3 144.9 145.8 145.5 142.2 134.5 126.2 120.7 118.8 115.8 114.4 110.8 111.7 117.3 113.8 107 103.1 101.7 101.9 103.4 106.9 110.2 115 118.3 121.4 124.5 126.3 128.1 130.3 131.8 133.8 137.3 138.8 141.3 145.6 149.7 152.5 155.6 159 162.5 167.1 170.2 170.4 173 175.3 176.2 173.1 170.9 163.9 151.6 132.6 118.6 109.7 119.2 126.1 125.9 121.5 115.1 101.2 92 77.8 68.7 60.1 52.9 56.1 58.9 64.4 73.3 86 92.2 95.8 96.7 97.4 92.5 96.6 96.8 94.7 88.1 81.5 77.5 79 83.9 85.4 88.7 91.2 91.1 98.2 108.6 114.9 123.8 134.4 143.9 155.1 168.3 180.2 192.7 201.1 206.6 212.3 219.9 228.4 235.1 243.4 256.2 261.6 261.1 261.1 262.1 265.2 268.9 272 277.2 275.9 268 257.9 246.1 240.4 240.8 243.6 246 248.2 251.1 255.6 255.2 256.4 259.1 258.5 256.7 256.6 257.4 257.4
119.9 123.2 129.7 134.5 135.5 138.6 141.6 142 136.9 122 113.6 110 111 111.3 106.7 101.6 104.9 107.4 110.7 108.1 99 100.4 99.6 99.4 98 94.3 94 95.2 93.4 90.2 87 79.6 75 73.7 72.2 72.6 72.2 73.8 76 76.6 77 80.8 88.1 97.7 98.1 86.7 84.1 76.3 71.2 82.4 88.7 96.9 104.5 109.9 114.3 119.9 128.8 134.4 139.7 142.3 144.9 146.5 147.7 147.8 149 148.6 147.9 148 148.8 148.5 150.4 151 152 146.9 141.5 135.2 131.9 132.4 128.7 123.7 120.2 119.1 121.7 119.2 111.4 107.8 103.7 103 103.5 104.8 106.7 110.9 114.5 118.6 118.8 119 120.2 123.3 124 128.6 131.3 132.3 135.2 138.8 143.2 147.2 150.4 154.3 159 165.2 170.3 171 173.1 175.7 176.1 172.3 168.1 162.7 153.1 135.3 132.7 122.1 135.2 143.1 141.3 137.4 134.9 124.6 113.3 93.4 84.6 74.9 64.4 62.4 66.2 76.4 89.3 100.8 106.9 111.5 112.6 109.9 109.8 117 112.8 109.1 104.7 99.1 92.7 90.3 93.3 96.5 99.2 100.4 103.4 108.3 114.9 124.9 134.1 143.3 153.3 167.1 180.1 192.8 204.8 213.4 221 227.4 233.9 239.5 247.4 256.4 262.7 261.8 261.6 262.5 264.2 266.2 269.8 273.1 272.5 265.7 252 236.7 224.9 221.1 222.1 225 228.1 230.5 234.5 238 239.2 243.1 248.5 250.6 246.5 243.6 243.5 248
122.9 127.7 134.8 140.4 144.5 149.2 150.6 148.8 147.2 140.6 127.6 118.2 120.1 120 113 109.3 111.5 116.6 120 114.8 108.9 110.8 110.4 108.2 107.7 105.5 105.2 108 106.2 102.4 99.5 95.3 90.7 85 83.1 79.1 79.6 81.8 82.6 85.1 89.4 93 96.4 100.5 100.6 98.1 90.3 83.1 82.4 78.8 85.8 93.8 99.8 106.2 110.8 117.1 124.8 132.9 140.4 141.9 144.8 146.4 147.5 149.5 150.8 149.7 149.7 148.8 149.9 151.4 152.5 154 154.2 148.5 144.6 141.9 139.2 140.3 138.9 132.5 128.6 126.4 127.1 126.4 120.6 112 108.1 105.9 105.2 105.3 106 106.9 108.9 111.1 114.8 114.4 115 116.9 119.9 119.8 126.7 127.7 130.8 134.8 139.5 141.6 145.7 150.4 156.9 162.6 166.9 169 170.9 173.3 174.7 170.6 168.4 164.6 154.1 148.4 142.9 134.1 150.7 154.8 154.2 151.5 149.8 138.3 125.6 109.9 100.1 91.2 85.3 75.4 81.4 94.1 103 113.5 119.7 123.8 123.4 123.2 122.7 129.3 128.7 127.3 124.6 119.6 114.8 111.8 111.6 112.6 113.9 113.9 115.2 120.2 126.7 135 143.5 152.6 163.9 177.8 191.4 204.2 213.6 222.8 229.9 236.6 242.2 248.6 253 259 259.2 258.5 259.2 264.3 264.4 260.8 263.2 262.3 254.9 245.1 234.6 219.6 211.7 210.5 210 211 212.5 214.6 218 221 225 229 231.4 233.9 234.8 241.6 246.8 251.9
126.1 131.3 141.1 146.9 156.2 160.8 157.6 155.8 155.4 149.5 136 126.9 130.3 126 120.5 116.5 116.8 120.3 124.2 120.4 115.8 117.6 116.4 115.6 116.2 115.6 118.4 121.6 119.2 115.5 110.8 105.4 103.2 100.8 96.5 89.6 88.3 92.9 96.2 95.1 98.9 101.5 104.7 105.8 103.7 102.4 94.8 90.9 91.1 84.3 85.9 88.8 93.2 99.8 106.8 113.4 120 127.6 135 139.6 143.4 145.9 146.8 148.5 149.7 149.8 149.7 148.2 148.3 150.3 152.6 153.7 152.8 148.3 146.3 144.7 143.9 145.4 142.5 138.7 136.2 133.7 133.4 136 130.1 121.4 113.8 109.8 107.3 107.1 110 112.3 114.9 113.8 115.5 117.3 119.9 121.9 123.7 125.5 125.8 127.7 130.9 129.6 133.9 139.7 143.2 147.9 152.4 157.6 161.6 163.3 166.8 167.9 169.5 169.6 168.2 165.1 162.4 156.8 147.4 150.7 160.9 164.7 163.6 162.6 161.8 151.1 139.9 128.9 119.7 113.7 102.2 99 97.8 106.3 115.9 124.1 130.6 133.8 134.8 135.5 135.3 139.3 144.3 144 142.3 138.6 135.4 134.4 133.3 134.9 134.4 133.5 132.2 134.2 138.4 143.7 150.4 159.5 172.4 187.4 202.2 211.8 221.2 229.4 237.5 244.6 249 250.9 249.9 250.9 251.2 251 252.6 257.9 253.5 248 245.5 239.4 232.9 225.3 218.1 207 204.7 204.3 207.4 212.8 216 219.3 224.3 227.1 229.4 233.2 236.5 240.7 242.9 249.7 256.8 257.4
129.2 136.2 147.2 154.5 165.7 167.9 166.1 161 159.6 154.1 143.2 137.7 141.4 134.8 127.3 123.8 122.3 125.7 128.5 121.5 122.3 124.9 123.4 123.8 123.9 127.1 129.7 131.3 129.3 123.6 118.4 113.9 111.4 107.5 104.1 101 99.8 100.9 103.8 105.1 106.5 109.6 112.4 111.6 110.3 107.9 106.3 105.8 103.8 95.9 89.4 92.9 88.9 92.3 100.5 105.7 111.7 118.9 128 133 138.7 141.3 144.3 146.3 147.5 147.6 148 147.4 146.8 149.2 151.5 153.1 151.3 147.6 146.2 145.7 145.6 147 145.4 143.5 142.5 138.1 136.4 140 136.5 133 124.3 116.9 114.1 110.3 112.7 117.6 119.4 121.4 123.8 125.3 127.6 129.3 129.6 131.6 132.2 133.6 135.3 135.8 131.4 140 143.3 147.3 149.1 152.9 156.8 159.4 160.8 161.8 165.2 166.9 167.6 166.9 166 163.3 162.1 164.7 168.3 170.2 171.3 172.1 171.9 162 155 146.7 134.6 129.3 121.5 116.2 113.2 115.9 123.6 131.4 136.5 142.5 144.5 146.1 146.8 149.8 155.4 157.9 158.8 155.3 152.6 153 152.8 152 150.6 148.5 146.2 148.5 149.9 153 158.6 168.3 179.6 194.3 207.5 217.5 225.9 233.9 236.5 238.7 234.2 232.4 232.9 233.1 235.3 237.3 239.2 240.1 233.7 225.8 222.2 217.7 212 207.1 201.9 201.3 201.9 209.5 218.6 227.7 233.8 237.3 238.6 241.7 240.8 247.9 256.5 262.5 261.1 262.4 264 266
131.2 139.1 148.2 161.1 172.6 171.7 169.4 164.8 162.7 155 147.3 146.3 149.3 138.1 132.6 129.1 128.2 132.1 132.8 126.9 129.2 131.6 130.8 130.2 131.7 135.5 138.2 137.4 134.3 130.4 126 122.2 118.4 114.4 111.4 109.4 107.1 108.1 110 111.4 114.8 118.1 119.7 119.2 117.3 115.4 114.4 114 109.4 103.5 99.5 102.2 94 90 94.7 99.6 103.7 109.2 117.7 126.2 131.2 136.9 141.1 143.2 144.3 144.8 145.4 145 145.1 147.6 149.2 150.5 149.2 146.7 145.5 145.1 146.8 148.7 147.4 146.4 145.9 143.8 141.6 142.5 142.1 138.9 137.2 129.7 123.8 118.4 115.7 118.4 123.9 128.4 131.1 134 135.6 134.5 135.2 137.3 138.4 140.5 142.3 142.2 140.2 139.2 139.3 141.8 148.8 151.8 154.8 156.3 157.1 159.3 160.4 163.3 165.4 167.4 167.9 167.8 167.9 171 174.5 176.2 177.3 179 180.7 175.7 168.8 160.5 153 149.7 141.5 134.2 128.6 125.5 130 137.9 144.9 150.3 157.2 161 162.9 163.8 165.8 168 172.9 171.1 168.5 169.1 170.4 171 169.4 165.2 160.8 162.2 163.8 165 171.2 178.6 188 199.5 212.3 218.4 225.7 223.2 222 218.3 215 213 211.7 214.3 216.8 219.1 220.4 218.9 212.7 205 201.1 199.3 197.1 196.4 196.4 200.2 208.8 220.2 234.4 242.3 249.8 253.4 254.2 259.1 259.6 266.3 273.3 273.8 273.4 273.2 278 278.5
134.9 144.8 153.9 165.2 176.1 174.2 170.8 166.5 164.2 155.5 151.3 152.7 150.4 142.7 137.5 131.6 133.1 138.5 136.2 132.4 136 137.1 136.8 137.2 139.3 143.9 146.1 144.9 141.2 136.7 132.4 128.2 124.1 120.1 117.4 116.5 113.5 113.8 116.9 119.2 121.7 125.4 126.6 127.2 127.3 124.4 119.9 117.5 113.2 109.7 101.6 107.7 101.4 100.9 96.7 92.9 97.9 102.9 109.4 117.7 124.6 130.4 136.3 137.9 139.3 141.9 142.4 142.4 142.9 145.2 146 147.3 146.9 145.7 145.2 144.9 146.4 147.9 148.9 148.9 148.6 148.9 146.8 147.1 149.5 146.3 144.5 140.2 134.1 124.4 121.2 120.6 127.8 132 135.1 139.2 139.7 139.2 140.1 142.4 144.6 146.3 147.5 146.5 144.2 144.2 145 146.7 150.4 150 151.7 154.7 156.3 158.3 159.6 160.8 163.3 165.6 169.8 171.4 172.7 174.5 177.3 180.6 183 187.1 189.3 184.8 180.7 176 169.7 165.2 161.8 152.2 143 140.4 141.3 144.6 153.3 160.5 168 174.4 177.4 178.7 179.5 180.3 181.9 183.1 185.1 184.2 184.2 183.6 183.4 179.3 174.4 173.9 174.4 177.6 180.9 188.8 195.3 205.2 213.7 213.3 214.6 207.6 202 198.2 195.1 192.6 192.8 195.5 198.2 200.3 200.9 198.8 195.7 193 193.1 192.9 194.3 196.4 199.8 205.6 217.5 230.9 243.4 253.3 258.5 263.8 264.4 268.7 272.3 279.4 281.2 280.1 282.5 283.7 288 288.9
142.3 155.5 160.4 169.3 179.7 172.9 167 164.4 161.9 156.8 155.6 156.4 153.7 149.7 144.6 138.4 139.7 143.4 139.1 141.4 141.9 142.2 142.3 144.3 147.2 150.2 151.7 150.3 146.4 142.2 137.8 133.7 129.7 125.7 123.4 123.4 120.3 120.2 124.2 126.5 129 132.2 131.7 135.1 139.3 139.1 133.9 124.8 120.1 115.5 111.7 112.3 110.2 108.5 103.8 98.6 95.9 98 103.4 109.3 116.3 125.7 130 130.3 132.3 135.4 139.2 139.3 140.7 142.7 142.9 144.3 144.2 144.6 144.3 143.9 145.7 147.3 148.7 150.6 150.9 151 150.9 152.1 154.7 154 153.7 149.2 142.5 132.1 127.9 126.8 130.9 135.1 139.6 142.3 143.7 145.2 145.8 147.6 149.8 151.1 151.2 150.6 149 149.4 150.8 152.6 153.8 154.9 156.8 158 158.1 159.9 163.8 164.4 166.7 169 171.3 172.8 174.7 177.3 179.5 182.9 189.3 194.4 196.3 195 191.2 187.2 185.2 182.2 178.3 174.5 163.6 159.1 162.6 159.8 162.3 170 177.6 185.9 189.5 191.4 192.6 194.1 194.6 193.4 194.8 196.4 196.8 195.8 194.8 190.7 187.5 186.3 185.3 185.8 188 194.7 200 199.2 197.5 197.2 192.8 187.2 184.4 183.7 182.9 183.4 184.7 184.6 185.9 187.9 188.4 188.2 189 189.2 190 192.5 195.8 197.9 200.4 206.5 217.3 229.9 242.3 251.8 262.4 270.2 274.8 278.6 282.3 284.6 285.1 285.3 288.5 289.8 295.7 296.4
151.1 158.3 162.5 169.7 177.7 174.1 164.8 162.8 160.9 157.8 157 158.9 157.8 154.9 152 146.4 149.4 148.1 145.2 146.8 147 146.5 148.4 151.2 153.3 155.1 156.8 155.7 151.1 147 142.9 138 134 130.7 128.5 129 128 128.9 131.8 134 136.3 139.6 141.1 145.6 146.3 144.5 142.3 135.8 127.2 121.1 117.5 118.8 119.7 119.8 109 103.9 100.1 97.5 98.5 103.8 108.4 116.9 121 122.8 126 129.6 133 135.2 137.4 140.6 141.3 142 142.4 142.6 142.4 142.3 144 146 148.6 150.1 151.3 151.1 152.1 157.6 158.4 158 159.2 156.8 149.4 141.1 134.5 133.5 133.6 137.7 142.8 145.4 147 148.8 149.7 151.6 153.6 155.2 156.2 156.4 156 154.8 155.4 157.3 158.8 160.5 164.7 169.5 169 170.6 171.3 169.8 170.1 171.7 173.3 175.6 178.3 181.4 183.9 190.3 194.8 199.2 201.9 201.7 200.7 199.7 198.3 195.4 192.8 191 183.2 175.8 176.5 177.4 173.4 180.4 189.3 197 200.9 203.2 205.6 207.3 204.5 201.7 201.6 203.8 207 206 203.8 201.1 198.8 196.3 192.5 190.6 193.1 192.9 187.6 184.6 182.7 181.2 179.3 176.3 175.6 176.7 177.9 178.9 180 181.5 183 184.7 185.5 185.7 188.1 191.4 195.2 195.4 200.7 201.5 202.4 204.1 208.9 217.1 229 242.8 255.2 268.6 277.6 282.1 284.2 286.2 287.6 289.6 293.2 296.8 299.1 300.6
159.8 161.1 161 168.5 176.1 172.3 163 161.5 162.6 158.5 157.9 160.6 165.1 159.2 156.2 153.5 154.4 151.9 151.4 152.5 151.9 151.3 154.3 157.2 159.2 160.2 161.2 159.8 156 152.2 147.7 142.3 136.6 134.1 133 133.5 131.3 136.3 139.8 141.4 143.2 150.1 156.1 157.3 155.5 151.9 146.1 138 132.1 126.1 121.8 121.8 123.2 123.9 120 110.9 105 101.7 99.3 99.8 102.6 107.4 110.5 114.4 119 123.7 127.6 130.8 133.4 136.9 139.5 140.6 140.5 140.4 140.5 140.7 142.4 144.9 148.3 149.8 151.2 151.8 154.3 160.1 160.5 164.1 167.7 166.3 161.7 153.8 144.7 140.1 137.8 140.3 141 146.2 148.6 149.9 152 154.4 156.5 158.3 160 160.7 161.3 162.2 162.3 162.7 165.9 169.9 173.1 175.8 176.4 177.4 178.6 176.6 176.6 177.7 178.8 179.5 182.1 187 190.4 194.8 200.8 203.2 206.8 208.1 207.7 207.3 208.8 208.6 206.4 204.9 201.9 193.9 190.5 193.3 190.7 191.9 200 206.7 210.6 213.6 217.2 218.1 215 213.5 214.3 213.4 215 214.6 212.3 208 205.6 199.3 192.6 184.2 184 179 176.4 173.6 172.7 170.6 171.5 173.4 174.4 175.9 177.1 178.3 178.9 179.9 180.7 182.1 184.8 186.8 189.2 195.4 199.6 205 211.6 215.6 214.9 217.5 220.3 217.2 218.4 223.6 237.8 257.7 268.1 275.9 280 283 285.8 289.1 295.3 299.8 300.2 301.3
162.3 160.2 163.2 167.9 172.4 171.8 163.8 159.8 159.6 158 157.7 160.7 166 161.1 158.5 160.2 158.8 156.2 156.2 157.8 157.3 157.3 159.9 163.3 165.4 165.9 165.4 163.6 161.2 158 152.4 146.3 140.2 137.3 137.7 137.4 135.6 140.9 144.3 146 149.6 158.1 162.2 162.7 163.1 161.5 160.2 152.3 142.8 135.5 130.1 129.7 130.2 130.1 127.8 118.6 111.8 107.7 104.1 101.6 102.6 103.5 105.6 108.5 110.8 117.5 123 126.2 129.2 132.9 135.9 137.1 137.7 138.4 139.9 141.1 141.3 144.6 147.9 149.4 151 152.5 155.6 161.3 164.8 166.8 170.6 171.2 167.7 160.1 150 145.2 142.7 144 146.2 147.9 148.5 151.1 154.1 157.1 159 160.8 162.6 164.5 165.2 166.3 167.7 170.2 173.4 176.2 178.5 181.3 181.9 181.2 182.4 182 181.5 182 183.8 184.5 186.6 192 194.4 197.8 201.2 205.4 209.7 212.9 214.4 216.2 217.9 217.7 219.1 217.6 213.4 208.4 203.4 207.2 205.1 204.4 211.6 216 219.7 221.4 223 223.3 221 220.1 221.8 222.3 223.5 221.7 217.1 210.4 199.7 187.1 178.2 173.2 170 170.1 168.7 170.5 172.3 172.3 173.9 174.9 177.1 178.2 178.4 182.2 185 185.6 185.6 185.8 187.9 191.8 196.6 202.2 208.1 214.4 219.9 227.7 234.8 239.7 243 244.3 244.3 245.3 238.8 237.7 246.8 271.7 268 275.2 283.4 290.2 296.1 298.9 299 300.5
165 161.5 164.6 165.6 168.7 171.8 165.7 160.2 158.5 156.4 156.5 159.8 166.9 163.9 160.5 160.6 159.3 158.7 159.6 160.9 161 163 165 168.5 170.4 169.5 169.5 168.3 166.1 162 157.1 151.9 145.8 142.5 141.9 140.5 139.7 144.3 148.8 151.8 160.3 163.6 165.3 168.4 169.6 165.9 162.9 157.1 151.1 143.5 137.9 137.5 137 135.7 132.3 124.2 118.6 116.5 113.7 107.8 106.7 105.3 106.4 106.3 108.6 111 116.6 119.5 123.5 129.3 131.7 133.6 134 136.9 139.4 140.3 139.7 143.9 147.4 148.8 150.2 151.7 156.7 164 168.6 167.4 169.9 172.3 169 161.8 154.6 150.2 148 147.9 148.8 149.6 151.4 153.7 156.1 158.9 161.3 163.5 165.5 167 168 169.1 170.2 171.1 176.6 179.2 182 184.8 186.5 186.2 186.4 186.9 187 186.7 186.7 187.4 189.4 194.4 197.9 200.1 203.4 207.3 211.1 215.2 219.9 223.7 225.6 226.2 227 225.6 223.8 218.5 215.3 219.9 214.4 211.9 217.7 221.9 224.3 226.9 228 227.2 226 225.3 226.8 228.8 228 215.2 201.9 189.3 175.2 167 161 164 166.3 165.8 168 171.2 174.3 176.1 178.2 179.8 183.6 187.8 193.6 198.5 201.5 201 199.3 201.1 204.7 208.6 213.6 217.3 223.4 231.2 238.4 244.9 252.4 258.1 264 267.5 271.4 272 271.4 272.2 278.3 283.3 287.3 289.7 288.2 286.3 291.4 297.2 298.6 299
164.2 165.1 164.4 161.9 165 172.3 166.3 162 159.9 157.6 158.4 159.8 164.3 167.4 163.2 160.9 161.3 160.3 160.6 161.6 163.2 164.8 167.8 171 171 172.4 172.2 170.5 168.8 164.5 160.5 155.8 152 149.3 148.1 147.5 148.5 148.3 150.1 157.7 165.4 166.7 168.3 172.8 172.7 169.4 166.3 162.4 156.6 150.5 144.4 147.4 143.3 140.1 135.8 128.2 123.1 119.9 120.4 117.8 112.8 111.1 109 108.4 108.1 108.6 110.7 114.9 119.8 126.5 128.4 130.1 132.2 136 137.7 137.9 139.2 143.1 145.9 147.7 148.9 151.3 155.9 160.7 168.2 168.4 168.6 169 167.1 161.5 155.9 153.6 152.7 153.6 151.9 151.8 152.8 155.5 158.1 160.5 163.5 167.2 168.5 169.3 169.8 170.5 171 172.4 177.3 181.3 184.2 186.9 188.8 188.9 189.2 189.6 190.1 189.1 188.3 187.8 189.2 194.7 197.7 200.7 204.6 208.9 212.3 217.1 222 227.5 228.5 228.8 231.2 230.1 228.1 226 225.1 225.7 223.1 220.8 223.4 224.9 227.1 229.3 231.6 230.4 229.8 229.7 230.6 224.6 210.5 194.8 179.2 164.2 159.6 160.2 165.4 170.1 168.5 173.5 173.9 177.2 181 185.2 189.2 191.8 195.8 200.3 207.4 212.6 215.2 216.3 220.3 223.7 226.4 229.1 229.6 232.8 238.3 244.9 251.5 258.6 265.9 270.5 276.2 281.1 284.2 288.5 294.3 296.4 298.4 299.3 300.4 300.2 296.8 294.9 294.8 297 298.3 300.1
159 160.8 163.5 163.5 163.7 173.1 169.5 164.3 161.2 160.1 160.3 162.1 167.5 170.4 165.7 161.6 162.9 163.2 163.4 164 165.4 167 168.5 170.9 173 175.1 176.1 174.7 170.3 164.9 162.2 159.1 159.5 161.4 155.9 154.6 155.1 154 153.1 159 167.5 169.5 173.6 177.8 179.7 177.2 172.6 167.5 163.8 158.3 154.9 156.2 153.5 145.1 140.9 136 131.9 129.8 127.4 124.7 122.8 119.4 114.4 110.7 109.5 108.4 108.8 112.4 117.9 122.4 124.9 128.4 130.4 133.5 134.9 136.2 138.1 141.7 144.4 146.3 147.1 149.4 152.5 157.6 165.6 169.1 168.2 168 164.1 159.9 158.1 155.6 156.6 155.7 153.8 152.5 152.5 155.1 157.4 159.9 163.6 169 171.1 171.4 170.3 170.4 170.6 171.8 175.8 180.9 185.3 188.4 190 190.7 191.1 191 191.4 189.4 187.7 185.8 186.8 193.1 196.3 198.1 203.5 208.2 211.5 215.8 220.7 225.2 228.2 229.6 232.3 232.4 229.9 229.5 230.8 230.3 228.6 226.8 227.3 230.4 235 232.5 233.8 232.5 232.1 228.1 220.7 203.6 184.9 167.4 154.3 157.1 163.3 169.8 171.3 172.5 175.3 178.6 183.8 188.7 193.7 196.9 201.1 204.6 208.3 212.8 218.2 223.4 227.4 231.8 235.9 238.3 240.2 241 243.2 244.6 249.2 253.6 259.8 268.2 275.3 279.5 283.9 289.6 293.4 297.1 301.1 304.8 306.3 307.5 308.4 307 303.3 300.6 299.8 300.4 301.1 303.4
154.1 161 162.2 168.5 169.2 171.8 170.1 164 161.2 161 161.4 164.1 167.2 169.6 169 167.6 166.4 166.4 166.2 166.7 167.6 169.1 170.5 172.9 175 177.1 178.3 177.5 169.6 164.8 161.9 161.3 163.5 164.9 161.7 160 159.1 156.7 158 158.7 166.1 172.4 176.2 182.2 185.5 184.7 179.4 169 167.3 162.4 160 162.6 160.6 158 152.8 144.9 139.5 138 138.9 137 133.3 129.3 124 117.6 113.2 111.6 110.6 109.2 114.1 120.9 123.5 125.5 128.4 130.4 132.3 134.5 136.6 140.1 141.9 144 144.6 146.8 149.9 154.2 162 167.8 166.6 166.6 164.1 158.8 155.9 154.4 153 153 152.6 152.9 153.3 154 155.9 158 161.9 167.5 170.6 170.9 169.2 169.5 169.7 170.8 174 179.4 183.6 187 189 190.1 191.2 192.9 189.3 186.1 183 180.8 181.2 188.4 192.2 195.9 200.7 206.1 210.6 214.4 218.7 222.2 226.3 227.8 231 231.3 230.8 230.4 234.7 232.2 230.8 229.9 229.8 232.2 237.1 233.1 233 232.8 229.3 219.1 198.4 171.6 149.5 152.8 157.7 163.4 169.7 171.4 173.3 175.6 180.1 183.7 190.6 196.4 201.7 206.7 211.3 215.5 219.6 222.8 229.4 233.7 237.4 241 245 246.8 250 253.8 252.9 254.8 258.4 262.5 267 276.1 281.7 286.5 291 297.4 301.1 301.5 305.4 309.3 310.1 310.6 312.6 311.2 308.2 305.2 304.9 303.7 305.6 307.4
148.4 155.1 162.3 169.1 172.2 173.8 170.7 163.1 159.5 159 160.7 164.9 168.8 168.6 172.1 173.8 171.1 169.1 169 169.3 169.3 171 172.4 174.4 177.1 179 180 177.1 168.3 164.7 162.6 164.5 167.2 169.6 169.7 169.4 165.2 160.6 161.3 168.3 170.7 178.2 178.8 182.4 188.7 186.7 182.6 174.8 172.1 166.5 166.5 167 165.8 164.5 164 156 153 148.6 150.9 153.6 146.1 139.8 132.6 122.7 117 114.8 114.6 116.1 114.9 115.8 119.4 123.4 125.3 128.2 130.1 132.7 135.4 138.2 139.8 141.4 142.6 145.3 148.4 152.6 158.3 164.1 163.9 164.6 163.8 158.7 154.2 150.9 149.2 147.6 147.5 148.8 149.8 152.9 153.9 154.9 158.1 163.6 166.6 165.7 165 166.6 167.3 169.3 171.6 176.6 182 185.5 187.6 189.2 190 189.6 189.3 184 180 174.1 175.1 180.2 186.8 189.9 196.5 202.7 207.1 210.9 214.6 219.4 222.9 226 226.9 227.2 227.4 228.5 230.4 227.9 228.6 228.5 230.4 232.5 233 231.2 229.8 225.5 216 197.7 170.1 143.1 151.4 160 166.8 169 170.9 172.8 174.5 177.1 182.6 190.5 197.3 203.1 208.4 214.2 220.1 224.8 227.9 232.5 235.1 239.4 243.8 248.3 251.8 255.1 258.9 263.1 262.5 261.6 265.3 269.1 272.8 279.7 286.6 292.1 297.2 303.7 305.2 305 307.5 309.7 311.2 311.5 313.3 311.9 307.5 309.1 309.7 309.9 309.6 310.9
141.5 152.2 162.5 170.2 172.2 173.8 168.7 161.7 158 156.7 159.4 166.8 172.5 171.4 173.1 175.3 172.8 170.4 170.6 170.7 170.6 172.4 174.1 175.3 178.4 179.9 180.9 173.2 167.7 164.7 163.6 167.1 170.7 173.1 175.3 177.2 169.3 163.3 167 171.6 177 180.9 180.1 182.3 186.4 189.4 183 177.3 174.6 171.6 168.8 169.9 169.8 169.5 170.4 169.3 169.9 163 163.3 158 153.1 147.2 137.6 125.8 120.3 118.5 118.9 121.4 125.3 120.2 120.4 123.6 127.3 128.3 128.9 131.1 132.9 135.5 137.2 139.1 141.4 144 147 151.3 156.1 160.1 160.5 159.8 158.2 156 149.1 146.4 143.7 140.1 137 137.5 140.6 147.5 149.7 150.4 153.7 158.9 160.7 160.3 160.7 163.3 164.3 165.4 168.2 172.7 179.3 182.3 184.8 187.3 188.5 187.8 185.9 181.1 169.8 165.6 167.8 173.2 179.4 185.5 191.1 198.6 202.6 206.3 210.1 215 218.1 220 220.9 220.9 220.3 221.4 222.9 224.2 223.9 225.1 228 229.6 228.6 225.2 221.2 209.9 197.6 170.3 141.5 143.8 152.3 158.9 166.9 169.7 172.1 174.4 176.6 178.9 186.2 196 203.5 209.9 215.1 220.4 226.6 233.3 237.1 240.6 242.6 244.1 248 252.8 256.4 260 264.3 268.5 268.1 266 269.1 272.4 274.1 280.6 289.2 293.3 300.8 305.7 304.8 304.5 307.2 308.6 309.2 309.6 310.5 311 307.2 310.7 311.3 310.4 311.1 312.4
133.8 151.3 162.6 167.3 169.4 168.4 163.8 160.9 156.8 155.2 158.8 171.2 175.5 174.5 174.6 174.9 172.6 170.3 169.7 171.1 171.9 173.6 175.3 175.4 177.6 179.1 177.6 170 166.8 163.7 164.8 170.6 174.7 176.5 178.6 178.7 171.2 168 170.8 178.5 185.1 183 181.7 183.5 186.3 189.1 182.9 178.2 175.3 175.3 180.8 176.4 176.8 174.3 176.1 181.2 181.3 176.6 175.4 172.2 157.4 151.1 139.7 132.5 128.4 125 123 127.1 131 126 123.3 124.9 128 128.9 129.4 131.1 132.3 134.4 136.2 138.3 140.5 141.9 144.5 147.9 152.6 156.8 157.3 157.7 154.5 149.2 142.1 137.3 133.2 131.5 129.1 130.4 135.9 139.5 143.8 143.2 147 151.6 152.6 152.9 154.3 156.5 158.7 160.5 164.2 169.6 175.5 178.8 181.4 185 185.7 184.8 181.3 168.9 157.2 156.5 161.7 167.2 174.8 182.1 187.5 194.3 198.9 202.9 206.4 209.5 212 213.2 213.8 213.5 210.9 212.1 213.3 215.8 218.6 220.1 221.5 222.3 222.1 217.3 212.3 187.6 171.5 151.2 140.1 149.7 159.9 164.9 167.8 170.8 174.1 177.7 182 185 188.6 198 208.3 214.9 220.2 225.5 231.1 237.8 241.4 244.6 246.9 248.8 250 254.3 259.1 264.7 266.1 268.1 269 266.3 271.6 272 272.4 277.4 280.5 285.5 290 296.3 294.3 296.4 300.6 300.1 303.9 305 306.2 304.7 302 308.9 309.9 310.3 313.2 312.8
129.4 150.5 158.5 161.4 162.6 162.6 160.4 158.9 154.5 152 161.6 173.2 175 172.2 175.3 174.4 172.1 171.1 169.9 171 173.2 173.4 174 173.8 174.5 176.1 173.6 167.8 165.5 163.7 166.6 171.5 176.7 178.7 179.4 176.3 173.7 172.8 175.2 182 190.2 186 184.3 186.8 188.2 191.7 187.7 182.1 177.7 176.8 184.1 185.2 184 181.2 183.5 190.5 189.4 188.7 184.4 174.6 162.5 153.4 140.2 138.4 137 133.1 127.9 130.4 132.1 127.6 123.6 127.4 130.4 131.4 131.4 131.7 133.4 135.8 138.4 138 139.4 139.3 140 142.7 149.2 153 154.4 154.1 150.6 142.4 135.9 129.2 127 125 125.2 125.4 128.5 131.2 135.1 134.8 138.8 141.3 144 146.4 147.8 150.1 152.1 155.6 161.4 166.5 171.6 175.4 178.7 181.9 182.6 180.1 171.5 157 148.1 150.5 157.7 165 172.4 179 185 191.8 196.7 199.9 202.5 204.3 204.7 205.6 204 202.5 199.7 201.9 203.4 206.5 210.4 212.4 215.2 217.5 217.6 213.2 208 188.8 158.5 139.1 146.4 157 161.3 165.2 168.3 171.5 177.9 183.5 189.2 192.6 196.5 202.4 210 217.2 224.1 230.3 235.9 240.7 244.8 248.3 250 250.5 251.8 255 258.4 263.2 264.8 265.4 264.1 263.1 264.8 262 261.9 266.7 266 269.4 273.6 274.9 278.8 284 287.5 289.6 293 294.3 297.2 295.8 295.9 302.8 303.5 303.6 307.5 309.4
122.4 142.7 152.4 156 159 157.6 157.3 154.7 149.6 151.3 163.9 174.3 175.5 174.9 174.6 173.5 171.5 171 169.7 172.5 176.4 173.8 172 171.4 172.2 171.8 168.8 165.4 163.5 163.3 168.1 173.9 178 177.9 177.1 177.2 176.6 176.3 177.7 189.2 191.5 187.6 189.6 191.1 189.1 192.8 188.2 182.4 178.3 186 190.4 189.5 190 187.4 188.3 193.7 194.5 196.7 191.1 183 169.9 158.3 152.8 148.8 145.5 139.5 133.8 132.7 130.8 128.1 127.3 128.9 131.8 134.6 133.5 133.4 136.2 138.6 140.8 139 138.2 136.7 136.3 138.8 142.9 149.4 152.1 151.6 143.6 134.1 127.7 123.3 121.6 121.3 122.2 122.8 123.1 124.2 126.2 126.3 127.8 131.6 135.2 138.9 142.1 144.7 146.6 149.6 156.8 163.1 167.2 171.2 174.9 178.1 179.7 172 160.5 145.3 141.8 145.8 153.3 160.9 167.6 174.1 180 185.4 191.4 194.4 196.5 198.2 197.3 193.1 190.6 188.8 188.7 191 193.8 197.6 200.4 203.4 208.4 208.8 206.7 203.9 203.6 184.5 150.1 140.4 150.8 155.6 159.7 164.1 169.1 176.4 182.8 188.5 194.5 199.7 204.2 208.6 213.4 220.1 226.5 232.4 237.5 241.9 246.5 251 253.3 254.6 255.7 257.7 258.3 258.2 260 258.1 254.7 255.2 254 249.8 250.7 252.5 249.4 250.7 254.7 257.3 261.9 267.5 271.3 274.8 277.7 279.5 284.3 285.8 289.7 296.1 297.1 298.5 301.7 307.6
109.2 126.7 142.5 152.2 153.8 151.1 150.8 149.3 139.7 145.7 160.5 171.6 172.9 173.6 173.9 172.7 169.9 168.5 169.7 175.2 178.7 174.1 170.6 171 170.9 170.4 169 164.9 162.4 162.4 167.6 174.5 178.2 176.9 175.4 178.5 178.3 178.3 182.6 192 192 192.5 192 191 189.5 192.3 185.6 178.8 178.5 190.3 191.8 190.8 188.7 185.3 187.1 190.6 195.2 194.8 188.9 183.5 178.3 169.6 169.1 157.5 150.2 144 139.1 136.5 133.9 132.1 131 130.1 130.8 132.7 135.6 136.2 137.6 140.6 141.4 140.9 139.4 136.9 134.1 135.3 138.6 144.3 146.2 146.7 139.9 126.2 121.1 118.5 117.7 117.3 118.3 118.8 118 119.8 120.6 123.3 125.4 127.6 130.5 134.2 137.5 139.7 142.5 145.7 152.4 157.4 161.8 165.2 169 172.7 171.9 162.9 149.4 138.2 137.5 141 148.1 154.7 161.8 168.9 173.4 179 184 187.2 189.2 186.8 182.8 178.8 178.7 179.1 180.4 182.9 185.9 188.8 190.9 194.4 199.4 196.9 193.8 195.1 196.9 175.7 147.3 138.9 149.6 152 157.9 165.7 174.1 181.5 187.8 193.6 199.3 204.2 209.3 213.5 217.4 221.7 227.8 233.3 237.7 242.3 247.3 251.8 255 256.3 256 253.2 247.1 244.3 239.1 237.2 235.8 234.6 234.2 236.2 235.3 230.9 231.2 232.9 237.7 240.2 246.1 248.9 254.1 258.3 262.7 265.2 270.8 273.2 281.2 289.2 292.4 297.4 302.1 307.6
89 106.1 126.1 148.3 150.6 145.5 140.2 134.7 135.1 141.4 157.3 166.7 169.8 170.3 171.5 171 168.8 166.5 168.1 171.4 176.9 173.2 169.4 169.4 170.4 168 166.5 163.8 161.3 161.6 166.8 169.3 173.7 173.6 173 175.3 178.5 180.3 187.9 193.4 193.1 191.8 190.9 189.1 188.7 185.3 179.2 173.8 176.1 187.7 189.6 186.2 183.6 182.1 183.2 185.6 189.7 190.1 187.2 183.8 182.2 176.3 169.3 161.4 155.6 151.8 147.4 141.7 137.7 135.8 134.3 133.1 133 135.5 138.7 139.1 139.5 141 142.2 140.3 137.2 133 130.4 132.8 136.2 138.9 139.7 137.4 132.9 121.9 117 115 113.6 113.4 114.2 114.4 116.1 119.6 122.1 125.4 127.1 128.1 130.6 132.2 134.6 138.5 140.8 142 145.7 148.4 154.1 157.5 161.5 164.7 158.8 145 135.8 132.3 133.5 136.2 142.9 148.1 153.6 160.5 166.2 171.1 174.9 177.7 176.1 172 167.5 165.6 166.6 170 173 174.9 178.4 181.5 184.2 188.1 191.5 188.2 184.7 188.6 190.4 170.6 133.9 135.1 144.8 148.9 154.9 165.8 175.2 183 190.5 195.4 201 204.1 206.4 207.9 214.2 221.3 226.1 230.7 235.1 238.2 243.8 246.5 247.4 244.7 237.5 229 221.5 220.2 215.8 217.3 216.4 215.5 216.8 218.9 218.3 216.1 217.5 219.5 223.3 227.4 232.6 235.7 241 247 254.3 260 268.3 276.7 287.3 295.8 298.6 300.5 303.9 308.1
70.3 89.9 111.6 133.6 145.3 140.9 134.8 129.1 130.8 140 154.1 161.4 163.4 163.2 164.6 164 163.8 164.6 165.9 168 170.3 169.8 169.8 169.9 167.9 166.3 164.9 162.5 161.3 162.4 166.2 169 169.5 169.5 169.4 171.9 175.9 180.5 189 190 189.8 188.6 187.5 184.4 186.6 180.3 173.4 169.5 176.1 182.9 182 179.5 176.3 177.2 178.7 180.6 183.2 184.8 186.3 186.4 185.3 178.5 172.8 166.9 162.1 160.2 154.1 146.1 140.5 139.2 138 135.5 136 138.1 138.9 138.5 138.9 141.5 139.1 137 131 126.8 123.4 129.5 132.2 135.8 135.9 131.8 124.7 117.6 113.8 111.8 110.5 110.6 110.7 112.3 117.2 120.7 123.8 127.7 131.7 133.3 134.2 135.8 136.7 140.3 140 139.5 141 144.8 146.4 149.5 151.5 149.5 145 134 127.8 127.5 128.8 132.5 136.9 141.1 144.5 150.5 155.5 160.3 164 166.8 164.8 160.2 156.9 158.1 161 165.1 169.8 170 173.8 177.6 180 183.6 183.5 178.1 174.5 180.9 179.4 165.3 133.1 136.7 141.7 145.3 151.9 163.2 172.1 180.1 187.1 192.2 195.1 194.1 194.4 199.8 206.4 212.6 216.8 222.1 226.4 231.1 235.5 236.8 236.7 229.3 217.1 208.3 203.6 202.1 201.7 202.2 202.4 203.3 205.3 207.4 208.8 212.2 215.8 221.2 227.2 234.5 242 248.4 255.5 261.8 267.5 275 281.9 286.6 294.8 299.7 302.9 305.1 307.9 310.8
58.3 79.3 102.1 125.7 137 133.9 127.4 125.9 130.3 141.2 156.4 161.2 159.7 158.9 159.9 160.5 161.8 163.5 165.1 166.3 168.4 167.2 167.1 167.8 162.8 161.4 162.3 160.2 159.7 162.9 166.8 167.7 167 167.2 167.5 171.6 176.5 180.8 185.1 187.9 187.3 185.8 181.5 177.4 178 173.4 166.8 168.8 174.4 177.2 174.5 173.5 172.5 173.1 174.2 176.6 179.5 185.8 192.1 191.2 191.8 188.6 181 170.4 168.2 162.9 150.9 145.3 141.2 140.8 140.7 138.2 138.6 139.9 138.6 138.1 138.7 138.2 135.4 132.3 126.7 122 123.6 128 131.6 133.1 133.3 127.3 118.9 114.3 110.1 108.7 107.3 110.3 109.1 111.2 117.4 121.4 124.8 128.4 133.1 136 136.6 138.6 139.3 139.3 137.4 134.7 136.9 138.8 140.1 141.7 142.3 138.4 127.4 121.6 122.6 119.1 119.4 125.8 130.6 134.3 137.2 140.1 144.9 149.6 152.9 155.9 155.2 153.6 152.4 158.1 162.4 165.7 169.7 172.7 174.6 176.5 178.8 181.5 181.6 170 164.1 167.6 166.6 153 128 132.1 137.9 140.7 147.9 155.8 163.7 171.7 176.6 180.5 179.9 179.8 182.9 187.6 193 199.3 204.7 211.5 217.6 221.8 225.4 227.2 225 208.4 200.4 194.7 193.1 195 193.2 196.8 199.4 201.7 204.7 208.8 215.4 219.3 222 227.6 233.6 241.9 251.5 262.8 268.6 274.9 283.1 288.6 294 296.7 300.8 304.7 307.6 309.6 310.3 311.3
53.4 71.4 99.2 125.8 127.6 123.8 119.6 123.5 132.1 148.9 161.7 160.3 158.1 157.3 157.2 158.3 161.1 164.3 166.3 167.5 165.9 163.4 162.8 163.6 157.3 157.3 158 157.1 157.6 161.2 163.4 163.6 164.1 165.2 166.4 170.6 173.4 177.6 181.1 184.1 184 181.6 174.9 169.5 168.6 163.4 160.7 164.5 174.7 173.3 169.7 168.4 167.6 169.1 170.6 175.4 179 185.4 190.4 191.1 192.4 191 179.3 167.4 164 156.8 144.4 140.9 140.9 140.9 140.6 138.1 140.1 142 138.7 137.4 137.5 135 129 125.2 119.6 117.2 118.2 122.5 126.8 127.9 126.1 119.2 114.1 111.5 109.5 106 101 106.6 107.6 112 116.7 121.2 125.3 128.2 131.9 135.3 138 138.9 140.1 136.8 131.3 128.8 129.4 130.3 130.6 131.9 128.2 122.9 115.4 115.5 122.5 126.2 128.9 131.2 133.1 132.3 132.7 136.8 139.5 142.1 144.2 146.7 149.2 149.7 151.1 159.2 166.2 170.8 172.8 175.4 178 179 180.7 182 181 162.3 154.3 155 150.3 137.8 124.2 130.2 133.1 135.2 140.9 147.9 155 160.8 163.5 164.3 165.1 166.5 168.8 175 176.6 182.4 188.9 195.9 204.5 210.5 213.4 213.3 207 196.2 186.5 186.3 187.4 188.7 192.7 195.6 202.6 208.5 216.1 222.1 225.5 228 234 240.5 249 256.4 264.5 276.4 278.6 284 291.7 297.3 301.8 304.3 305.3 309.1 311.1 312.5 310.6 312.3
47.4 70.4 95.2 121.2 120.1 117.3 118.3 124.3 138.8 158.6 161.5 159.4 158.3 158.6 156.8 156.9 160.1 164.2 165.8 167.3 161.4 155 155 157.7 154 153.2 153.1 154.6 156 157.8 159.6 159.5 160.9 161.5 163.4 165.9 170.7 174.3 177.5 180 178 173.5 167.4 165.9 160.9 155.5 154.9 163.2 169.3 169.3 165.4 162 161.9 162.8 167.9 173.3 179.7 186.3 188.9 190.8 190.2 185.7 169.4 162.4 157.2 146.2 138.5 138.8 140.1 140.5 140.2 138.8 140.6 142.3 137.8 136.3 134.4 129.6 120.8 116.4 113.6 112.1 113.9 116.6 122.4 123 121.2 115.7 110.1 108.1 107 104.8 96.2 104.8 107.9 112 115.4 118.8 123.2 127.6 131.3 135 137.6 138.7 137.6 132.7 124.9 119.9 118.1 119.9 119.9 120.5 115.8 110.1 108.5 119.6 125.6 130.2 132.3 134.5 136.1 136.7 137.2 137.9 139.7 141.2 142.3 144 146.2 149.4 158.4 166.8 171.4 174.6 175.8 178.2 180.2 181.7 182.9 183.2 178.9 159.7 147.3 145.8 139.7 126.6 122.2 124.7 125 127.1 132.4 139 142.6 143.9 146.1 148.9 151.3 154 158 161.9 163.6 165.3 171.5 178.2 185.4 191.4 195.2 193.7 187.6 180.2 178.7 182.2 185.6 190 195.9 204.9 214.2 219.7 225.4 230.3 233.6 235.4 241.6 248.6 258.5 267.5 276 281.5 285.5 291 295.3 299.6 304 305.3 306.6 310.2 310.4 313.2 311.1 311.2
42.9 63.1 84.3 101.6 112.6 110.2 118.8 131.3 143.4 154.2 155.5 156.1 159 161.4 154.6 155 156.7 157 158 159.7 152.4 146.9 146.3 147.4 148.6 149.1 150.4 152 153.8 156.2 156.3 156.2 157.8 159.3 160.2 160.5 166.9 170.1 173.6 171.6 168.2 164.9 160.5 154.3 150.4 145.3 150.9 161.2 162.9 163.3 157.1 155.1 154.7 157.9 163.4 170.9 178.3 186.1 188 187.4 186 176.6 161.1 155.9 150.6 139.5 136.5 136.7 138.5 139.4 138.4 138.7 141.7 142 135.6 133.3 128.7 121.9 110.7 109 108 107.3 110.7 114.5 118 118.9 117.3 111.6 106.9 105.6 105 103.3 94.1 105.1 109 112.3 116.1 119.9 123.3 127.4 131.8 135.5 138.1 139 135.7 127.3 118.2 112.8 111.8 112.5 113 107.8 103.1 105.4 111.5 121.1 126.3 130.7 134.5 137.2 139.1 139.7 140.3 141.9 146.7 148.1 149.9 150.7 156.1 160.6 165.6 170.8 175.2 176.4 178.9 181.2 182.4 183.8 184.7 182.5 174 153.4 140.7 138.2 130.4 119.6 118.4 121.2 126 128.2 130 134.1 135.2 136.4 135.9 138.7 140.9 141.6 143 147 150.5 155.4 159.3 164.6 169.9 172.1 175.1 173.2 170.6 177.4 180.2 186.2 188.5 191.8 195.7 200.2 206.7 211 218.4 224.9 231.4 239.4 247.6 257.2 267.6 274.6 282.8 282.8 285.5 291.1 295.7 301.9 306 305.7 306.6 309.5 308.6 312.9 309.7 302.3
39.2 50.9 68.7 84.2 107.8 103.8 119 135.2 142.5 149.2 152.9 156 159 155 151.2 150.4 151.5 149.4 147.7 147.6 144 141.7 139.9 141.5 144.3 144.8 147 149.9 152 155.1 154.2 153.6 154.9 156.4 158.2 159 161.4 165.1 168.1 162.8 155.5 152 149 143.2 139.8 140 147 154.8 152.8 150.9 147.3 149.2 150.6 155 160.9 170 177 181.6 183.4 182.5 177.3 168.3 155.9 148.9 142.2 134.9 133.2 133.8 136.6 137 135.7 135.6 138.3 136.2 130.8 126.4 117.1 109 105.5 104.9 102.9 104.8 109 113 117.9 118.6 115.8 109.8 105.8 103.5 103.1 100.8 93.4 104.3 109.5 112.9 116.6 119.7 123.8 126.8 131.6 135.1 138.5 140.3 134.3 122.8 113.5 106.9 107.9 105.8 105.1 99.6 102.8 106.7 112.7 120.2 125.2 130.3 134.5 138.9 141.3 142.4 143 144.1 146.9 150.5 152.1 156.4 160.6 164.4 169 172.2 175.3 178 180.3 182.1 183.8 185.3 185.4 175.6 155.2 139.4 133.4 130 120.3 115.9 119 125.9 130 133.1 135.5 138.7 139.7 140.9 140.9 142.4 144.4 145.1 147.6 149.3 151.8 152 154 156.2 159.2 163.8 166.6 170.6 173.8 176.9 180 183.9 187 191.2 192.3 197.3 200.8 206.6 212.2 220.3 229.8 241.6 252.5 262.4 272.4 277.1 284.1 283.1 286.9 294.9 297.3 301.9 306.2 307.3 308.4 308.4 308.6 307.2 298.6 291.3
32.6 37.3 45.8 70.9 84.3 89.8 115.9 132.5 144.3 149 151.5 153.9 155.6 152.4 148.5 142.2 141.6 139 136.6 135.6 134.5 134.5 135.5 137.6 140.1 137.4 144.2 147 149.5 152.9 153.1 153.4 154.2 155.4 156.4 158.2 159.8 162 164.8 155.4 147.4 144.7 141.4 135.5 133.6 136.1 144.4 148.1 146.2 142 144.2 145.8 150.5 156.2 165.8 173.1 177 179.1 176.2 170.7 166.2 157.2 146.7 138.1 133.1 128.9 128.5 128.1 134.4 133 130.9 130.3 132 127.4 121.8 117.5 108.1 103.3 101.8 101.7 100.4 103.1 107 112.4 117.7 117.7 115.4 110.7 103.9 100.4 100.2 98.7 89 105.5 108.9 112.5 115.5 118.5 121.9 126.9 131.3 133.9 137.3 139.8 136.1 122.3 111.8 105 101.2 100.2 96 97.1 101.9 106.1 112.1 118.2 122.6 127.5 132.6 135.8 139 141.2 143.2 144.8 145.8 148.4 150.7 154.8 159.4 163.6 167.5 170.4 172.9 175.9 178.1 180.4 182.5 180 176.3 159.1 141.1 129.6 126.9 121.1 116 116.5 120.5 126.5 131.5 134.5 137.7 139.9 142.1 145.5 146.9 148.2 148.7 148.6 149.8 151.2 154 155.7 157.1 158.3 161.3 163.2 166.5 170.4 173.4 175 178.7 182.2 187.6 193.2 196.6 200.3 207 215 219.8 227.3 238.1 248.1 255.8 266.1 272.5 279.9 284.4 286.7 289.7 293.9 298.7 302.1 305.9 308.4 306 304.2 302.2 293.5 285.6 279
26 30.3 36.4 50.4 66.2 84.9 108.1 125.3 142.4 146 150.3 150.4 148.5 146 144.4 137.4 125.2 120.6 119.5 120.3 123.1 125.1 131.2 135 130.7 138 143.6 145.4 148.6 152.7 153.3 153.3 153.8 154.5 155.6 156.2 159.2 160 159.4 147.8 140.7 139.1 136.1 129.4 128 132.9 140.3 142.6 139.5 138 145.6 146.5 149.2 158.2 168.9 176 177.9 177.3 171.5 163.1 154.6 141.9 134.5 127.5 122.6 120 119.1 122 128.1 127.1 123.9 123.7 124.4 119.8 113.1 110.2 101 100.1 99 94.8 98.8 103.3 108.2 112.9 118.3 118.1 114 109 101.3 97.1 95.7 94.2 88.3 102 106.4 108.2 112 115.6 118.8 123.2 128.7 131 131.8 134 129.8 118.8 107.8 100.3 97.7 96.6 89.3 94.6 100.2 106.4 112.3 116.8 120.2 123.9 128.5 131.7 134.2 136.5 138.8 142.2 143.1 145.9 149 152.4 157.7 160.8 163.7 166.7 169.5 172 175 177.5 177.9 174.8 166.5 148.1 128.4 121.7 120 116.5 113.3 117.9 123.6 129.9 134.7 137.3 141.3 142.8 146.1 149.9 151.9 153.2 154.3 157.1 156.3 156.5 157.8 159.8 161.7 163.4 164.5 166 168.5 171.4 172.8 178.6 182.4 186.3 194.6 202.5 211.2 218.6 225.1 233.2 238.4 244.1 252.1 262.9 268.7 274.4 277.2 282.7 286.5 292.1 292.5 295.3 299.4 301.3 303.3 303.2 297.7 294.3 287.9 277.9 270.9 264.6
17.3 24.5 30.9 38.6 49.7 75.4 92 113.3 128.9 137.9 142.8 142.2 139.1 137.8 132.9 125.9 112.1 108.8 112.5 114.2 112.3 115.6 121.7 120.6 130.4 140.9 145.5 148 149.5 153.5 154.4 154.5 155.1 154.9 155.4 160.1 157.5 153.6 149 139.1 135.7 133.7 131.6 125.4 123.2 128.9 136.3 137.1 135.5 137.4 143.8 146.1 149.4 158.1 168 174.8 176.3 176.2 167.5 156.5 145 128.7 121.9 118.1 114.7 111.8 112.5 114.6 119.5 120.7 116.6 116.8 118.4 113.9 108.1 100.8 96.1 96.2 93.5 94.6 100.9 105.9 111.9 117.3 119.4 117.6 111.4 105.7 100.3 96.4 92.2 88 90.9 101.7 104.2 106 107.7 110.8 114.3 118.7 121.8 123.7 123.1 123.2 116.9 105.5 97.1 93.9 93 93.2 90.5 90.9 100.2 106.6 111.3 114.8 117.6 120.8 123.9 126.2 128.7 131 134 139.8 141.5 145.6 150 152.2 156.6 159.8 160.4 163.2 166.1 168.7 170.3 171.8 174 171.4 160.3 139.1 121.6 115 114 112.5 114 121.5 126.2 133.1 137.9 141.2 144 146.6 150.1 150.1 153.8 157.7 162.8 168.7 170.7 171.9 172.1 171.2 170.7 172.6 170.3 172.1 176.5 180 185 189.6 196 201.3 209.4 217.8 224.4 231.9 235.8 243.1 250.4 256.9 265.9 274 276.4 281 282.6 285.7 288.4 293.4 292.4 296.3 297.9 296.7 297.9 288.2 281.5 277.2 271.3 261.8 254.1 247
17.9 18 19.5 32.7 42.9 65.6 89.7 107.7 123.3 132.1 135.9 132.6 128.2 126 120.4 109.6 101.7 104 104.3 104.3 105.1 112.9 118.4 123.9 134.3 143.2 148.7 149.7 152 155.2 156.8 160.4 161.3 154.8 151.5 151.8 151.5 145.8 137.3 133.3 128.7 124.4 124.2 119 120.1 125.1 133.2 134 131.4 137.6 142.8 148.2 153 159 168.3 172.8 172.5 172.8 165 153.2 138.5 120.9 114.4 110.9 107.3 105.5 106.6 108.2 110.5 112.1 108.9 108.4 112.1 108.7 101.5 94.4 92.3 92.8 88.9 94.7 100.2 106.6 114.9 118.6 118.3 115.5 111 104.8 99.4 95.4 90.4 79.5 92.1 98 101.8 103.8 105.5 106.8 109.2 112.7 113.4 114.9 113.2 108.9 97.2 89.3 88.1 88.7 88.4 89.5 87.4 90.4 99.4 103.1 108.9 111.8 112.8 114.5 117.4 121.2 124.8 131.8 136.2 140.6 143.2 147.8 151.3 153.4 157 159.5 160.9 162.6 165.9 167 167.4 168.8 171.5 167.8 154.8 132.3 115.5 110.2 110.2 113.7 120.9 125.6 129 133.1 139.1 142.7 144.5 149.3 150.5 154 155.8 159.8 165.7 171.8 176.9 180.8 185.4 187.9 187.3 185.2 179.9 183.6 189 193.4 199.2 205.5 211.2 217.2 223.5 229.6 235.4 241.1 245.5 251.3 258.8 267.1 273.2 278.4 282.2 286.5 286.5 288.9 291.4 292.5 291.2 295 292.6 286.1 277.3 265.6 258.3 253 247.8 238.8 231.4 224.4
18 18 18.2 25.5 37.5 64.8 92.4 105.6 117.1 121.7 122.6 119.2 115.7 111 102.5 97 89.2 90.3 100.7 106.9 112.4 115.3 123.3 128.5 136.5 143.6 147.9 151 155.4 157.4 161.1 161.2 155.9 152.8 150 145.6 144.5 136.3 128 124.1 120.1 115.3 113.4 114.8 117.8 126.2 133.3 130.6 131.1 138.4 146.1 156.2 155.9 160.1 169.8 171.5 169.4 166.6 160 150.3 137.6 122.1 109.9 105 101.1 99.4 98.8 99.2 101.1 101.8 100.3 100.2 103 102.9 96.6 92 90 88 88.5 92.9 99 107 115.3 118.2 116.8 113.9 109.2 101.9 96.5 92.8 89 79.5 91 95.5 99.2 101.2 101.4 101.9 104 103.9 103.5 104.2 97.1 87.4 80.5 80.3 83.9 86 84.8 87.5 79.1 88 94.3 96.9 100.2 104.9 106 109.6 112.9 121.1 131.1 135.6 137.9 140.4 143.6 148.8 152 154.8 157.4 159.7 161 162.1 162.4 163.1 161.9 161.6 165.1 165.1 149.8 123.3 110.4 107.8 113.1 119.4 123.7 128.3 132.3 137 141.5 143.9 144.6 149.9 152.8 157.2 158.4 161.8 167.2 172.5 177.6 182.2 186.4 189.4 190.9 190.9 192.6 194.4 199.6 205.3 210.8 215.6 221.1 226.3 232.6 239.5 243.9 247.1 250.9 257.3 264.5 270.7 276.2 280.1 283.6 288.8 289.2 290.9 291 291.4 283 281.6 275.1 262.2 249.8 237.8 230.5 225.8 221 214.1 206.1 201.5
18.1 18.3 18.9 22.5 31.8 52.6 81.9 90.6 104.1 111 109.6 106.6 103 96.8 85.1 73.6 79.4 86 100.3 109.8 115 120.7 131.5 135.4 135.9 143.2 147.5 151.3 155.4 160.9 165.3 162.2 156.5 150.8 147.3 141 135.5 127 118.8 116.3 113.3 110.5 109.8 112.7 117.6 125.4 131.1 126.3 131.3 139.6 148 152.1 154.2 158.9 167.2 170.3 168.4 158.5 154.1 145.6 134.9 122.5 108.7 98.2 94.2 90.7 90.4 90.1 90.8 91.1 92.6 93.6 94.7 95.3 92.1 87.4 86.6 80.3 85.6 92.1 96.9 103.4 111 112.6 112.6 111.3 106.3 98.7 93.4 89.7 82.7 78.8 89.7 93.2 95.3 96.6 96.7 96.3 97 95.7 94.3 88.4 80.2 75.1 76.7 75.8 80.3 81.6 81.8 83.5 74.8 85.8 89.2 90.3 94 97.7 99.8 108.4 115.8 120.8 126.2 130.5 135 137 140.6 145.1 148.6 150.9 154.5 156.4 158.8 156.6 154.4 154.7 152.9 152.7 153.8 151.9 138 113.2 105.2 108.4 114.2 122.5 126.8 131.1 136.8 141 145 147.3 149.4 153.1 155.7 158.8 160.9 164.3 169.3 174.6 179.6 184 187.5 190.6 193.6 196 196.1 199.4 204.4 210.4 216.4 222.1 228.5 234 239.7 245 249.9 252.8 256.2 260.5 266.4 271.8 276.5 279.4 282 287.1 288.7 286.6 279.4 270 257.5 253 244.5 234.2 222.3 212.2 205.6 201.8 197 191.7 185 185.1
18.2 18.4 18.3 18.4 26.9 42.6 68 82.2 85.9 92.1 93.6 93.8 90.6 70.8 59.2 75.7 88.5 99.9 106.3 114 122.6 129.5 135.1 138.3 139.5 142.9 147.8 150.5 154.7 162 168.5 165.8 156.8 150.7 142.8 134.1 124.2 116.3 112.7 110.7 110.7 104.3 114 116.9 115.8 124.1 121.8 126.3 132.4 138.8 146.2 149.5 153.9 159 164.9 165.5 159.4 153.3 147.5 138.3 130.8 121.3 104.5 93.1 88.7 86.5 85.2 84.9 84.4 84.8 85.4 86.4 87.2 84.9 83.6 84 81.7 80.1 83.9 88.9 93.4 97.9 105.1 107.6 108.1 105.5 103.4 97.4 89.9 87.8 82 77.9 87 89.1 89.8 91.4 91.1 88.5 86 84.6 81.8 76.2 72.8 71.2 71.6 73.3 77.6 80.8 79.2 81.2 75.5 83.2 85 87.2 89.3 89.9 97.1 101.7 106.4 111.1 116.9 121.2 126.5 130.5 134.2 137.9 139.6 141.3 143.7 145.3 146.8 144.7 143.2 143.3 140.6 138.5 134.9 132.1 116.1 106.2 104.5 108.3 115.5 122.9 126.9 131.7 137.1 143.1 148.6 152.9 156.1 159 160.7 163.1 164.1 166.9 171.5 176.5 181.5 186 189.5 192.9 196 197.8 198.1 200.4 203.4 208 214.3 222.4 229.5 237.2 243 248.1 252.8 256.3 260.8 265 268.3 273.8 277.9 279.8 280.4 282.2 273.7 264.1 253.6 241.7 228.7 225.4 217.7 207 197.4 189.6 184.6 180.9 178.8 176.2 177 177
18.3 17.9 17.6 17.7 22.2 33.5 56 72.8 72.7 70.6 68.8 69.7 67 49.4 67.2 81.9 96.5 104.2 111 119.5 132.6 138.3 141.8 142.9 142.3 141.3 149.2 151.4 153.2 158.6 164.9 163.5 156.8 150 138.3 125.5 114.6 107.2 106.8 107.6 107.1 108.7 115.2 117.7 121.7 120.9 123.4 127.5 131.2 138.3 145 149.2 153.8 160.2 162.5 160.2 155.1 148 140.2 130.7 121.8 110.8 96.3 87.3 84.6 83.3 81.6 80.1 79.5 79.7 79.6 79.6 79.1 79.3 79.6 79.4 76.6 79.5 83.1 86.5 90.5 95.4 100.5 104.1 104.1 101.4 98.6 92.5 88.1 84.5 81.3 77.3 82.6 83.6 84.3 85 83.2 80.1 78.1 77 74.9 71 69.4 69.2 69.9 71.2 73.1 75.8 73.1 72.1 74.1 78.3 79.8 81 81.9 84 87.7 91.5 97 101.3 107.1 112.3 116.3 120.1 124.1 127.8 129.2 130 130.1 129.3 130.5 130.5 129.5 128.5 124.1 121.6 115.2 108.5 103.3 103.6 105.2 109.5 115.9 124.3 130.1 135.4 140.4 145.5 151.4 156.6 160.6 163.3 166.6 170.2 170.4 170.4 174.2 178.5 183.2 187.2 190.8 194.3 198.2 199.5 200.8 201.8 203.4 206.3 210 218 226.2 236.4 243.8 248.9 253.1 258.5 262.9 268.9 271.5 275.1 275.1 275.6 267.7 257.7 247.2 236.3 225.5 214.2 203.9 199.6 193.2 183.3 176.5 173.3 172.6 170.4 170 172.2 177.1 183.2
17.9 18 18 18.4 18.2 25.8 43.3 51.7 48.4 49.6 45.2 46.6 42.7 47.6 57.7 75 101.9 106.7 114.5 124.8 140.6 144.8 146.5 144.8 140.1 139.6 141.5 149 151.9 154.4 155.2 155.5 152 145 131.9 115.9 105.4 100.9 102 102.1 98 107.8 111.9 117.2 122.4 129.4 136.9 134.5 131.5 133.4 147.4 149.9 154.5 162.8 160.9 155.5 148.2 141.3 133.3 124.6 115.2 100.6 86.2 82.4 79.6 77.9 78.1 76.4 75.1 75.7 76 75.8 75.3 74.7 73.9 72.5 73.8 77.4 81.2 87.3 91.1 95.3 99.2 103 103.1 99.4 94.8 89.9 86.4 83.3 78.8 74.5 78.3 78.4 78.8 76.9 76.1 74 72.8 72.4 70 67.7 68.1 68.1 68.5 68.2 65.8 65 67.4 69.1 70.3 71.4 72.2 75.3 77.2 78.2 78.9 83.5 86.7 91 95.5 100.2 104.3 108.8 113.1 116.8 117.9 117.7 118 116.7 116 116.7 115.2 113.4 109.2 107.2 101.8 99.3 100.1 102.7 106.4 111.4 117.6 126.4 132.6 137.9 143.3 148.9 154.4 159.4 164.1 167.7 171.5 175.3 177.4 177.3 179.5 181.6 184.4 186.9 190.8 194.9 198.4 201.2 203 203.9 204.6 206.8 209.9 214.5 222.7 231.2 239.7 248.1 251.2 256.7 261.1 267.6 272.6 273.4 262.3 254.9 243 231.7 220.5 210 199.5 191.2 183.8 178.8 172.9 169.2 166.8 168.4 165.7 168.3 172.8 177.2 183.7 193.3
18.2 18.3 18.4 19 19.3 18.5 18.9 24.9 22 25.4 34.3 36.2 35.5 43.8 48.1 64.4 92.3 107.1 117.4 127.8 145.7 144.8 145.4 143.8 139.9 139 141 146.9 150.5 150.7 150 149.4 146 137.6 124.8 108.2 96.6 95.4 96.4 92.4 100.9 105.5 108.1 114.3 126.3 135.1 139.7 135.5 122.8 126 138.5 144.9 150 155.7 152.3 147.5 143.2 137.7 130.1 117.4 103.1 91.9 82.7 78.4 74.7 73.4 73.9 72.9 70.8 71.6 71.7 72 71.5 68.6 64.5 71.8 75.3 78 80.2 87.5 90.6 93.9 97.9 101.7 100.4 98.1 93.9 89.1 84.5 81.6 77.2 70.4 74.2 74.1 73.7 70.9 69.4 69.9 69.4 68.7 66.9 66.7 67.3 67.8 67.1 65.6 66.2 68.1 71.3 75.2 76.9 77.7 78 80.6 82 82.1 81.5 80.1 80.1 81.9 86.2 89.9 92.2 96.2 100.3 103.5 105 105.5 105.8 103.7 103.7 103.6 101.7 101.4 99.7 99.1 98.1 99.8 101.5 103.9 107.1 111.6 116.5 123.6 131.8 137.8 145.8 151.2 156.6 162.1 166.7 170.9 174.7 178.9 181.3 182.3 184.1 185.8 187.5 189.4 192.5 196.7 201.4 204.9 206.7 208.8 211.3 213 214 218.4 223.2 229.4 237.1 244.7 249.9 252.1 254.7 259.3 259.9 251 241.6 231.3 219 208.2 196.4 186 178 173.2 168.2 166.1 162.7 159.7 159 162.1 168.5 172.6 179.5 187.3 199.2 210.4
18.4 18.4 18.7 18.9 19.1 18.9 18.3 18.6 20.2 20.4 20.7 27.6 35.2 38 43.4 58 84.3 106.3 118.2 126.9 135 142.7 144.8 142.3 140.2 140.1 143.6 150.4 150.7 153.4 152.5 151 146.5 132.8 116.5 102.1 91.9 90 87.3 88.3 97.1 101.6 106.3 113.8 127.4 135.8 136 127.7 117.6 114.7 123.3 136.6 146.4 149.3 142.7 140.8 141.9 138.1 127.8 109.6 91.1 82.7 78.7 75.3 72.5 69.8 70.8 69.6 68 67.7 67.5 67.9 66.2 61.4 72.1 74.6 76.4 79.5 82.4 85.8 88.3 90.8 95.3 97.6 97.3 95.9 93.3 89.2 84.2 80.4 77.1 71.6 67.9 69.6 68.1 66.9 65.8 65.7 65.5 64.8 64.7 65.1 65.4 66.1 64.9 64.9 65.6 69.4 73.7 77.7 78.9 81 83 84.8 85.7 86.6 87.1 87.7 86 85 80.8 83.4 86.6 88.9 91.4 93.1 93.7 94.9 95.9 96.2 95.6 95.3 97 97 97.5 97.2 97.8 99.8 101.8 104.2 106.1 109.3 114.9 120.3 127.4 134.4 142.3 148.9 155.1 160.1 166.5 171.5 175.9 180 183.4 185.5 187.3 189.1 190.4 193.2 197 201.6 206.9 211.7 213.8 216.3 220.2 223.9 224.7 228.9 234.4 240.6 248.7 249.6 250.3 248 245.8 246.9 238.6 229.7 220.5 208.8 197.4 186.1 176.1 168 165.3 163.8 161.8 155.5 156 160 164.6 169.2 174.3 180.1 186.3 197.5 214.3 227.2
24.1 18.3 18.8 22.5 19.4 19.3 18.7 19.1 19.9 20.7 20.5 23.5 31.7 33 39 53.9 80.2 101.7 115.4 120.5 128.5 138.8 140.6 138.4 137.6 140 138.8 151 156.9 158.7 157.9 161.1 147.3 129 111.1 96.7 87.2 81.2 77 89.2 92.5 97.5 103.6 114 127.7 131.6 130.4 117.1 109.1 105.1 115.2 133.1 138 138.6 133 133 130.7 127.3 114.8 100.5 82.9 77.2 73.1 70.4 68.2 65.9 66.5 64.1 62.3 60.9 62.5 62.4 60.7 62.2 69.4 72 73.4 75.3 78.7 81.4 84.2 86.8 89.5 91.5 92.6 92.4 90.9 87.3 82.1 78.4 74.8 71.2 65.9 65.7 64.8 63.8 62.5 62.3 62.4 62.6 63.5 63.8 63.6 63.1 63.1 65 66.8 70.8 74.7 77.5 80.8 83.3 86.1 87.8 89.5 90.9 93.7 94.2 94.1 92.3 89.9 86.7 83.2 84.2 86.4 87.6 89.3 90 92.5 92.7 92.5 93.5 94.3 94.7 95.6 95.8 98.5 100.3 102 103.8 105.9 108.2 112.9 117.4 124 130.5 138.1 145.3 151.7 156.9 162.7 168 172.9 177 181.1 184.8 187.7 190.5 192 196.2 199.9 206.1 212.5 216.7 221.3 225.4 229.2 231 232.5 237.9 243.8 249.3 251.1 252.7 254.7 243 234.8 226.1 216.8 207.2 199.3 188 176.6 165.6 158.3 156.9 156.5 155.4 154 153.8 160.7 163.1 172.1 178.1 183.7 189.7 195.1 212.4 229.5 245.4
28 25.8 25 24 21.9 20.3 19.5 19.8 19.7 20.8 20.7 20.2 28.7 31.5 36.7 48.6 67.8 93.7 106.4 114.7 125.6 134.9 135.3 132.2 130.4 132.5 135.9 149.8 154 162 160.7 157 146.3 128 109.9 94.7 83.6 72 77.2 83.7 87.8 97.3 104.7 116.2 120.8 120.1 116.1 106.2 98.3 100.6 115.8 128.8 133.1 131 124.4 121.3 117.2 109.6 101.1 88 76 72 68 65.5 63.3 62.5 62.1 59.6 58.6 58.1 58.4 58 56.7 58 62.8 66.2 68.6 70.1 73.3 76.5 79.3 81.6 84.4 86.7 88.3 89.8 87.2 82.8 79.2 76.3 72.7 69.1 65.4 62.2 63.2 60.8 59.4 59.5 60.1 60 59.6 60.7 62 63.7 63.9 65.9 67.4 69.5 73.6 77.2 81.1 84.1 87.2 90.5 92.5 94.7 96.5 96.6 97 95.8 92.5 92.7 92.5 84.5 84.6 85.9 87.2 89.5 91.5 91.5 91.1 92.3 92.7 92.8 94.2 95.4 98.3 100.5 102.7 104.9 106.8 108.8 111.3 116.1 119.5 124.9 131 137.5 144.7 148.7 154.8 160.1 166 172 176.1 180.4 184.7 189 192 195.7 200.1 206.5 213.6 218.8 224.9 228.3 230.3 233 236 240.8 245.7 250.1 252.3 253.7 243.8 227.4 214.9 204.8 194.8 184.7 175.9 164.2 157.4 150.7 148.3 147.4 147.6 147.8 152.1 158.2 164.7 168.5 177.7 191.6 195.5 200.6 205.4 226.7 245.8 262
28.5 24.8 25.1 23.2 21.5 21.1 20.4 20.9 20.6 21.2 20.9 22.1 27.1 30.1 36.5 44.4 60.7 83.8 104.6 112.4 122.7 127.4 131.9 128.8 125.1 126.6 130.7 143.3 148.4 158.9 156.5 150.4 141.2 123.9 106.5 92.2 78.8 60.7 74 78.6 84.2 97.1 109.7 118.9 114.4 108.9 99 94 88.3 93.7 117.6 122.6 125.5 124 117.3 112.5 107.2 98.7 88.4 79.6 69.2 66 63.2 60.9 58.9 59.4 59.1 57.7 56.1 55.7 55 54.4 53.7 54.6 56.5 60.7 63.3 64.8 68.1 71.8 75.6 78.3 80.9 81.5 82.6 83.8 81.9 78.1 76.3 74 70.6 67 63.3 60.1 59.9 58.4 56.4 57 57.6 58.1 59.6 60.4 62.9 64.4 66.5 68.9 68.7 70.3 72.8 76.8 80.8 84.1 88.3 91.8 95 97.4 98.8 98.7 98.8 96.9 94.8 95.5 96.2 91.4 86.6 85.6 86.6 88.5 90.5 90.6 90.7 91.6 91.5 93.1 95.1 96.5 98.6 101.5 103.8 106 108.2 110.2 112 116.3 120.8 124.6 127.9 130.8 134.8 139.7 144.9 151.5 157.8 164.3 169.7 175.1 179 184.3 188.5 192.9 198 205.5 213.7 219.4 224.5 228.7 231.2 233.3 238.7 242.9 246.6 251.7 255 243.5 226.3 209.1 194.9 183.3 172.9 164.5 157.8 148.2 143 142.1 142.8 148 149.9 153 160.6 168.1 173 180.5 191.5 206.5 208.1 212.7 219.8 241.5 261.3 280.7
27.8 29.7 27.9 25.2 23 21.4 20.5 21.1 20.8 20.6 20.3 28.2 28.1 29 35 43.3 62 85 99.3 108.1 115 125.3 131.9 128.6 123 123.4 127.4 137 141 142.3 139.5 135.1 128.7 113.8 100.9 89.2 76.9 57.7 68.7 73.8 81 95.6 110.7 113.3 107.4 97.7 85.7 79.4 79.2 90.6 112.3 117.2 118.5 115.1 109.6 105.9 99.3 87.5 76.4 69.7 63 61.3 58.7 57.4 56.3 56.9 55.7 54.5 53.7 54 52.9 52.3 52.1 52 52.5 55.3 57.6 61.1 65 69.4 71.7 74 76.1 77.2 77.3 77.9 76.2 76 73.5 71.6 68.5 64.7 61.6 59.4 57.8 56.2 55.9 58.1 56.1 59.2 61.4 61.9 64.1 66.4 68.6 70.3 72.1 74.6 75.2 77.1 80.4 84.3 88.8 93.4 97.1 100 99.9 99.7 99.5 98.2 96 94.9 94.3 91.8 90.9 87.2 87.4 88 89.5 90 90.2 91.8 93.4 94.7 96.2 98.6 99.6 104.3 106.8 109.3 110.6 113 113.8 118 120 124.5 127.6 128.4 132.2 135.8 139.4 141.8 147.9 153.5 159.4 165.6 171 175.6 179.7 187.9 195.9 204.3 211.5 218.7 223.8 229 232.5 234.9 240.3 246 249.4 252 249.3 231.5 212.2 195 177.1 162.4 152.7 145.2 139.7 139.2 139.5 143.7 147.6 152.8 155.8 160.7 168.8 179.1 187.5 196 209.3 222.8 226.8 231.2 235 257 272.9 286.9
29.2 33.7 33.6 29.2 24.3 21.5 20.7 20.6 20.6 20.6 21 20.1 20.7 21.3 29.3 46.1 68.2 85.3 98.1 103.4 108.5 120.7 131.7 127.7 121.8 119.9 119.4 127.8 132.2 129.3 124.2 118 113.2 101 91.9 83.4 70.8 55.3 63.5 68.9 73.5 91 107.1 99.5 92.2 85 77 71.9 72.4 81.4 107.5 114 111.7 106 100.2 96.3 87.9 75.4 67.5 62 57.9 56.1 54.7 53.9 54.1 53.6 52.5 51.2 52.6 54.3 54.1 51.1 49 49.7 50.4 51.9 54 57.8 62 63.9 65.9 69.2 71.3 72.9 73.1 73.2 73.7 74.5 71.8 68.6 65.2 62.5 59.5 56.9 55.5 53.7 58.6 59.9 61.3 62 62.9 64.6 66.1 68.4 70.5 72.7 74.5 79.2 80 79.7 82.8 85.2 89.8 94.7 98.8 99.8 101 100.7 100.3 99.6 98 95.6 93.2 92.2 90.8 90.5 90.3 90.7 91.4 91.2 92.2 94 96.1 98.2 100.9 104.8 115.3 120.3 119.6 123 124 120.3 118.2 123.2 127.1 129.6 134.2 135.4 136 136.4 139.3 140.6 145.5 148.6 151.3 156.4 162.4 167.5 173.1 180.5 188.9 196.8 205.2 212.7 219 228.1 232.5 237.1 241.3 245 247.1 248.7 236.1 217.3 196.4 176.5 157.8 148.1 138.8 136.6 137.7 139.9 144.7 149.8 153.7 162.1 171.7 180.2 191.4 201.3 211.7 222.3 233 241.8 246.8 245.9 242.6 260.6 281 292.7
32.2 35.4 35.7 32.4 27.3 22.2 21 20.4 20.3 20.4 21 21.8 20.7 22 21.6 40.1 64.9 83.6 91.6 89.5 97.4 109.9 125.7 125.6 121.5 118.4 120.9 124.4 124.7 121.3 112.1 103.5 98.2 88.5 81 74.1 60.8 47.9 52.9 61.4 65.8 73.4 90.2 81.4 72.8 66.8 62.9 62.7 63.7 72.8 101.1 107.3 106.1 97.5 89.8 79.6 68.9 61.9 58.5 55 54.3 53.4 50.9 51.7 52 50.7 50.1 49.2 50 50.7 51.7 50.8 49.8 48.5 48.8 49 51.3 53.6 57.4 59.9 62 64.5 66.5 68.5 69 69.4 70.1 69.9 67.8 64.1 60.6 58 55.7 55.5 53.7 55.9 59 59.8 60.5 62.3 64.9 66.7 68.8 70.8 72.6 75.1 77 81.4 83.6 84.4 85.2 85 88.9 94.8 99.2 101 102.7 104.3 103.3 101.2 101.3 100.8 99.6 95 94.7 95.3 96.2 96.4 97.7 100.9 96 97 102.2 106.5 109.2 117.3 131.1 139.9 140.6 141.5 138.6 129.6 120.8 129.6 134.9 140.2 144.7 144.3 143.7 143.5 145.9 147.7 150.6 151.7 153.9 157.6 162.2 167.1 170.8 178.6 184.3 191.1 199.1 207.4 215.8 223.6 230.4 234.3 237.8 240.1 237.9 230.9 217.3 200.7 182 161.3 145.9 135.5 134.4 138.1 142.1 146.8 152.4 158.4 167.9 178.6 191.4 204.4 215.9 225.8 234 243.1 249.5 254.4 257.1 261.6 264.1 266 267.4 280.2
34.9 36.8 36.8 34.3 30.2 25.1 22.3 20.7 20.9 20.6 20.9 21.3 23 22 22.5 35.1 59.4 75.4 75.7 76.8 90.9 104.7 115.1 116.5 113.4 117.3 117.6 122.7 126 114.8 102 91.7 85.7 80.4 71.6 65.4 55.9 46.9 38.6 51.9 57.6 66.6 75.1 68.3 57.8 55.2 56 55.9 55.8 64.4 90.4 100 92.7 80.6 70.8 60.5 56.2 52.8 50.7 49.6 50.7 52 48.8 49.3 49.3 48.3 47.8 47.7 48 48.4 48.7 48.3 47.9 47.4 47.3 47.6 49 50.2 51.7 54.4 59.2 60.4 61.7 63.3 64.9 65.2 65.3 63.8 61.7 58.4 55.9 54.5 53.6 54 55.1 56.7 58.7 59.3 61.2 63.2 65.5 68.8 72.7 75.1 78.3 78.5 79.4 83.1 85.4 86.6 88.2 89.8 91.2 92 97.5 101.8 105.9 108.4 109.4 109.4 106.6 107.6 110.3 111.4 107.3 106.9 108.1 106 106.4 110.1 105.8 108.9 113.4 120.3 118.6 129.8 144.4 152.5 153.9 153.3 146.7 134.8 129.7 133.9 140.4 147.3 152.6 155.3 152.6 152.5 153.8 155.3 157.7 160 162.3 166.3 169.9 172.1 178.4 184.5 191.9 198 201.2 207.5 212.9 219.4 225.4 230 232.9 230.2 224.9 214.6 200.2 183.4 165.5 147.6 134.6 132.6 138.2 143 147.7 153.4 161.2 170.7 183.5 196.3 211.1 226 238.3 244.2 251.2 258.3 264.7 268.2 269.7 272 275.9 278.4 279.9 283.3
38.3 38.3 37.8 35.4 32.9 28.9 27.1 24.6 22 20.9 20.7 21.2 21.4 22.2 22.6 33.4 59.7 68.5 62.4 66.9 81 99.1 109.7 108.7 103.5 112.5 110.4 118.2 122.9 113.6 99.4 83.9 71.5 64.2 58.9 53.4 48.6 38.9 34.3 40.9 41.3 45.5 52.4 49.8 40 37.3 47.6 46.5 47.6 52.9 68.7 75 72 57.4 52.7 48.4 42.3 39.7 39.2 40 41.3 48.9 47.4 47 46.7 46.2 45.6 46 46.3 46.6 46.5 46 45.6 45.4 45.8 46.3 46.7 47.9 48.8 51.5 55.7 57.8 59.2 60.6 61.9 62.3 60.8 58.5 54.5 51.5 52 52 53.1 55.2 56.8 57.9 59.3 60.6 62.4 64.7 68 71.9 77.5 82.4 88.6 86.9 89.3 88.3 88.5 90 91.4 92.2 93 93.5 92.5 99.1 109.4 110.9 112.7 112.2 113.3 114.4 115.2 115.5 115.5 115.3 117.8 116.2 114.4 115.2 118.2 123.6 129.3 137.1 130.8 139.7 151.5 159.8 161.2 160.4 153.4 139.7 132.2 137.2 144.7 150.8 156.4 160.7 161.2 161.3 162.4 163.9 166.1 168.6 172 178.4 183.8 186.3 187.3 193.2 200.3 204.5 204.5 206.6 210.4 214.6 219.2 224.7 222.9 218.4 208.2 196.6 178.3 163.3 148.6 135.8 127.6 134 143.1 148.6 154.1 160.6 169.8 182.5 196.2 210.9 227.9 241.6 249.9 257.5 263.2 271.8 276.6 280.3 281.2 282.7 285.8 286.9 288.8 293.6
42.3 41.5 39.6 36.9 34.5 33.2 30.4 28.3 24.7 21.2 21.1 21.1 21.3 21.5 20.8 29.8 49.8 56.5 51.3 55.9 70.5 90.6 108.9 102.8 93 95.4 86.9 108 105.4 101.8 89 71.2 57.7 49.2 45.7 40.8 32.4 31.7 29.6 27.2 25.4 25.7 31.7 29.1 26.6 28.1 28.7 29.5 32.1 41.7 48.7 57.4 48.8 41.4 32.3 28.5 29.9 29.2 30.8 33.7 36.6 45.5 45.6 45.3 44.8 44.5 44 44.4 44.5 44.8 44.4 44.1 43.7 44.1 44.5 44.9 45.3 45.8 46.4 48.2 51 53 54.7 56.5 58.3 58.2 56.7 53.6 49.6 49.8 51.2 53.4 54.6 56.1 58.9 60.6 62.3 64.3 65 68.1 71.9 77.7 84.9 91 94.3 98.3 100.6 98 92.8 94.4 95.3 95 95.7 98.2 97.7 95.3 100.9 104 106.8 111.6 114.4 115.2 116 117 118.2 119.8 122.4 123.4 122 122.4 126.8 133.4 140.2 147.4 144.5 146.1 156.1 163.3 164.5 164 158.9 142.5 135.6 139.3 147.8 153.7 158.3 163.2 166.7 169 171.2 171.2 172 176.5 180.1 188.6 195.4 195.4 193.7 197.6 208.5 209.6 208.3 209.5 210 211.5 214.3 214.6 211.1 202.8 189 175.6 160 147.3 134.9 127.4 131.2 138.8 146.9 153.4 159.5 169 181.1 193.1 208.7 226.1 240.9 252.6 260.3 266.4 274.5 282.2 286.3 289.8 290.8 292.4 295.3 296.6 299.2 302.1
47 44.6 42.8 40.2 40.7 37.9 34.2 29.8 26 22.5 21.3 21.4 21.6 22.2 22.3 21.5 29.8 41.2 40.6 42.6 56 76.4 102.1 93.5 83.2 76.7 80.7 92.8 89.5 76 63.9 50.6 44 37.6 30.2 24.4 24.7 24.9 27 26.9 27 26.6 27 26.8 27 27.4 28.2 28.6 28.4 28.2 28.8 28.3 28.8 28.6 28.7 28.9 29.6 30.1 29.3 30.5 32.7 39.8 43.6 43 41.2 41.7 41.6 42.1 42.9 42.7 42.3 42.4 42.7 43.2 44.2 44 43.9 44.4 45.8 46.7 47.9 48.7 50.2 51.6 52 51 50.2 48.7 49.1 50.7 52.6 54.9 56.6 59.1 61.8 63.6 65.6 67.2 69.9 73.3 78 85 92.9 99.1 102.3 103.7 106.8 107 101.3 98.6 99.6 99.6 99.3 99.7 100.3 98.7 99.8 103.1 106.6 111.2 114.6 116.4 118.3 121.2 121.4 122.5 125.5 127.2 128.4 131.4 135.8 142.5 148.4 153.8 152.2 155.7 162.4 167.2 167.9 166.9 159.6 144.6 139.3 140.7 145.8 152.3 158.2 162.3 166.7 170 171 172.3 177.7 182.1 188.3 193.9 197.7 197.5 195.4 198.4 206.6 209.2 208.5 209.1 209.4 211 211.3 208.5 197.4 183 169.3 155.7 141.4 130.9 124.8 131.4 138.3 144.4 152.2 157.9 165.8 177.3 189.7 205.3 221.7 237.8 250.8 261.3 268.7 275.4 283.7 291.9 293.9 296.8 300.6 301.3 303.9 305.8 308.7 308
49.7 48.5 45.6 46.7 48.4 44.7 36.3 32 27.3 24 21.5 21.7 22.1 22.7 22.5 21.4 21.9 22.3 25.5 30.9 40.9 60.3 93.8 88.2 75.4 59.4 68.7 76.7 64.4 55.3 44.6 33.4 29.5 26.9 24.5 25.8 25.8 26.2 26.8 27 27.1 27.1 26.2 26.4 27.5 27.9 27.7 28.9 28.9 28.8 29.2 28.8 28.8 28.7 28.8 28.9 29.4 29.9 30.8 29.6 31.2 32.2 33.2 34.8 36.1 35.1 35.2 37.3 40.6 40.7 41 40.7 42 43.5 44.3 44.3 44.3 44.6 45.3 46 46.6 47.1 47.9 48.3 48.9 47.1 47.3 48.8 50.5 52.5 53.9 56.2 58.7 61 63.6 66.9 68.8 70.4 73.7 78.7 84.7 92.3 99.9 106.7 108.3 108.9 112.6 111.9 108.3 106.1 104.9 104 103.4 103.3 102.6 101.3 103.4 105.5 108.1 112.5 116.7 120 123.1 126.2 126.4 128.5 131 133 135.6 138.6 143.9 150.9 156.2 159.2 159 160.4 168.7 170.9 170.1 166.6 158.4 146.9 142.4 142.4 142.9 147.4 153.2 158.3 162 164.9 167.4 169.7 174 179.5 186.1 190.5 192.4 192 191 195.9 201.5 203.8 204.6 206.1 208.1 210.4 209.1 200.3 184.1 166 148.4 135.7 126.7 122.5 127.8 136.1 140.9 146.8 154 161 170.3 182.5 197.2 214.5 231.9 247.3 258.9 268.4 275.1 280.4 288.2 294.8 298.3 301.3 304.2 308.2 310 310.8 313 312.2
52.5 53.1 52.1 55.6 54.6 50.7 43.6 31.9 27.9 25.2 22.9 21.8 22.1 22.4 22.1 21.9 21.4 22.2 22.6 22.4 33.3 54.2 85.7 84.9 69.8 47.9 58.8 61.5 49.3 42 26.5 25.8 23.8 25.4 25.6 25.6 26.6 27.9 26.9 28.7 28.8 26.4 27 27.1 27.2 28.6 28.1 27.6 28 28.8 29.6 29.1 28.6 28.8 28.9 29 29.5 30 30.9 31.4 31.7 31.4 31.6 32.1 32.7 33 34 35.7 37.9 39.4 39.6 39.3 40.9 41.9 43 43.4 43.7 44.1 44.8 45.5 45.9 45.9 46 46.1 44.5 46.6 48.4 50 51.2 53.3 55.3 57.7 60.3 62.6 65 68 72.2 75.1 79.4 84.4 91.2 98.9 106.9 113.9 115.2 115 115.7 114.9 113.2 111.4 110.6 109.9 107.9 106.8 106.3 105.3 107.1 110.7 113.3 117.7 121.4 125.4 128.1 131.3 133.1 135.7 138.1 140.4 143.5 147.7 151.4 155 159.5 163.8 162.6 163.5 167.7 171.4 170.6 164.8 156.7 149.5 146.9 146.9 148.3 148.7 149.4 152.2 156.4 160.4 162.7 166.1 170 176 181.3 185.7 187.9 187.7 187.7 192.6 196.1 198.7 200.8 201.7 205.4 207.3 204.8 191 171.1 152.2 136.7 128.4 121.2 125.6 133.8 135.7 139.6 147.2 154.7 162.9 172.6 186.1 201.3 218.2 237.6 254.1 264.2 272.6 279.1 284.9 291.3 297.9 301.8 304 306.7 311.7 312.6 312.8 313.7 313.3
56.9 57.4 56.9 59.2 59.3 55.4 51.6 39 28.7 26 23 22 22.2 22.1 22.1 22.2 22.1 21 22 23.3 27.7 49.6 80.4 79.4 61.2 38.3 39.4 41.2 36.4 27 24.9 25.5 25.4 25.7 26.1 26.2 26.4 26.6 26.8 26.8 26.5 26.7 27.5 28.9 28 28.4 28.5 27.3 28.4 28.7 29.8 29.7 29.5 29 29 29.1 29.6 30.1 30.8 31.4 31.7 31.6 31.6 31.7 32 32.5 33.7 34.6 36 38.1 38.8 39.4 39.2 40.1 41.8 42.5 43 43.6 44.2 44.3 44.2 44.8 44.9 44.8 45.6 47.7 49.4 50.4 51.4 53.1 56 59.4 61.9 64.8 68 71.2 75 80.5 85.9 91.9 98.8 106.5 114.2 119.9 121.5 120.9 120.5 119.9 118.5 117 115.8 113.4 111.8 110.3 109.6 109.7 108 113.9 117.5 120.2 125 129.9 131.9 134.2 139.5 143 146.2 148.9 152.2 154.9 156.8 158.6 161 164.2 164 164.2 165.3 167.6 168.6 166.3 160.4 157.9 154.9 153 153.9 154.4 156 154.1 154.9 158 160.6 164 168.3 171.9 176.3 180.9 183 182.3 184.4 191.1 192.9 194 194.7 196.6 200.6 203.4 198.5 181.8 160.8 143 133.9 128.7 119.3 127.8 133 132.7 138.7 144 152.5 161.5 172.1 188.9 203.6 219.8 238.6 253.8 266 274.7 281.6 288.6 295.7 301 303.5 305.6 307 310 309.3 310.4 310.3 307.7
60.9 60.5 60.8 63.2 62.2 61 58.3 49.3 34.1 25.4 23 22.1 23.1 22.3 22.4 22.4 22.5 22.6 23.8 21.4 23.8 39.2 53.1 59.5 42.9 24.9 25 25.5 25.7 23.5 24.9 25.6 25.4 26 25.7 26.2 26.6 26.8 26.8 26.6 26.7 28.3 28.3 28.3 29.3 30 30 27.3 28.6 29 29.2 28.4 29 30.3 29.9 29.4 29.7 30.2 30.8 31 31.2 31.6 31.7 31.8 32 32.2 33.4 34.9 35.3 36.3 36.7 37.8 39.3 39.9 40.7 41.4 42.2 43 42.8 42.4 42 42.2 43 44.3 47 48.6 49.2 50.5 51.5 53.3 56.8 60.2 64.1 67.8 71.3 75.3 79.4 85 91.5 98.3 107.9 115.2 122.6 126.3 128.5 126.9 125.9 126.1 124 122.3 120.8 117.7 116.2 116.3 113.1 112.7 111.3 113.7 118.8 122.9 126.7 130.7 133 136.1 141.7 146 150.1 155.2 158.5 161.4 163.7 166.1 167.7 170 169.1 165.8 166.1 166.5 167.3 167.1 165.8 165.4 160.8 159.3 158.8 158.5 158.3 158.3 157.4 158.7 159.2 162.3 165.6 168.9 173.1 177.4 179.3 176.7 181.1 189.1 188.2 187.3 183.2 184.7 191.8 193.3 186.4 171.6 150.7 131.5 130.3 125.3 117.8 122.6 128.6 130.7 138.4 145 153.5 165.7 178 188.6 204.1 218.9 236 252 264.7 271.9 281.4 290.6 298.4 300.9 302 302.6 299.7 296.3 292.7 293.4 294.4 292.2
64.5 65.1 66 65.9 65.5 65 63.5 58.3 42.2 29.5 22.9 22.8 23.3 22.1 22.5 22.7 22.7 22.7 23.2 23.6 23.6 22.3 26.6 30 25.1 25.1 24.6 22.6 22.9 24.7 25.1 25.7 25.8 25.8 26 26.4 26.8 26.7 26.6 26.9 28.2 29.1 29.9 30 30.7 30.6 29.3 29.6 30 28.1 29.4 28.8 30.6 29.5 29.6 29.9 30.4 30.5 30.6 30.7 30.9 31.9 31.9 31.9 32 32.2 32.7 33.5 34.1 34.8 35.3 38.6 39 39.3 40.1 40.9 41.8 42.3 41.8 41 40.5 41.5 43.1 45.4 47.4 47.8 48.8 50.1 51.5 54.4 57.4 60.9 64.8 68.4 72.8 77.9 83.5 89.1 96.3 105.2 115.9 122.8 130.8 133.6 134.8 134.1 133.2 132.2 129.9 127.7 127.5 124.8 122.8 122.3 119.4 116.7 115.8 114 118.7 121.2 125.9 131.4 133.4 137.4 141.7 147 152 157.4 162.8 167.3 170.8 173.3 174.9 177.5 176.5 173.4 172.4 170.6 169.1 168 167.5 167.1 167.6 166.4 169.4 169.2 165.2 162.4 159.8 159 159.8 162.1 165.5 168.9 171.4 173.7 170.8 170.6 178.6 185.5 181.9 176.2 170.5 175.8 181.2 178.1 170.5 159.2 140.6 125.2 123.4 118.2 116.1 128.3 131.1 135.6 144.4 153.3 165.9 178.9 191.2 204.1 211.2 220 236.2 246.8 256.6 268 278.4 289 295.7 296.2 294.5 287.5 275.9 267.7 264.3 264.1 264.9 265
68.6 68.5 69.5 70.7 69.3 67.6 68.1 64.7 55.7 35.9 26.6 24.3 22.4 22.2 22.6 22.6 22.6 22.9 23.4 23.8 23.8 23.7 24 23.3 22.1 23.6 24.8 25 24.9 24.9 25.2 25.8 26 26.1 26.4 26.2 27 26.7 26.3 27.3 28.3 29.3 29.8 30.7 31.5 31.8 29.2 30.4 30.9 29.6 30.3 30.6 30.9 30.7 29.5 30 30.5 31.1 31 31.1 31.5 32.2 32.1 32 32.1 32.4 32.9 33.4 34 34.7 34.9 37.7 38.6 38.8 38.4 40.2 41.1 40.7 39.6 39.7 41.6 43 45.2 46.4 47.3 47.9 48.5 49.5 51.2 53.9 57.5 63 68.7 73 77.8 81.8 87.6 94.2 101.1 112.1 121.4 129.7 136.7 138.8 140.9 139.9 138.9 137.3 135.5 134.9 135.2 133.1 131.4 129.6 125.8 121.9 119.8 120.4 120.3 120.4 123.9 130 133.5 137.9 143.3 148 152.7 157.4 162.2 167.8 172.3 175.8 178.8 180.9 180.9 179.1 178.6 174.5 173.9 172 170.6 168.7 168.5 171.1 174.7 173.1 170.1 166.4 161.8 160.3 161.3 163.6 166.3 167.5 170.6 168.4 165.1 165.1 172.5 175.8 171.8 164.1 157.7 162.5 165.2 158.9 152.6 143.4 131.1 121.8 116.5 112.4 127.5 131.6 136.5 142.3 150.3 164.1 177.3 189.6 202.2 217.5 230 227.6 235 243.5 253.8 262.5 271.5 281.9 287.4 278.8 272.9 261.6 250.6 241.8 237.1 237.1 237.1 239.8
74.5 72.8 74.6 73.8 72.5 69.4 67.3 66.6 63.6 44.9 34.5 29.8 25.7 22.8 22.6 22.6 22.7 23.2 23.5 23.6 23.7 23.6 24 24.1 24.2 24.7 25.6 25.1 25.1 25.2 25.3 25.8 26.1 26.3 26.5 26.6 26.5 26.3 26.4 27.6 28.7 29.2 29.4 32.2 32.6 32.6 31.3 31.6 32.3 30.8 29.9 30.3 30.5 31 31.1 30.3 29.8 30.8 31.6 31.7 32.1 32.5 32.2 32.1 32.3 32.7 33.2 33.4 33.9 34.1 34.4 34.5 38.3 37.5 38.1 38.7 39.4 39.7 40.1 41.2 42.2 43.4 44.8 45.5 46.8 47.5 48.1 49 51.5 54.9 60 68.9 75 78.5 84.3 87.6 94 100.7 108 120.2 127.1 133.9 140.6 142.6 145.3 145.9 146 144.6 142.6 141.6 142.1 140.6 138.9 138.1 136.4 134.7 131.5 128.8 126.8 124.5 122.8 126.8 131.4 136.1 141 146.6 150.7 154.4 159 164.9 168.1 171.8 177 179.5 179.1 177 176.4 176.7 175.5 174.8 172.3 169.7 168.3 171.1 175.1 175.4 173.4 168.8 163.1 158.8 160.2 162.8 162.7 163.2 161.3 160.5 158.4 159.1 165.7 165 159.6 151.2 143.7 149.2 148.2 142.3 136.6 130.2 122.6 116.2 109.8 122.1 127.7 131.6 139.9 145.9 154 168.9 182.5 195.5 209.3 224 234 237.3 238.7 245.4 252.5 260.5 265.1 274.2 272.4 257.6 248.2 237.1 227.8 220.2 216.8 216.6 219 221.3
79.6 79.4 78.8 77.6 75 71.2 68.5 66.3 64.5 49.9 39.8 35.7 30.7 24.3 22.5 22.6 22.9 23.2 23.4 23.5 23.5 23.6 23.9 24.1 24.2 25.4 26.6 25.3 25.4 25.5 25.6 25.9 26.1 26.6 26.9 32.7 30.6 27.4 27.3 28.2 29 28.9 30.7 34.7 34.8 34.5 29.6 32.4 33.8 33.2 31.2 30.7 30.6 30.2 30.3 30.6 31.4 30.1 29.9 32.5 32.9 33.1 32.6 32.2 32.5 32.9 33.1 33.5 33.7 33.9 34.1 34.2 35 35.4 36.2 38.6 37.9 38.5 40.4 41.3 42.4 43.3 43.9 44.1 45.2 46.8 47.4 47.7 51.5 58.5 67.6 76.7 81.4 86.2 91.7 95.1 100.2 106.5 116.5 125.3 132.9 140.2 144.6 146.4 149.7 150.6 151.7 151 150.4 148.6 147.9 147.5 145.6 145.6 144.8 143.6 141.4 138.5 135.1 130.6 128.5 129.8 131.5 134.4 136.9 142.3 146.7 150.9 156.2 161.2 164.7 168.1 170.7 174.7 175.4 174.5 175.3 176.2 174.2 172.5 169.2 166 164.1 167.7 172.1 174.5 173.6 166 159.8 153.1 153.2 157.3 157 155.5 151.4 149.9 152.4 156.7 159.3 151.2 146.8 139.6 136.8 135 134.4 132.4 128.8 125 120.2 112.8 111.6 121.9 127.2 132.7 140.6 147.3 155.2 169 187.4 199.5 214.2 226.7 238.9 242.7 243.3 249.3 255 258 258.7 262.9 253.3 237.1 225.6 215.3 206.7 202.1 202.2 202.1 206.7 209.3
84.2 84.9 83.6 82.1 78.9 74.6 72.2 69.6 65.1 52.7 43.8 40.4 37.1 29.8 22.5 22.7 22.9 23.1 23.3 23.3 23.5 23.7 23.9 24 24.2 25.8 26.8 25.4 25.5 25.7 25.8 26 26.5 27 43 44.9 44.6 41.5 30.9 28.7 29.3 30.1 30.7 35.8 37 36.1 32.1 33.4 35.3 35 34.1 32.3 31.3 30.4 29.6 30.3 30.7 30.9 31 31.8 30.7 31.2 33.2 32.6 32.6 32.8 33.1 33.5 33.7 33.9 34.1 34.3 34.9 35.7 35.9 37.2 37.1 37.8 40.6 41.2 42.1 43 43 42.9 43.6 45.2 46.5 47 53.2 61 73.1 83.8 90.4 93.4 97.7 100.1 104.8 110.6 120 131.4 139.1 146.3 148.9 150.9 154.3 156.6 156.8 156.2 156.5 155.3 154 154.2 153.1 152 151.4 151.1 149.4 147.6 145.4 142.1 138.9 135.2 136 138.7 138.9 139.8 142.7 147.3 151.4 157.8 162.9 165.5 167.8 170.3 172.5 172.3 174.5 176.2 174.9 169.3 162.2 158.8 158.8 161.8 168 170.9 169.5 161.2 152.3 146.3 145 144.8 143 140.8 139.3 142.9 148.2 154.9 147.4 136.5 135.2 130.8 127.8 127 127.3 126.1 124.2 122.3 120.4 109.5 114.6 122.8 127.1 133.8 141.6 150.4 158.4 175 194 205.1 218.6 233 242.7 245.6 247.4 252.8 256.8 257.5 255.4 248.7 236.2 217.7 204.4 194 190.2 192.1 197.5 209.5 218.3 224.7
89.7 89.9 88.6 86.1 83.3 79.6 76.3 74 68.5 63.3 53.9 47.8 44.1 38.2 27.2 22.7 22.8 23 23.1 23.4 23.8 24 24.1 24.3 24.4 24.4 25 26.6 26 26.3 26.4 26.8 27.2 34.3 42.7 44.8 46.2 43.3 38.1 34.9 30.7 31.9 34.9 37.8 38.9 37.5 33.6 34.9 36.6 36.9 36.6 36.5 36.2 38.5 38.1 32 31.2 31.1 31.3 31.6 31.9 32.1 31.5 31.5 34.2 32.8 33.1 33.5 33.8 34 34.1 34.3 34.9 35.5 36.4 36.7 36.6 36.5 38.4 40.5 41.4 43 43.1 43.1 43 44.2 46 48.1 52.7 62.2 74.8 84.9 91.6 95.6 101 105 108.9 115.4 123.6 134.2 143 148.6 151.6 153.6 157 160.3 161.4 162 162.3 161.8 161.3 160.8 159.8 158.3 157.6 157.7 156.7 155.5 154.3 153.3 150.9 147.5 145.1 144.1 143.1 142.8 142.4 144.8 149 155.1 159.2 161.1 164.6 171 170.6 170.2 171.8 174.3 174.1 168.5 155.2 151.3 152.6 155.7 161.7 161.8 158.4 149.2 140.1 135 132.8 132 129.6 130.2 134.9 140.3 142.9 145.6 135.6 123.7 122.5 122 123.3 122.9 123.2 122.6 120.1 117.3 109.5 104.9 119.8 126.4 131.2 141.8 153.1 159 167.9 181.3 197 210 225.2 239.1 245.5 248.8 253 255.2 254.8 253.4 245.7 232.5 217.8 199.9 184 179.9 182.3 196.4 209.8 223.4 238.2 247.6
93.5 94.1 93.4 91.4 87.5 83.5 80.2 77.5 74.2 69.7 61.8 59.9 50.4 44 38.2 24 22.6 22.9 23.3 23.7 24.2 24.5 24.9 24.8 24.7 24.6 25 27.6 27.3 26.7 27.8 31.8 39 41.6 42.8 43.3 44.8 44.3 44.2 44.8 40 37.5 36.4 38 39.6 38.6 34.2 37.4 38 38.2 38.4 38.9 39.4 40 40.5 40.7 31.9 31.7 31.6 31.6 31.9 32.3 32.4 32.7 33.4 32.2 33 33.9 34.6 34.2 34.2 34.4 34.9 35.5 36.1 36 35.8 35.7 36 36.8 40.4 41.7 42.6 43.2 43.1 43.6 45.4 47.4 51.5 58.2 70.9 82.5 89.4 93.6 98 102.7 111.5 120.1 127.4 135.5 145.9 151.2 153.1 155.4 158.1 162.5 165.5 168.4 168.6 168.7 168.7 168.3 167.2 165.2 164.1 163.9 162.5 161.1 160.3 161.3 159.8 157 155 152.2 149.7 146.5 145.9 147.6 150.1 152 156.1 158.3 161.7 168 170.2 167.2 164 163.8 164.9 160.5 148.6 144.2 144.1 148.2 153.4 153.2 145.9 136.7 129.6 127.2 125.4 122.9 124.5 131.2 136.3 137.1 136.5 133.3 123.6 115 117 116.3 117.9 118.5 119.8 118.5 117.5 106 101.2 114.7 126.4 131.7 139.6 149.2 159.2 170.1 179.1 190.7 206.6 216.6 231 242.3 248.5 253.9 255.4 254.9 251.2 245.2 235 217.1 203.2 185 170 171.1 191.4 203.9 217.6 236.4 256.4 272.2
97.2 98.2 97.7 96.3 92.9 89.4 87.7 85.4 79.7 73.3 68.1 64.4 59.9 52 42.4 38.3 35.6 32.3 28.5 25.5 24.8 25.6 25.8 25.8 26 25.9 26.3 27 31.1 36.6 38.3 39.9 41 42.9 43.8 43.8 44.2 45.6 51.8 57.4 46.5 42.1 39.7 38.8 39.3 38.4 38.6 39 39.5 40 40.7 40.9 41.1 41.5 41.9 42.1 42.7 41.8 43.2 37.9 31.6 32 32.4 32.9 32.9 33.1 33.5 34.2 32.7 34.4 34.9 34.5 34.9 35.4 35.4 35.4 35.5 35.6 35.8 36.1 37 40.3 42 42.7 43.2 43.5 45 46.5 49.2 55 65.7 76.5 84.9 86.5 90.3 96.4 108.8 118.9 125.2 133.2 141.8 151.2 154.6 157.1 159.8 163 166.8 171.2 174.4 174.6 172.9 172 172.3 171.7 170.8 169.8 168.3 166.5 166.3 168.3 168.3 166.4 164.1 161.2 155.5 152.4 149.5 150.8 153.8 156.6 157.4 158.3 161.6 165.9 169.9 164.4 156.1 153.5 149.8 145.3 138.3 136.4 134.6 138.3 143.1 142.8 136.5 125.7 122.5 119.6 118.6 119.1 123.4 129.8 133.1 134.1 130.6 121.9 111.6 109.6 112.2 112.8 111.9 112.6 113.8 111.4 110 99.8 108.7 126.3 134.5 142.3 150 158 170.2 179.8 190.6 204.1 215.2 224.6 234.5 244.4 248.5 253.3 251.2 244 237 228 217.5 203 187.3 169 161.2 182.9 193.5 207.3 224 243.3 262.2 279.1
100.8 102.2 101.6 101.2 98.8 96.7 97 96 90.6 86.3 83.3 80.8 80.6 67.8 54.3 44.7 40.5 39 41.4 35.4 29.8 28.8 27.2 26.8 27.1 28.7 31.4 34.5 38.8 40.8 42.1 43.1 43.9 43.4 41.9 42.8 41.6 46.9 70 69.1 52.4 45.4 41.2 39.8 38.8 38.8 34.8 40.2 41 41.2 41.5 41.9 42.3 42.7 43.2 43.6 43.9 44.2 44.7 44.3 40.5 35 31.8 32.4 33 33.2 33.2 33.5 34.5 35.2 33.9 33.4 37.1 35.7 34.6 35.4 35.4 35.7 35.9 36.2 36.5 37.3 37.3 37.3 37.7 43.5 44.4 45.5 47.4 50.5 57.3 66.3 73.9 79.1 83.6 91.2 104.6 113 120.1 127.3 136.4 145.4 152.7 156.5 160.9 162.4 166.3 171.7 177.5 179 178.4 176.9 176.4 176.3 175.6 174.1 172.8 171.1 169.3 171.6 174 173.4 172.1 168.4 162.8 157.8 155 155.3 156.9 159.9 160 160.2 163.9 165.4 166.7 164.3 157.2 144.4 139.3 133.9 128.1 126.5 124.4 128.3 131.5 130.7 122.9 115.1 113.7 112 112.5 116 120.4 125.1 129.6 130.2 120.7 109.4 104.7 103.8 106.7 105 100.8 98 96.8 96.9 98.2 102.2 121.1 135.6 143.7 152.8 160.4 166.2 177.9 190.3 203 216.8 221.2 227.2 235.2 241.6 242.9 242.2 231.9 221.3 213.2 206 197.4 184.8 171.3 158.5 170.7 180.8 192.4 211.2 228.9 244.5 263.7 278.7
103.8 105.9 106.3 107.8 106.6 106.6 106.3 108.1 106 107.4 109.9 110.1 100.7 85.4 73 57.5 53.2 53.2 53.8 44.6 37.4 34 32.2 32 34.3 36.8 39.5 40.9 41.4 43.9 45.2 44.9 44.8 44 43.2 44.8 45.8 59 79.5 72.8 56.7 49.8 44.4 44.3 43 40.4 36.1 41.1 42.5 42.5 42.5 43.1 43.5 44 44.6 45.4 45.7 46.4 47.2 47.3 47 46.1 44.9 41.4 39.7 38.1 37 37.6 36.3 34.6 34.6 34.8 35.7 33.4 33.7 34.9 35.6 35.8 36 36.4 36.8 37.1 36.9 36.9 37.2 38.2 37.5 38.7 38.7 48.2 51.9 57.5 63.6 68.3 75.9 83.4 95.8 104.9 114.6 123.6 135.2 142.7 147.6 152.9 160 162.3 165.4 172.7 179.1 180.8 179 179.1 178 179.7 180.3 178.4 176.5 174.5 171.8 174.4 177.2 179 177.4 173.2 168.6 162.6 159.8 161.5 164.6 167 166.5 167.7 168.7 170.4 166.8 165.5 159.4 150.1 138.6 129.9 120 115.9 115.2 117 120 115.8 108.2 105.5 105.7 105.6 109.3 112 116.7 122.6 125.4 121.7 114.6 101.3 98.4 98.7 95.5 90.4 91.7 100.5 107.5 107.4 107.8 115.1 126.5 141.7 151.9 160.2 166.3 173.7 184.6 197.7 214 216.6 216.6 220.3 228.3 229.2 227.2 220.7 208.6 197.2 188.9 182.1 175.6 166.8 157.2 151.6 166.3 176.2 193.3 212.8 222.3 235.4 254.9 266
106.7 109.8 112.3 112.9 112.2 114.6 116.9 116.1 119.3 124 127.6 124.7 118.3 105.4 91.5 83.3 66.9 63.4 61.5 50.5 44.6 40.6 37.5 37.5 40 46.2 49.8 46.9 47.3 50.6 50.6 49 48.3 47.9 48 53.7 69.2 81.6 82 70.3 60.7 54.4 48.6 49.5 47.9 42.4 36.7 42.6 43.7 43.8 43.8 44.3 44.9 45.7 46.3 47.1 47.5 49.9 51.2 53.4 52.7 49.1 49.2 46.5 44.6 44 42.5 41.2 38.3 35 35 35.4 35.1 35 35.1 36.2 34.8 35.1 35.6 36 36.3 37 36.2 36.6 37.6 38.4 38.7 38.8 38.9 39 46 52 56.4 60.2 66.9 72.9 83.2 96 106.2 117.5 127.2 139.5 139.8 145 152.6 160 160.4 164 169.6 175.4 179.6 180.4 179.3 180.9 182.5 180.9 179.9 176.6 174.7 177 179.5 182.6 181.5 177.7 171.4 166.8 163.6 165.3 168.9 171.6 171.7 172.1 175.4 176.8 171.1 167.2 162.4 153.3 144 133.4 120.5 108.3 106 107.4 105.7 102 98.1 98.8 99.6 99.4 102.5 105.3 107.8 113.6 112.4 109 102.1 92.6 92.3 88.5 88.2 92.6 96.6 105.3 109.6 110.7 114 120.3 130.3 145 155 161.5 167.2 175 184.5 196.8 203.7 201.5 200.6 201.8 209.1 205.5 203.9 194.7 184.6 172.6 165.1 159.7 155.5 150.2 143.4 152 162.2 173.6 192.9 199.1 204.2 218.3 235.8 244.5
114.3 111.1 115 116.9 118.7 123.3 126.5 125.1 131.6 135.3 136.2 134.8 130.1 122.6 120.4 111.6 105 100.8 100.6 81.6 55.4 48.3 44.5 41.7 46.2 68.7 77.9 70.3 63.8 62.4 67.4 72.3 66.6 66.8 71.2 82.6 94.9 97.7 87.3 74.2 65.1 58.6 53 51.6 50 47.1 41.3 44.1 45 45.1 45.2 45.6 46.1 46.6 47.6 48.7 51 54 65.1 71.9 72.9 65.2 57 53.2 50.5 48.8 46.5 44.8 42.3 38.1 35.6 35.7 35.4 35.6 35.8 35.5 35.7 36.6 35.5 35.5 35.7 35.8 36 36.7 37.7 38.1 38.3 38.9 39.1 39.3 39.2 49.3 52.6 55.9 60 65.3 71.7 85.6 95.3 102.5 112.5 120.3 127.3 134.6 141.2 147.5 146.8 149.7 159.1 169.2 176.7 177.2 177.1 179 181.3 180.2 180.2 177.9 177.3 179.5 181.8 185.6 181.7 178.7 172.7 169 167.8 169.6 170.6 172.6 174.7 176.9 179.7 178.3 173.9 164.8 158.1 148 140.1 127.8 117 104.6 100.6 98.7 95.2 90.7 90.2 91 92 93.4 94 96.1 97 97.4 97.2 93.8 93.2 88.1 86.1 86.3 90.7 95.1 100.6 106.7 112.1 113.4 116.4 123.8 135.3 146.5 155.5 161.9 166.1 172.7 180.9 184.2 182.6 181.3 181.2 181.7 183.2 180.9 178.9 172 163 148.9 141 139.8 137.1 134.6 137.8 144.6 152.3 162.1 172.7 175.4 183.1 196.1 210.5 217.4
118.6 116.4 115.6 117.9 121.2 126.8 133.8 137.8 145.9 145.6 144.1 142 143.8 143.3 141.3 134.4 136.4 127.7 114.3 93.9 78.5 64 60.2 60.9 62.7 82.4 91.4 88.6 88.8 91.6 95.3 89.3 85.4 89.5 99.3 107.9 111.1 107.5 95.3 82.4 70.3 63.1 58.2 55.8 54.3 52.7 47.6 43.2 47.3 47.4 47.4 47.6 48.1 49.3 50.3 53.3 59.1 67.7 76.1 84.1 84.3 79.3 72.9 69.3 63.8 57.4 50 48.4 46.1 43.6 41.3 37.9 35.8 35.5 35.6 35.3 35.7 36.1 36.6 36.8 38.2 36.3 36.6 36.9 37 37.5 37.9 38.5 39.1 39.2 39.1 42.8 41 53.2 55.9 59.5 63.4 72.5 80.4 88.2 97.1 107.5 114.8 121.6 128.2 131.7 132.5 135.8 145.8 157.7 169.6 172 173.3 174.4 176.1 176.7 177.2 177.2 177.8 182.2 184.4 185.6 180 176.6 173.5 170.4 170.1 170.4 170.6 172 173.1 174.5 175.6 172.6 167.4 152.2 139.1 129.3 118.7 113.4 105.2 98.8 95.2 92.2 88.8 85.1 84.5 86.2 86.7 87.5 87.8 88.3 88.5 88.3 87.2 86.6 85.9 85.3 83.8 89.1 92.7 97.2 102.4 109.4 113.2 115.8 122.5 130.7 140.8 150 158.3 164.9 167.5 172.3 168.7 165.6 161.4 160.8 160.3 160.8 160.2 158.8 155.6 149.7 137.5 126.7 125.5 126.3 129.3 127.3 130.8 132.8 137.2 144.7 154.9 158.9 165.6 175.7 186.3 192
119.7 117.8 119.1 120.3 123.1 127 134.3 142.9 153.6 152.3 150 152.7 158.2 161.3 157.4 154.9 152.1 150.5 138 122.3 104.2 93.8 84.2 76.3 75.2 88.1 96.8 101.5 100.6 105.6 105.7 101.5 100.5 110.6 118.4 123.2 122.9 122.4 107.9 99.5 82.7 66.6 62.4 60.2 58.5 57.8 55.2 47.4 49.8 50.3 49.8 50.3 51.9 54.5 61.8 67.4 70.8 77.1 86.9 92.4 91.4 89.4 87.8 84 75.9 73.6 58.3 51.7 49.6 47.1 44.7 42.4 37.6 36.1 35.9 35.7 36 36.3 36.5 36.9 37 37 37 38.4 37.5 37.3 37.5 38.1 38.7 39.4 39.2 39.2 40.8 40.9 52.9 54.1 58 60.4 67.1 74.3 81.6 92.5 102.7 106.5 110 113.6 117.1 123.2 132.6 142.4 152.8 155.7 157.7 161.6 166.4 171.3 173 174 177.4 182.4 183.9 185.9 183.4 178.7 175.6 172.4 172.6 172 169.7 169.2 170.4 171.5 165.1 157.7 148.5 132.1 116.2 110.4 106.6 103.6 97.5 93.4 90.9 87.6 84.8 82.6 81.4 81.7 83.2 83.7 83.6 82.9 83.1 82.4 84.3 84.6 84.8 83.1 85.5 90.1 94.5 99.1 104.9 109.8 113.6 117.2 124.5 136 147 155.3 164.8 162.6 159.4 155.2 149.1 144.2 141.7 139.3 137.1 137.7 138.4 137.5 135.1 128.5 119.3 117 118.5 120.2 122.4 121.9 122.4 135.7 145.1 157.6 162.2 165.8 167.8 167 168.4 173.6
120.3 119.5 121.5 123.3 126 131.4 138.1 143.6 149.8 154 155.9 163.8 167.9 170.5 168.8 168.9 161.7 159.8 153.9 141.1 129.2 116.9 101.6 90.3 79.5 100.5 108.4 111.6 109.3 112.7 113.1 116.9 116.1 123.4 131 134 136.9 134.6 126.1 108.9 89.9 73.1 66.3 64.7 64.6 64.5 61.9 54 53 55.3 58.2 55.4 55.4 62.8 72.2 81.6 84.1 92.2 95 98.2 100.2 101 97.9 92.4 86.2 83.8 78.9 73.2 56 52.5 46.9 44.5 41.6 37.8 37.3 37 37.1 37 36.9 37 37 37 37.1 37.7 37.8 39.3 38.8 37.8 38.2 38.8 38.9 38.8 39.3 40.1 45.9 52.3 53.8 55.3 57.2 62.2 68.3 75.7 81.6 87.2 90.3 94.5 100 108.5 117.1 125 131.4 134.7 135.8 142.8 151 158.6 163.9 167.6 172.4 178.3 181.3 185.1 185.6 180.7 177.1 172.9 171.2 172.7 170.5 169.4 165.1 159.6 150.9 143 130.7 117.7 110.3 104.3 99.8 95.6 92.5 90 86.9 84.5 82.7 80.8 79.3 79.3 80.4 80.9 80.1 80 79.8 81.1 82.3 83 82.4 80.3 85 88.7 94.1 99.5 105.2 110.2 113.7 121.3 128.8 140.4 156.6 157.7 153.2 146.3 136.7 132.1 127.4 124.8 124 122.4 119.6 121.4 119.3 118.5 117.2 111.1 109.5 112.1 114.5 116.1 118.2 117.3 124.5 134.5 147 165 175.9 176.7 181 186.7 186.4 185.3
123.1 121.9 123.2 125.6 129.3 135.7 143.3 152.4 157.7 158.2 161.4 167.2 170.1 174.8 177.4 174.7 171.8 168.1 156.5 148.2 140.3 133.8 109.5 97 87.7 105.8 116.4 121.2 116.7 118.8 119.7 126.1 131.4 136.6 140.6 142.5 147.8 149.5 135.4 114.4 93.7 79.3 71.6 70.7 72.1 72.1 68.3 61.8 56.3 60 67.2 64.4 61.2 66.5 76.3 86.1 91.8 98.5 103.2 106.8 110.3 108.6 104.1 98.1 93.8 93.2 91.4 89.5 77 59.9 53.1 48.4 44.7 41.3 39.4 38.3 38.1 37.4 37.1 37.1 37.1 37.1 37.9 38.2 38.2 38.1 38.6 38.9 41.1 37.9 38 38.3 39.9 41 40.7 46.1 52.8 53.2 54.2 56.6 60.5 63.2 66.9 71.7 76.1 80.8 85.4 91.1 98.9 103 105.3 111.1 120 129.5 136 141.6 148.7 156.9 166.7 173.9 178.2 181.1 183.5 180.1 176.8 171.7 170.1 171.5 170.6 167.8 162.6 157 147.6 131 118.5 111.3 104.4 98.5 94.3 91.3 88.5 86.1 83.8 81.8 79.9 78.6 77.6 78 78 78.4 78.4 78.4 78 79.1 80.4 81.1 79 81.6 83.9 86.1 91.4 97.1 104.6 110.5 115.4 127.1 133.7 142 146.8 142.4 136.5 130.1 120.8 112.9 109.3 108.8 110.9 107.7 105.1 106.1 104.6 104.4 105.6 106.8 107.7 109 111.2 112.2 113 117.2 124 132.9 148.6 170 180.2 178.7 184 200.9 207.1 213.9
126.6 125.1 126 128.2 133.2 139.4 148.3 159.1 162 162.7 164.7 169.8 171.9 176.9 180.3 180.3 176.4 169.3 157.6 152.8 148.9 142.1 124.1 110.5 99.9 105.6 119.2 128.3 127.3 127 131.6 138.2 140.7 144.9 148.1 152.2 153.5 150.4 137 117.5 96.5 87.4 78.2 77.8 81.2 77.8 73.9 68.6 61.1 55.5 68.6 67.8 69.9 77.5 84.6 89.7 96.2 103.4 110.2 115.3 120.6 116.8 109.2 102.7 100.3 99.4 97.8 95.6 90.4 81 67 56.2 51.2 46.7 45.4 43.2 40.3 38.7 37.8 37.8 37.8 37.7 38.5 38.4 38.3 38.2 38.6 39.4 39.5 39.8 39.9 39.6 38.8 39 40 40.8 43.1 51.7 52.6 53.9 55.7 57.1 59.5 62.5 66.3 70.8 76.1 81.4 86.4 91.8 97.8 103.8 110.3 119 124.6 130.9 137 148.2 158.3 164.3 168.7 171.7 172.4 170.9 170.4 166.1 165.7 166.6 167.8 166.3 161.8 155 145.5 128.4 112.8 104.7 99.2 95.2 90.9 87 85.7 82.5 80.3 78.3 78.2 77.2 76.1 76.2 76.9 77.4 77.5 77.7 77.5 78.7 79.7 78.2 79.1 81.4 83.7 86.1 89.3 95 106.5 111.5 116.5 122.7 128.2 131.5 131.4 126.4 120.9 114.9 102.4 92.2 103.3 103.4 101.9 102.9 104.2 105.5 104 105.5 105.2 106.3 107.1 107.5 108.7 109.4 110.4 112.9 121.7 132 146.9 165.1 172.7 175 182.5 199.2 214.5 226.3
130.6 128.4 128.7 131.8 136.7 141.2 148.5 156 161.6 162.7 163.9 165.9 170.4 178.2 182.3 179 173.4 168.7 160.3 155.9 152.5 146.7 135.3 123.7 110.6 114 123.4 136.1 134.6 133.6 139.8 145.8 149 154.2 160.5 162.4 158.4 150.2 134.9 117.9 102.3 93.5 86.1 89.1 87.3 81 76.9 72.1 64.7 54 62.8 71 78.1 87.4 96.2 98.8 99.3 105.2 114.2 132.6 126.7 121 114.4 107.9 105.4 105 103.6 101.1 99.5 95.3 91.1 79.2 61.2 53.7 51.8 48.7 45.1 40.2 38.5 38.6 38.6 38.9 38.7 38.6 38.5 38.4 38.7 39.9 40.2 40.4 40.4 39.7 40.5 41.5 40 39.5 40.5 41.9 44.8 47.5 53.3 54.7 56.2 59.3 60.9 65.2 65 69.2 75.9 81.9 87.7 93.9 100 107.2 113.1 119.9 129.5 137.9 146.6 151.4 155.2 158.7 160.2 160.3 159.7 160.1 160.6 163 163.7 162.5 159.3 148.5 137.4 121.8 107.3 99.2 95.1 92 87.9 84.4 81.7 78.9 76.3 75.7 76.1 75.8 74.2 74.3 74.4 74.4 75.2 77 76.1 77.8 76 77.6 80.9 82.9 85.7 89 92.1 95.2 101.4 105.7 110.6 115.1 119.1 119.7 117 113.7 110.3 102.9 92.7 109.7 112.2 114.1 113.6 111.8 113.5 115.9 116.7 114.8 118 114.7 117 118.8 120.3 125.8 124.2 117.6 115 126.6 139.1 153.7 162.8 169.2 180.3 196.9 211.9 229.1
133.2 131.1 130.8 134.2 139.2 144.5 151.9 162.4 163.5 164.4 164.4 166.8 168.8 173.9 181.4 175.8 169.5 168 161.8 157.8 154.7 152.4 145.1 135.3 118.5 122.9 128.9 141.2 140 143.2 144.4 150.2 156.1 160.7 169.1 169.9 162.4 155.3 142.9 126.9 112 103.5 95.6 94.8 90.4 85 80.3 75.5 64.8 54.6 69.7 79.5 79.5 86.8 93.5 95.9 98.4 104.2 115.6 132.4 129.6 125.2 118.2 111.8 109.2 108.4 106.6 106 105.7 104.2 102.2 95.1 82.2 62.8 57.4 53.9 49.8 44.4 39.8 39.2 39.2 39.1 39 38.9 38.7 38.6 38.6 39.6 40.6 41 39.9 39.2 40.3 40.6 40.9 41.2 40.4 39.8 40.8 42.8 43.1 46.8 53.4 50.7 54.8 58.1 58.6 59.8 64.2 70.6 76.8 82.6 88.7 94.8 101.7 109.6 118.3 126.4 135 141.8 148 151.2 153.1 153.9 153.8 153.5 155.5 160.6 160.1 161.7 156.9 146.3 130.6 116.3 102.3 95.4 90.8 87.9 84.9 81.7 78.5 75.4 72.8 73.5 74 72.9 70.8 70.1 69.2 69.6 71.3 72.1 73.5 74.1 75.3 77.4 80.7 83.8 87.7 91.1 94 96.2 97 100.6 103.5 106.7 108.3 107.6 106.2 105.5 99.6 90.8 105.1 110.3 115.5 119.6 120.3 118.6 120.8 123.8 122.4 125.8 130.9 131.8 133 134.6 141.4 149.8 144.6 132.8 116.2 119.9 131.5 141.5 150.8 161.5 177.8 194.6 208.4 218.3
