ncols 200
nrows 82
xllcorner 270000
yllcorner 213650
cellsize 50
471.4 470.5 466.9 460.3 453.7 450.9 449.9 449.8 451.6 453.3 456.7 458.8 458.4 456 453.2 454 454.6 455.9 457.1 458.9 460.7 462.1 462.8 463.6 464.8 466.5 469.4 472.9 476.4 479.6 486.2 493.7 498.6 503.1 502 496.6 488.5 479.8 474.9 471.2 468.2 463.8 456.2 449.1 440.4 432.8 431.1 431.9 428 419 417.9 414.9 415.8 423.9 426.3 428.1 431 435.6 436.4 435.9 437.9 452.4 457.7 469.7 485.6 502.6 511.6 524.1 536.4 549.2 558.3 562.2 574.1 583.5 588.4 590.5 591.5 592.3 593.5 593.2 591.8 589.1 583.8 577.8 574.3 570.7 565.4 560.2 556 550.1 546.7 544.8 542.4 540.6 538.1 535.7 532.4 528.9 523.3 516.3 514.9 517.7 513 508.5 513 515.9 520.4 524.7 530.3 534.2 539.5 547.7 551 545 549.8 555.4 554.1 551.9 545.7 540.2 536.9 529.6 515 505.9 502.1 496.2 495.5 492.4 495.8 494.1 490.4 486.3 479.6 485.6 486.1 479.5 465.5 459.2 456.6 457.9 463.4 467.9 468.6 465.8 459.1 454.1 449.2 445.4 441.1 435.2 431.5 426.7 421.3 420 412.8 404.1 387.8 367.3 348.8 369.5 383.6 399.6 419.5 440 450.2 455.5 457.4 457.4 455.4 457.7 457.3 454.7 443 420.2 413.5 425.5 435.4 437.5 447.8 457.6 463.2 471.1 467.8 459.1 455.5 451.3 432.5 414.2 408.9 405.2 402.9 400.7 400.3 402.2 404.8 406.9 412 418.7 425.2 431.6
469.7 467.9 462.5 455.9 451.6 449.5 447.4 446.8 448.3 449.9 451.4 451 451.3 449.4 448.6 449.2 451.3 452.6 454.3 456.1 457.9 459.6 460.3 461.4 463.1 464.8 467.8 471.2 473.6 474.4 484.2 491.6 498 497.9 493.8 490.7 481.8 474.5 470.1 467.6 465 460 450.4 444.1 436.7 427.7 424.6 422.8 416 412.9 412.2 409.6 413.6 418.6 420.7 423 427 430.8 430.7 430.2 444.3 449.2 455.6 470.6 484.2 498.6 513.5 526.8 539.6 551.1 556.7 562 571.8 580.3 583.4 585.3 587 588.1 588.8 587.2 584.8 581.5 573.5 570.8 567.9 564.7 560.7 556 552.3 548.7 545.4 543.1 541.4 539.1 537 534.8 532.2 527.9 520.9 511.9 511.2 513.5 507.3 503.3 508 511.7 515 520 524.7 528.6 537.2 542.7 541.9 540.2 544.1 549.5 548.2 545.9 542.8 537.1 531 521.8 505.1 491.4 482.4 485.8 481 481.6 483.8 482.2 480.6 475.7 477.7 483.8 487.2 482.2 471.6 464.3 457.8 453.9 455.9 458.2 460.7 457.8 453.8 449.7 444.6 440.3 433.6 429.1 424.9 420.1 415.7 414.4 409.3 400.9 379.6 357.7 353 373.2 388.2 405.1 427 443.7 448.8 456.2 454.1 450.4 449.2 452.2 458.1 456.7 446.8 423.3 415.1 426.2 434.1 442.3 452.8 458.5 464.6 471.9 468.4 456.7 452.3 448.5 435.7 416.5 409.2 405.5 402.9 400.7 401.7 402.6 405 407.1 409.4 417.6 424.5 430.7
462.4 460.8 457.4 452.8 450.5 448.1 445 444.8 445.2 444.5 443 440.9 441.9 445.5 446.8 447.1 448.2 449.6 451.4 453.2 455.1 456.9 457.6 459.4 461.2 462.9 465.1 467.9 471.7 474.1 480.9 489.8 492.2 490.5 488.8 481.4 471.9 466.8 466 463.4 458.4 451.7 447.6 439.8 432.6 423.6 414.6 412.6 408.9 408 406.6 405.3 411.4 413.4 415.6 418.5 422.5 422.7 421.7 428.6 436.2 441.4 457.2 468.2 482.1 496.3 514.1 530.4 541.9 549.2 554.2 562.1 568.9 574.6 578.6 581.3 582.7 582.7 583 581.3 578.1 571.7 567.9 565.6 562.7 558.2 556.7 553.3 550.1 546.9 543.9 540.8 539.2 536.1 533 531 529.5 526.5 522.5 513.8 508.6 508 502.1 499.4 503.7 506 508.5 514.1 519 523.9 533.6 536.7 536.7 536.4 538.7 543.6 542.9 540.1 535.9 533.6 527.6 515.8 496 482.5 474.2 472.6 471.2 471.7 472.9 470.6 473.3 475.5 478.5 485.1 491.6 488.4 480 471.7 464.2 459.7 454.6 449.1 451.6 450.3 445.7 444.7 441.6 434.9 428.8 423.1 418.7 414.7 410 407 403.3 386.1 368.5 343.5 358.8 376.4 392.5 412.3 425.8 440.8 449.8 450.6 448.4 444.9 444.3 448.2 453.9 448.9 440.2 426 417.6 425.8 434.6 445.8 452.2 458.6 463.7 469.8 466.2 458.6 449.3 443.7 440.4 420.6 409.6 406.2 403.6 400.4 401.9 403.3 405.2 407 409 416.1 423.6 429.6
452.6 453 451.9 449.5 447.9 444.6 440.8 440.7 440.9 438.5 438.9 439.9 440.7 443.3 444.2 444.4 444.1 445.7 447.4 449.2 452.1 454.2 455.7 457.5 459.2 461.1 462.4 465 470.2 474.1 480.6 484.7 484.1 480.3 475.7 468.8 462.2 462.2 462.3 459.5 454.7 448.1 441.8 432.8 422.6 417.1 408.5 404.1 403.3 402.6 400.7 400.7 406.7 409.3 412 414.7 416 414.3 416 421.8 431.3 443.3 454.8 465.3 480.4 496.6 511 528.3 540.4 546.4 552.5 560.7 566.9 570.8 573.2 577.1 578.3 578.4 576.4 574 569.4 566.1 563.5 561 557.9 555 553 550.4 547.2 545.3 542.3 539.3 534.8 532.1 528.9 527.5 526.4 523.4 519.3 511.1 500.4 501.7 497.6 495.8 501.1 502 502.2 505.7 513.1 516.9 528.4 528.3 530.5 533 536 541.2 539.9 535.3 531.4 530.4 523.9 509.8 493.6 478.5 470.2 466.3 466.8 466.2 470.9 479.6 484 485.8 480.8 490.3 494.6 492.6 485.8 478 471.3 463.9 456.9 449.1 444.9 444.7 440.4 439.6 437.1 430.4 424.5 417.1 412.3 409.3 406 400.8 396.5 379.7 352.4 341.6 363.3 381.2 396.6 411.2 426.3 440.7 449.5 445.7 445.1 442.8 443.9 444.8 445.2 439.4 436 428.9 420.9 421.9 432.5 444.2 450 459.5 457 464.3 462.6 458.5 450.4 442.5 434.5 421.5 409.9 406.6 403.7 399.9 401.5 403.5 405.8 407.6 409.4 416.2 422 426.3
447.8 447.1 446.5 444.6 442.9 440.1 436.8 436.1 435.9 435.8 435.2 436.2 437.2 438.8 440.1 439.5 440.8 442.5 444.1 447 449.6 452.3 453.7 455.5 457.3 458.7 459.6 462.2 467.7 472.2 474.9 476.3 473.3 466.8 461.4 455.6 455.1 457.4 456.7 453.4 448.4 441.5 434 422.4 413.2 408.6 402.3 394.8 398.2 396.7 395.3 396.5 402.1 405.8 408.9 410 410.2 416.7 425.4 429.8 434.2 441.3 452.2 465.7 478.3 495.2 510.4 525.1 536.9 545.5 550.7 558.1 564.8 567.3 569.7 572.4 573.6 572.5 570.2 567.3 564.9 561.8 559.2 557.8 556.2 552.7 547.7 546.5 543.9 542.1 540.3 537.5 532.1 530.9 528.5 525.7 523.6 520.9 515.5 506.5 494.4 497.1 492.1 491.8 498.5 496.9 498.6 502.2 507 509.6 521.1 523.1 527.1 530.7 533.8 536 535.6 532 528.5 527.6 521.7 512 491.9 476.3 468.2 464.9 464.9 464.7 477.2 484 487.1 487.1 486.1 495 495.6 493.6 489.5 480.8 474.2 466.8 458.3 450.9 441.1 439 437.7 435.9 432.8 426.5 420.8 412.3 406.9 402.5 400.4 394.5 377.5 369.1 341.7 343.3 367.1 384.5 401.3 409.8 427.5 442.8 443.8 442.5 445.6 443.2 442 440.9 439 436.8 432.3 427.8 422 420.7 431.8 442.5 453.8 464.7 455.7 456.6 464.4 458.9 451.9 444.1 433.2 420.7 410.2 406.8 403 397.8 400.8 404 406.1 407.7 410.3 416.1 421 424.5
445.1 443 440.2 438.5 437.2 435.3 431.9 432.4 432.5 432.4 432.6 432.1 432.6 434.9 436 435.6 437.9 439.7 442.2 445.7 448 450.3 452.3 453.9 455.2 456.1 456.8 459.6 463.9 465.9 465.8 465.6 461.1 453.6 447.2 446.2 448.7 453.2 450.9 445.7 442.4 433.8 420.1 412.1 408.2 403 397.2 391.5 390.4 389.2 390 389.3 396.5 403 405.8 407.6 415.5 421 425 428.9 427.4 434.4 449.9 464.6 475.4 490.1 510.2 522.8 533.5 544.5 550.2 556.8 561.4 563.9 564.9 566.8 567.3 566.5 564.5 562.7 560.5 557.7 556 554.9 554.1 550.8 546.5 545.8 543.5 540.7 538 535.4 529.3 526.9 526.8 524.4 521.8 517.9 510.2 500.3 488.7 489.8 486.6 487.6 493.8 493.1 495.1 499.6 502.4 505.5 515 520.9 525.3 528.6 530.8 533.1 532.7 529 524.5 522.5 514.4 505.5 487.5 472.9 466 464 462.8 468.4 478.8 486.9 491.5 490.6 492.5 496.9 497 494.2 489.8 483.7 477.8 468.5 458.2 449.4 443.4 437.5 432.6 431.6 428.2 421.8 415 407.8 400.8 398 394.8 390.4 371.1 351.1 334.3 351.3 371.7 389.4 408.4 423.5 436.4 440.7 438.3 441 443.7 443.6 438.7 437.2 434.1 434.6 431.2 427.2 422.7 421.2 431 444.2 462.6 470.7 467.5 462.5 465.2 458 447.7 439.5 433.7 420.1 408.3 405.6 402 397.7 399.4 404 406 408.2 411.3 416.1 420.7 424.9
441 439.3 437.2 435.6 432.6 429.3 428 428.4 428.8 429.3 430 429.5 429.2 431.4 432.5 432.9 432.9 436.5 440.6 443.5 446 448.3 450.5 451.5 452.1 452.9 452.8 456 458.2 458.7 456.2 452.2 446.7 440.7 438.2 440 442.4 443.4 442.6 439.8 431.4 420.2 408.9 405.1 401 397.5 392.8 387.7 380.4 382.9 383.4 388 396.3 399.9 403.4 410.4 415 417.2 422.2 420.8 426.1 434.9 448.4 462.1 472.8 487.6 506.7 520 533.6 544 549.4 553.6 557.2 559.5 560.3 561.3 560.6 560.4 559.3 557.4 555.3 552.9 552.2 552.4 551.8 548.8 544.4 542.5 541.6 539.9 536 527.8 520.5 522.4 522.5 520.5 517 511.9 505 496.8 487.6 483 483.4 484.8 487.4 486.6 493 497.7 499.6 502 509.9 518.8 523.9 525.8 525.7 528.2 529.9 525.6 518.5 511.1 503.4 497.5 479.8 467.7 463 463.1 465.3 472.9 483.5 490.1 494.7 496.6 494 497 499.6 496.1 492.3 485.2 477.8 472.3 463.2 451.5 446.6 438.7 429.2 425.1 422.5 416.6 409.6 403.1 396.7 395 394.5 378 357.9 345.2 336.8 357.2 376.7 395.2 414 430.9 440.6 443.5 439.5 440.4 442.1 440 434.3 432 428.8 430.9 429.7 426.7 423 421.8 431.6 448.1 465 469 468.9 470.2 464.2 452.9 444.9 435.1 430.8 421.4 407.7 404 400.5 395.9 398.3 403.1 405.1 407.4 411.6 416.4 421 425.2
437.1 435.1 433 430.9 427.9 426.2 424.8 424.6 425.3 426.2 426.7 426.5 427.1 427.3 428.6 426.8 430.1 433.7 438 440.5 442.5 445.1 447.1 448.4 449.2 448.6 448.1 448.3 449.5 447.1 439.2 435.5 433.1 431 430.7 433.3 435.6 436.4 434.4 426.3 419 408.5 402.6 398.3 394.7 391.1 387.1 381.7 365.7 374.5 374.3 385.9 392.3 397 403.3 407.8 411.6 413.8 413.9 422 428.5 436.6 448.2 459.6 470 483 503.6 519.4 532.7 540.8 545.4 549 552.1 554.2 555.5 554.8 554.5 554.3 552.5 550.7 548 547.7 548.4 549.6 548.3 545.1 541.5 539.2 535.2 532.7 521.1 515.3 514.6 517.1 516.7 513.8 508.4 504.2 498 490.8 484.3 479.5 478.1 482.3 482.5 481.9 489.5 493.2 495.5 498.5 505.6 512.3 518.6 522.8 522.1 523 525.4 521.7 515.2 503.4 497.9 488.4 474.7 465.2 463.3 464.4 470 478.5 486.4 491.4 496.7 497.8 494.9 496.2 500.3 497.9 494.5 488.8 481.1 472.4 464 453.1 446.7 438.5 427.9 422.7 412.8 409.8 404.7 399.3 391.9 391.6 392.4 377.6 353.7 332.8 342.1 361.6 380.4 404.7 420.1 434.2 443 440.8 440.7 442.3 442.3 435.8 430.4 428.1 424 425.5 429.3 425.7 424.2 423.3 429.9 447.8 462.9 464.9 466 466.5 461.4 451.5 443.1 431.7 429.5 421.9 408.8 403.6 396.6 394.3 398.1 401.9 404.3 407 411.7 416.3 420.7 425.4
433.7 432.2 430 428 425.1 423.9 421.4 420.9 421.9 423 423.3 423.3 423.5 423.6 423.6 423.4 428.8 432.1 435 437.3 439.2 441.5 443.9 444.8 446 443.8 442.8 439.7 439.8 434.6 424.8 422.5 422.7 421.7 424.1 427.7 428.9 426.1 420.4 414.2 406.3 401.5 397 393.4 389.7 385 380.5 374.9 359.5 360.6 370 386.1 391.4 396.1 400.7 404.7 407.6 409.3 412.3 416.3 425.2 432.8 442.8 453.5 467.4 478.9 498.8 516.7 529.2 536.4 541 544.1 545.6 547.4 547.7 547 545.9 543.8 542.6 543.3 542.3 542.1 544.6 545.2 542.1 536 533.9 532.8 530.3 523.8 514 509.4 508.6 510.9 510.2 506.5 500.8 496.4 492.2 486.6 479.6 476.7 474.4 477.8 477.4 477.1 484.3 488.9 490.9 494.6 499.7 505.5 513.3 517.6 518.8 518.9 520.6 518.7 511.5 502.9 494.3 484.8 470.9 465.5 460.2 467.6 474.7 481 488.8 494.1 497.1 497.2 496.3 499.5 501.5 498 494.4 491 483.5 472.9 465.3 452.3 443 436.6 426.9 419.7 415.1 406.5 398 391.2 390.1 393.7 391 365.6 341.8 329.1 349.1 367.8 387.2 412.1 428.5 440.1 439.3 440 439.1 442.3 440.2 432 427.4 422.7 420 421.8 425.4 424.1 426.5 425 429.9 451.3 460.7 462 461.1 460.3 456.1 450.2 439.5 428.7 427.5 423.2 408.2 401.1 397.2 393 397 400.5 403.8 407.1 411.7 416.9 420.8 425.8
429.5 429.6 427.5 425.6 423.2 421.1 417.9 416.5 417.2 417.7 418.1 418.4 417.5 417.4 414.4 418.6 425.9 428.6 431.2 433.7 436.1 438.4 439.8 440.1 439.2 438 437.1 433.9 430.4 425 416.7 412.7 411.8 412.7 413.8 418.6 418.3 414.1 409.4 401.9 394.9 393 392 389 385 380.3 375.2 366.8 348.2 368.1 376.4 383.2 389.1 393.3 397.5 401.3 403.7 405.5 409.1 415.6 423 430.5 438.4 448.1 461.4 475.4 492.5 510.9 524.6 531.5 535.1 537.6 538.3 537.9 537.2 537.6 536.6 537.3 537.2 537.8 537.3 537.9 539 535.2 527.9 523.3 522.4 523.1 518 511.4 506.6 504.2 502.7 501.4 501.7 498.8 495.4 490.8 486.9 480.9 475.3 473 471.2 472.2 471.1 471.8 478.8 484 487.8 492.1 497.1 502 508.4 513 514.8 514.9 516.2 515.6 510 500.9 493.5 482.8 471.3 463.7 459.7 469.4 477.8 480.7 489.2 493 495.4 495 495.5 500.5 501.6 496.8 492.8 492.6 487.6 477.1 465.1 453 444.8 433.5 423 414.8 410.1 405.2 397.6 390.9 375.6 392.8 376.9 347.5 325.8 335.3 355.2 371.5 396.2 418.2 432.8 438.8 438.5 439.7 437 437.7 435.3 428.8 424.2 418.5 416.2 419.1 420.1 423.9 428.5 425.7 431 450.3 457.7 458.2 456.1 453.7 450.2 444.3 434 425.9 422.4 419.2 406 400 396.2 390.7 393.6 399.3 403 407.1 411.9 417.7 421.2 426
425.6 426.4 425.5 423.4 420.4 417.5 413.9 411.8 412 412.5 412.9 412.1 410.8 410.4 409.7 417.7 422.3 424.9 427.5 429.9 432.4 433.9 433.8 431.7 430 429 430.2 429.8 426.1 419.5 411.7 406.9 406.5 406.6 407.4 407 407.6 404.9 399.4 390.1 387.2 386.3 386.4 384.6 380.3 375.6 369.4 358.8 350.1 366.6 373.3 379.9 386 390.1 393.7 397.2 399.5 402.6 407.1 412.9 420.8 428.6 436.3 444.9 458.3 474.9 488.7 505.4 517.4 525.1 527.4 527.9 527.1 526.7 528.5 530.8 531.7 531.8 532.2 533.3 532.5 531.2 526.5 519.8 513.5 513 511.9 512.2 507.7 501.8 497 495.5 494.3 493.1 493.8 491.9 491.2 487.1 482.8 477.3 471.2 469.2 467.8 467.9 466.8 468 474.2 480.6 485.3 490.9 496 500.9 505.3 508.3 509.7 510.2 512.2 510.7 503.6 496.9 490.7 480.5 469.1 462.8 459.7 472.2 479.1 484.6 490.6 493.7 495.5 496.5 497.4 502.1 504 501.4 499.3 500.4 493.2 478 462.5 448.2 441.4 427.6 419.3 411.4 404.6 399.9 395.3 387.2 372.9 374.4 365.8 330.6 324.2 338.8 358.9 377.9 402.8 422.9 434.9 435.7 439.2 438 435.8 432.8 431.9 426.2 421.2 414.4 412.6 414.6 417 424.6 430.3 427.9 432 447.5 454.2 453.5 451.4 448.6 443.2 437.6 429.5 423.7 420.9 415.6 402 398.5 394.3 389.9 395.6 399 402.6 406.4 411.3 417.8 420.7 424.5
421.9 423.2 422.9 420.5 416.6 413.9 409.9 407.3 407.5 406.5 403.8 401.4 401.3 399.2 406.2 415 418.5 421.2 423.7 426.2 428.6 428.6 425.5 423.4 420.8 422.9 423 421.5 419.9 415.5 408.2 403.2 402.3 402 401.6 400.5 398.1 395.7 388.4 383.7 381.7 381.4 381.3 379.6 375.4 370.1 362 351.2 349 362.8 369.4 375.8 381.8 385.8 389.2 392.3 394.7 398.8 404 409.9 419.5 427 433.2 443.5 457.8 473.4 486.2 499.7 510.8 517.8 519.3 519 519.7 521.4 522.8 525.4 526.4 526.5 528.2 528.9 526 522.4 514.8 507.6 504 500.9 500.4 501 498.3 492.3 487.8 487.3 487 485.5 485.9 485.1 484.1 482.8 480.4 471.7 467.6 465.4 465.2 465.3 464 465.4 471.4 477.9 484.3 491.1 497.9 501.5 504.4 505.7 505.5 506.5 505.7 500.6 496.6 492.8 486.1 476.9 466.1 459.9 464.5 471.7 479.5 484.4 489.9 492.8 496.7 498.3 500.2 502.2 506.9 505.6 503 505 495.2 478.4 459 444.9 435.1 421.8 416.6 410.1 401.4 394 388.6 385.6 373.5 352.8 344 326.8 322.9 339.2 361.4 382 407.4 423.2 430.8 434.1 436.8 435.2 433.9 428.6 427.1 423.5 419.2 410.8 409.6 411.4 416.5 425.8 430.9 427.9 429.1 440.2 443.1 444.3 441.8 441.1 435.9 429.5 425.6 421 418.4 409.6 399.1 395.9 387.5 390.7 395.6 398.9 402.5 406.2 410.7 416.1 419 422
418.2 418.9 418 415.8 412.9 409.5 405.8 401.3 401.3 398.2 396.5 394 392.9 395.2 405.9 411.3 415 417.7 420.1 422.6 424.6 421.5 418.7 416.8 414.3 416.3 416.5 414.2 411.6 407.4 403.3 400.3 398.4 398.3 396.3 395.4 392.9 387.9 383.4 379.3 377 376.6 376.2 374 369.9 363.9 357.7 347.4 343.4 358.2 365.3 371.9 376.4 381.1 384.7 387.2 390.8 396.1 401.5 409.2 415.7 422.7 430.3 440 455.5 470.6 480.5 490.1 502.8 508.4 509.2 511 513.1 515.3 517.9 520.1 520.9 521.6 523.1 523.2 515.1 510.1 505.4 501.1 498.6 496 493.4 493 491.7 489.1 482.9 482.1 482.7 478.5 478.8 478.4 478.8 476.9 473.1 466.8 463.8 462.7 463 462.5 461.7 462.9 469.3 476.5 484.1 491.1 498 501 502.4 503.6 504.5 500 500 495.3 491.9 489.3 481.2 472.2 463.1 459.6 462.7 469.8 477.8 483.9 490.6 493.2 495.3 498.3 500.7 503.4 506.2 507.2 502.9 502.3 495.3 476.3 458.3 438.5 428.1 417.5 414.9 406 398.1 386.1 380.9 380.7 372.6 353 334 324.6 322.1 341.9 365.6 389.3 410.6 424.2 430.5 432.8 432.9 433.8 429.3 422.9 420.6 422.4 415.4 406.8 408.4 410.4 417.4 425.9 430.1 428.2 427.8 430.8 431.8 428.7 429.5 430.3 426.7 422.7 419.4 417.5 414.4 406 397.3 392.6 385.5 391.8 395.3 398.6 401.2 404.6 409.8 414.2 417.1 419.8
413.1 413.8 413.5 411.9 408.2 404.3 399.8 394.7 394.2 390.3 390.5 385.3 382.8 393.8 403.4 407.6 411.5 414.5 417.3 419.3 420 416.4 415.6 414.2 409.8 409 409.3 407.6 405.7 402.5 400.2 396.9 395.3 394.1 391.6 390.1 386.5 382 378.7 374.8 372.8 370.8 369.3 368 364.4 358.7 352 342.5 336.6 354.5 361 368 373.5 376.3 379.8 384.1 388.2 393.9 399.9 406.6 413 419.3 426.6 435.5 450.4 464.1 474.6 483.6 491.6 495.7 499.3 502.6 506 508 509.8 511.7 514.4 516.1 517.4 512.2 503.2 499.6 496.2 492.8 491 487.6 484 482.5 482.9 481 479.4 477.5 476.8 471.7 471.5 474 474.6 473.1 469.2 463.2 460.1 459.2 460.4 460.5 459 460.9 467.5 474.8 482.9 490.2 496.4 499.2 500.6 500.6 500.7 499 495.8 491 488.2 482.5 474.4 465.9 459.7 459.4 463.1 470.8 477.8 484.6 491.6 494.1 496.5 500.7 503.1 505.3 505.4 507.6 500.7 497.2 489.8 472.1 454.9 437.8 423.1 409.3 410.7 402.3 392.4 382.3 373.4 366.7 363.1 349 328.9 320.5 322.1 349.4 370.9 396.2 413.3 423.3 427.6 428.9 429.7 428.8 424.7 416.1 414.3 420.3 408.1 404.2 406.1 409.1 419.3 425.3 428.8 427.9 426.8 426.9 426.3 423.5 423.9 423.3 419.3 417.2 416.3 415.4 411.3 403.6 397.1 389.4 386.2 391.5 394.2 398.4 400.3 403.4 408.1 411.8 414.8 417.8
406.9 408.3 408.1 406.1 401.9 398.4 393 387.5 386.7 381.3 380.5 378.5 377.7 391.8 398.9 403.1 407.3 411.3 414.3 416.5 414.9 412.3 411.7 411 405.2 402.7 400.9 400.1 399.4 398.3 396.5 393.3 391.2 389.6 386.6 384.2 380.5 377.6 373.1 370.8 368.3 366 364.5 361.5 359.1 353.5 347.8 339.3 332.8 352.5 359.4 364.5 369.1 374 377.6 381.4 385.6 390.9 396.8 402.8 408.5 414.2 420.9 430.9 446 458.3 469.2 477 482.5 486.7 490 493.8 497.7 503.1 504.4 506.1 508.6 509.5 504.8 498.7 495.4 490.7 486.9 482.4 478.6 475.1 472.2 474 474.9 474.3 473.4 471 468.8 465.8 466.3 469.3 471.8 469.4 464.9 458.5 456.3 455.4 456.9 455.1 455 459.5 467.4 473.6 481 487.3 494.1 496.9 496.2 495.6 495.5 492.9 489.9 485 484 475.5 467.5 459.1 455.4 461.3 464.3 471 478 485.7 492.5 495.7 498 498.7 500 501.7 500.6 503.3 496 491 487 466.8 449.5 434.1 419.5 403 403.3 395.1 389.4 381.5 371.8 359.8 347.1 344.3 321.3 316 322.5 350.7 378.1 401.7 416.3 421.1 424.7 425.5 425.8 422.9 418.3 409.1 411.3 408.2 404.7 402.6 403.3 409.7 419 424.2 427.7 426.9 426.4 431.4 432.8 431.4 427 425 418.5 414.9 412.8 410.9 406.7 401.9 394.7 386.5 385 390.5 393.2 396.1 399.3 402.2 405.9 409.3 412.6 416.2
399.2 400.9 401.9 399.4 395.5 392.7 386.9 381.7 375.4 371.7 370.1 367.6 375.3 386.6 394.3 398.4 402.6 407 411.2 412.2 410.1 407.5 407.1 406.3 401.1 398.6 396.9 396 394.6 393.5 392.3 389.6 387.3 384.2 381 378.1 375.4 372.8 368.8 366.7 363.8 360.7 357.2 354.1 351 347.9 341.9 326.1 333.5 346.4 354.6 361.1 365.4 371 374.9 378.3 382.9 388.4 394.2 399 404.2 410 416.1 427.1 439.6 452.5 463.1 469.9 473.5 478.4 482.7 487.5 491.6 495.9 497.7 499.6 499.9 496.7 492.4 490 486.2 480.4 475.4 471.3 471.5 469.7 468 467.3 466.9 466.9 465.9 464.4 462.3 459.9 462.7 465.7 466.7 463.1 460.9 455.1 452.1 451.1 452 450.2 450.5 458.3 465.2 471.2 477.1 483.9 491 492.8 491.5 490.5 488.5 484 484 479.7 476.2 467.3 459.8 452.2 457.8 464 466.5 471.6 479.8 486.7 491.5 495.4 497.9 496.3 495.2 495.7 496.3 496.9 490.1 484.6 480.5 460.1 444.4 429.6 414.1 395.7 392.1 386.8 377.7 369 370.5 353.9 337 330 317.7 314.6 334.3 359.7 386.3 406.9 415 420.1 423.5 423.3 420.2 417.9 409.8 403.4 404.2 397.4 402.6 402.3 402.2 409.6 417.7 422.5 426.5 426.4 425.1 431.6 435.4 432.8 429.3 429.1 420.2 414.2 410.3 407.3 403.4 399.7 394.3 380.8 384.1 388.1 391.1 394.7 397.8 400.6 403.4 407.1 411.6 415.6
389.7 392.3 394.7 392.3 388.5 386.1 381.4 375.7 364.7 362 359.9 360.2 371 379.2 389.4 395.2 399.7 404.4 407.9 407 403.4 402.8 402 401.4 397.4 394.9 394.1 392.7 391.4 390.1 388.1 384.8 382.4 379.1 375.7 374 371.7 368.1 364.6 362.5 359.1 354.9 351.1 346.9 343.7 340.7 334.3 318.7 333.5 342.3 351.5 358.5 363.3 368 371.8 376 380.4 385.6 390.7 395.9 401.3 407.3 415.5 425.3 436.2 445.9 454.5 461 465.8 472.3 476.7 481.1 484.6 487.3 486.8 487.7 486.9 484.5 483.3 483.9 482.4 474.7 469.9 467.7 467.3 463.8 460.1 459.2 458.9 459.2 458.8 457.5 456.7 455.8 459.9 459.4 459.2 459 455.9 450.6 447.1 446.6 446.5 445.5 447.4 454.6 460.9 468.2 474.2 480.7 487 488.4 487.1 485.1 482.3 477.5 476.2 474.2 468 459.3 450.9 451 460 465.3 468.3 474.8 480.2 487.1 493.6 496.5 497.3 496.2 495.1 495.5 496.7 492.7 485.7 478.1 473.4 454.6 437.9 422.8 406.7 386 379.1 370.5 363.6 359.3 361.9 347.6 333.1 314.6 311.7 325.8 345.6 368.6 395.6 409.9 414.8 421.8 422.1 418.8 416.2 410.4 401.2 397.7 396.6 394.9 401.2 400.2 402.2 409.1 417.1 421.5 425.4 425.2 424.9 430 433.7 428.8 426.8 423.2 419.1 415.5 409.2 403.2 398.7 396.6 391.5 378.5 383.5 387.2 389.7 392.9 396.2 399.3 401.5 406.3 411.5 416
379.3 382.5 386.3 385 381.8 378.1 374.6 367.7 358.6 353.5 352.3 357.2 366.8 376.7 386 393.2 396.6 401.7 402.4 400.4 399.7 399.5 398 396.5 393.6 391.6 391.3 390.6 389.4 387.2 383.9 380.8 377.8 373.9 371.4 369.3 365.7 363.8 360.3 357.9 353.8 349.4 345.4 341.2 337.1 332.2 325.2 317 329.2 339.7 350.5 357.5 362.3 366.1 370.2 374.1 377.3 381.9 387 393.1 399.2 405.4 413.9 424.2 433.4 440.6 448.5 456.1 461 465.8 470 474.8 476.9 476.7 476.2 476.9 477.4 476.2 477.4 475.8 472.9 468.7 465.1 462.9 460.7 457.9 453.8 452.6 454.2 454.5 454.1 450.6 450.2 453 455.9 454.9 454 454 451.9 446.3 442.3 443.6 443.2 441.7 444.3 450.4 457 464.4 471.4 478.4 483 484.3 482 476.7 473.6 469.6 468.1 466.1 460.6 452.5 445.2 454.1 461.4 468 471.5 476.8 482.8 488.7 493.5 495.9 496.8 496.8 495.7 494.8 494.8 489.3 480.7 470.1 462.9 447.3 431.5 415.3 398.4 379.4 369.8 360.9 352.5 351.4 352.8 342.4 315.6 309.7 312.9 338.7 356.8 380.7 402.8 408 416.9 421.5 417.6 414 408.6 400.3 392.9 393 394.3 393.7 398.5 398.8 402.1 409.5 416.6 421 424.4 424.4 425.1 429.4 431 427.5 424.9 421.2 418.4 415.9 407.5 399.5 395.6 393.7 387.9 377.9 381.6 385.5 388.3 391.5 395.3 397.6 399.6 404.2 411 415.9
370.6 372.8 375.5 376.7 374.8 371.7 365.8 359.1 352.7 346.1 350.7 361.8 370.6 378.8 386.4 391.1 394 396.1 396.1 396.2 397.5 397.1 395.2 392.6 389.8 389.1 388.5 387.8 386.9 383.7 380.3 377.1 373.9 371 367.1 364.4 361.8 359.4 356 352.7 348.7 344.8 340.7 335.8 331.2 324.7 316.1 311.1 326.2 342.8 349.7 356.3 361.2 364.6 367.4 370.3 373.7 378.4 384.2 390.4 397.3 404.2 412.1 422.5 429.4 436.4 444.4 451.8 455.5 460 464 467.1 469.4 471 471.7 472.4 471.2 470.9 466.3 462.9 460.3 455.9 456.5 455.8 453.9 452.6 449.1 448.2 451.9 451.4 449 446.7 444.7 448.5 451.6 451.8 449.3 448.5 446.8 442.3 437.6 439.6 438.9 437.5 440.9 447 453.5 460.7 468.8 475.9 480.2 479.8 476.5 466.9 463.2 461.3 459.9 458.5 451.7 445.1 445 454 464.2 469 475.4 479.7 481 491.3 495.5 496.5 497.4 498.9 496.5 492.1 489.6 483.6 473.9 463.7 454.8 438.3 424.2 406.8 388.4 372.9 365.2 354.6 346.8 342.3 344.6 334.1 305.7 308.5 325 342.7 368.6 393 401.4 410.6 417.8 415.6 412.5 406.3 397.3 389.7 389.3 390.5 391.9 393.4 397.1 397.7 401.5 409.5 416 420.4 423.8 423.8 424.2 425.2 425.7 425.9 422.3 418.9 416.5 412.9 405.4 395 391.7 389 384.1 374.6 379.7 383.9 387.5 390.6 394.2 396.3 397.5 401.7 409.8 415.3
363.3 365.6 368.5 368.6 367.3 364.4 358.8 354.2 348.9 340 353.8 362.2 370.3 378.7 386.3 388.9 391.7 391.9 392.9 394.3 394.6 394.2 392.1 389.4 387.1 386.5 385.4 384.8 384.5 380.8 377 373.4 370.3 367.5 362.9 360.4 357.6 354.9 352.1 348.6 344.5 340.9 335.9 328.1 320.7 315 309.4 313 333.4 343.2 349.3 354.9 358.9 361.8 364.1 367.3 370.8 375.6 380.3 384 392.4 400.1 406.7 414.7 421.7 430.7 437 442.5 447.3 451.5 455.1 458.2 460.1 463.5 466.1 465.1 464.4 462.6 456.6 449.9 447 447.8 449.3 448.3 448.5 447.8 444.9 443.9 446.6 447.8 443.4 440.2 438.2 442.3 445.5 447.2 445.3 444.4 440.9 436.6 433.8 435.4 435 434 437.3 444.2 450.2 456.7 466.4 472.4 475.3 474.1 468.2 459.9 455.4 455.1 453.8 448.4 442.1 435.7 447.4 454.5 464.1 470.6 477.1 482.3 487.4 494.5 496.4 498 499.4 500.4 496.9 490.5 485 478 468.5 457.4 446.4 430.2 416.3 398.4 379.5 366 358.2 349 341.3 335.5 335.3 323.4 304.1 308 332.6 353.7 380.6 395.1 403.4 412.7 411.3 410.9 407.7 397.6 387.9 386.2 386.9 388.9 390.6 392.6 395.5 396.8 400.9 409.2 415 419 422.7 423.2 423.8 424.5 424.2 423.8 421.2 415.3 412.1 408.8 400.9 392.4 388.9 384.9 379.7 372.6 378 381.8 386.6 390 393.1 394.7 396.1 400.7 407.9 411.5
356.7 359.4 361.9 361.6 360.1 357.7 352.3 346.7 341.9 339.2 351.5 362.8 369.9 379.5 384 386.1 388 390 390.8 391.3 391.2 390.4 389.6 387.3 385.5 384.2 382.9 381.4 380.9 378 373.9 370.1 366.6 362.6 359.3 356.1 353.3 351 348.6 344.3 339.5 335.9 331.7 323.2 313.3 306.7 303.9 321.3 335.5 341.6 347.6 352.1 355.1 357.9 359.9 363.5 368.2 372.6 375.9 380.2 388 394.3 399.4 404.7 411.5 420.5 429.8 436.2 442.1 446.4 448.1 450.4 454 454.1 455.8 456.8 454.6 449.9 445.3 440.2 439.4 440.6 440.9 441.7 442.2 441.8 439.7 438 439.9 440.5 438 434.4 433.4 437.3 440.8 442.3 440.7 439.3 436.1 431.6 429.6 431.4 431.2 431.2 435.8 441.2 447.5 453.9 462.4 467.3 466.1 461.9 457.9 452.9 450.9 449.3 446.9 436.5 430.1 439.5 446.5 454.2 464.3 471.4 477.8 483.6 491.4 496.4 499.9 502.5 502.2 501 495.9 486.5 478.8 473.8 466.9 452.5 437.2 421.6 408.4 390 370.5 360.1 352.6 345.3 337 330.1 333.5 305.6 302.8 319.2 338.6 366.6 389.3 395.6 404.9 407.4 404.9 406.6 398.5 390.4 382.6 383.9 385.9 388 389.8 391.8 394.5 396.3 402.4 409.7 413.9 419.1 421.9 422.5 423.2 424.2 427.2 425.2 420.8 412.2 408.1 404.2 396.8 390.2 386 382.3 376 371.1 376.4 380.1 384.3 388.5 390.9 392.9 395.3 401.5 406.5 408.4
350.4 352 352.7 354.4 353.1 351.2 344.4 339.9 335.9 337.6 350.9 363.1 372.4 377 380.9 383.3 386.1 388 388.3 387.9 387.8 386.5 385.7 384.7 383.5 382.1 380.6 378.5 377.2 375.5 371.9 368 364 359.4 356.3 352.2 348.8 347.2 344.2 340 334.7 330.5 325.7 316.5 305.8 299.4 312.1 327 335 340.2 345.2 348.4 350.9 352.8 355.4 359.8 364.3 368.2 372.4 376.6 382.9 386.8 390.4 395.6 401 409.1 420.6 430.8 436.2 439.5 443 444.8 447.6 449.5 449.9 445.9 440.3 439.4 436.8 433.4 432.5 432.9 433.8 434.9 435.9 435.9 433 431.7 433.4 434.6 433.5 430.7 429.8 432.4 435.5 437.1 436.3 434 430.3 427 426.5 427.7 427.9 430 434.9 439.6 443 448.8 457 461.6 456.9 453.4 449.9 446.9 445.1 442.6 438.9 432 429 437.5 444.2 454.2 463.4 471.8 478.6 485.3 492.8 499.6 503.8 504.9 502.5 499.4 492.7 478.9 473.2 469.5 461.6 448.4 431.3 413.7 399 380.5 361.5 352 347.9 344.4 331.4 326.9 326.5 301.2 304.9 327.3 348.7 378.1 389.7 398 403.7 399.7 400 396.7 388.3 382 381.7 383.3 385.6 387 388.6 390.9 393.2 395.7 402.3 408.8 413.4 417.5 421.8 422.5 422.5 429.2 427.5 425.7 417.6 409.9 404.6 400.4 394.5 388.8 383.8 379 372.6 369.5 373.7 378.2 382.3 386.4 389.1 391.6 395.3 401.8 405.3 404.8
344.5 345.7 344.4 345.6 345.8 343.3 336.4 333.5 328.4 337.2 351.3 364.3 370.2 375.1 378.2 381.1 384.1 384.8 384.6 384.6 383.9 382.7 381.9 381.3 381.1 380.1 378.2 376.1 373.9 371.7 369.3 365.3 361.3 357.1 352.7 348.1 345.2 340.6 339.7 334.2 330.3 326.3 320.2 309.7 299.9 300.7 316 325.4 332.1 337.7 340.9 344 346.1 348.1 351.7 355.8 360.2 363.7 368.1 373 378.4 380.7 383.7 390.5 394.5 401.2 413.2 423.9 427.5 432.8 439.2 440.8 440.3 439.8 439 435.7 433.5 431.1 429.8 426.4 425.3 427 428.3 429.4 430.4 429.8 427.1 426.5 427.8 429.5 429.5 427.4 426.1 427.3 429.8 433 432.3 427.1 424.8 423 423.1 423.9 423.8 427.2 433 437.3 439.5 443.9 449.6 453.3 450.5 448 444.3 441 438.1 435.9 431.7 423.8 427.2 438.4 446.8 454.6 462.3 469.9 477.4 484.6 492 497.8 502.7 504.9 502 496.7 489 477.9 464.3 462.4 454.8 444.3 425 406 390.2 371.1 354.1 347.6 342.1 338.7 332.3 328.7 311 297 311.1 333 358.6 381.8 389.7 399.3 396.1 392.9 393 389.1 381.1 377.9 379.9 382.2 384.4 385.9 387.3 389.1 390.8 395 401.6 407.6 411.8 416 420 420.4 422.4 426 425.3 420.6 415 409.5 403.1 398.4 393.6 387.1 381.9 375.9 369.9 367.6 372.6 376.7 380.7 384.6 387.3 391.6 397.1 400.9 402.4 400.9
336.8 337.8 337.7 338 337.7 333.1 329.3 324.6 328.2 342 355.5 363 367.5 372.9 377.4 380.3 381.6 381.9 382.1 381.5 380.2 378.8 377.8 377.8 377.9 377.8 375.9 373.8 371.2 368.6 366 362.1 358.3 353.7 349.2 344.5 341.1 337.5 330.9 328.6 325.9 321.4 315.6 303.1 292.9 305.6 315.1 320.8 328.5 334.5 337.3 339.5 341.7 345 348.7 352.8 356.3 360.2 364.6 369.7 374.1 376.2 380.5 385.6 390 398.3 410.7 417.7 422.6 428.8 432 432.7 431.9 431.4 429.5 426.9 425.3 421.5 419.9 419.4 419.2 421 422.5 423.8 424.9 424.6 423.1 421.9 422.8 424.2 424.5 424.6 422.7 422.6 424.7 427.1 426 421.7 421.2 420.2 419.4 419.7 419.8 424.3 430.5 433.6 435.8 438.3 441.7 444.1 447.6 443.1 439 436.1 432.4 429.8 426.1 414.2 427.8 438.4 446.6 454.3 462.9 468.1 473.9 480.5 485.1 489.3 495.9 500.2 498.9 492 484.7 475.5 462.5 455.8 447.5 434.4 415.3 397.4 381 360.4 346.4 339 337 336 332.1 327.8 305.9 296.3 319.5 343.2 370 379.8 389.3 393.3 387.3 386.4 386.1 380.5 375.4 376.9 378.9 381.3 382.9 384.4 385.9 387.3 389.1 393.5 400.1 405.9 410.1 415.1 417.9 418.9 421.1 423.2 422.7 421.3 416.5 409.5 403.1 397.6 392.8 386.4 380 373.2 368.4 366.5 371 375.2 379.4 382.4 385.9 392.1 397.4 400.3 400 397.8
327.3 329.1 330.9 329.3 328.2 322.9 317.9 321.4 334 351.4 359 362.8 367.2 372 376.1 378 378.6 379.1 378.6 378.1 377 375.8 375.4 375.5 375.6 375.2 373.1 370.5 367.8 365.2 362.3 358.6 354.6 350.4 347.2 342.5 338.1 333.5 329 317.9 321 315.6 307.1 297.7 289 305.3 311.1 318.2 325.5 330.2 333.2 334.4 337.1 342.2 346.3 350.1 353.1 357.7 362.5 366.9 370.5 373.1 377.1 381.2 386.1 396.5 406.2 412.8 416.9 420.6 418.9 420.7 421.6 420.5 417.4 415.6 412.2 410.5 409.2 410.3 411.9 414 415.7 417.2 418.9 419.5 418.9 417 417.7 418.4 418.4 420.2 420.6 420.9 420.9 421.9 419.4 418.8 419.2 419.2 416.7 416.7 416.2 421.2 427.1 430 431.9 432.8 436.4 439.8 440.4 433.7 431.6 429.5 426.4 424.8 414.3 414.3 425.8 436.7 445.2 453.4 462.6 465.3 468.7 473.9 477.7 480.7 488.5 493.6 492.8 486.6 478.1 470 461 452 442.2 428.8 408.6 389.6 372.4 352.7 342.5 335.1 337.5 336.6 327.8 316 297 304.2 329.2 360.6 375 380.4 386.2 384.4 380.2 381 380.1 374.3 374.3 376 377.9 379.5 380.3 381.8 383.3 385.1 388.2 393 398.4 404.3 409.1 413.9 416.4 417.1 421.5 421 421.5 422.6 417.6 408.6 401.8 397.4 391.6 385.2 379.1 371.3 366.5 365.6 369.3 373.5 377.3 380.2 385.9 392.2 396.5 399.3 397.4 395.2
321.2 325.3 326.6 325.7 317.8 312.1 315.5 327.2 341.8 352.6 358.2 362.3 366.9 372.3 375 376.1 376.8 376.8 375.2 374.5 373.8 373.4 373 373 373.2 372.4 369.9 367.3 364.6 361.6 358.6 355.9 353.1 349.5 346.4 342.6 337.4 332.3 328.2 322.7 313.5 302.3 298.2 289.3 290.9 303.9 308 315.1 321.6 326.1 327.8 329.3 333.3 337.4 342.2 346.7 350.2 354.9 359.9 363.9 367.6 371.2 375.1 378.5 382.2 393.6 401.2 406.3 408.6 407.7 408.9 409 408.9 408 405.5 403.6 402.6 402.7 403.1 404.7 405.9 407.4 409.2 411 412.7 413.8 413.8 412.1 412.4 412.6 413.3 415.3 417.7 418.9 418.8 417.8 415.8 416.8 417.6 417.3 416.2 413.3 413.5 418.3 424.6 426.8 426.9 425.7 428.8 432.3 430.2 426.5 424.1 422 419 411.7 404.3 413.7 424.2 433.5 443.4 454 460.3 463.5 463.2 471.2 476.6 477.9 483.1 487 483.8 478.4 474.9 468.9 459.6 449.6 439.6 423.6 404.8 383 366.2 346.6 335.5 331.8 332.5 334.5 323.9 296.3 295.3 314.3 339.7 370.8 378 383.6 381.3 377.8 377.7 375.8 373.5 371.2 374.5 376.4 376.1 376.8 377.6 379.1 381.2 381.6 387 391.8 397.4 403.3 408.1 412.7 413.5 414.5 419.4 418.7 419.6 419.8 414.9 406.7 401.8 397.5 390.5 384.2 378.1 370.9 365.1 363.1 368.2 371.6 375.2 379.6 384.9 391 395.5 397.1 395.2 392.4
314.7 316.1 315.2 313.6 306.1 310 321.2 333 346.1 352.9 357.2 362.4 367.8 370.9 373.2 374.3 374.8 374.5 373 372.2 371.7 371.1 370.7 370.5 370.1 368.7 366.5 363.9 360.9 357.9 355 352.8 351 349.3 346.7 343.3 339.6 334.8 331 326.1 319.6 310.6 299.2 286.1 286.6 300.1 306.1 313.4 318.4 321.7 321.4 325.3 328.9 332.7 337.8 342.9 347.4 352 356 359.7 365.2 369.3 372.4 374.7 379.5 388 394.4 397.2 395.1 394.7 393.5 396.7 394.8 394.1 394 396.7 396.8 398.1 399.1 400.5 401.2 402 403.6 405.2 406.4 407.5 408.3 407.2 407.2 407.3 408.5 410.3 411.6 415.8 416.8 414.8 413.5 414.9 415.9 415.4 413.7 409.8 411.7 415.7 421 423.3 421.7 422.2 425.6 427.1 425.4 418.9 417.3 416.1 414.2 404.5 402.6 409.3 421.2 430.6 440 449.2 457.8 463.3 467 470.4 475.6 477.2 478.4 478.9 477.8 476.1 472.9 467.3 457.4 446.3 436.1 421.5 397.9 376.7 360.2 340.4 327.8 322.3 326.4 328.4 308.2 289.5 301.2 323.2 347.2 372.7 378.9 381.6 374.8 374 374.7 371.7 368.8 371.1 374.2 374.5 373.6 374.3 375 376.1 378 378.5 384.8 390.6 396.4 402.4 407.3 411.3 411.4 411.7 416.1 416.4 416.7 415.9 412.6 405.5 401.1 396.6 389.5 383.2 377.2 370.2 365.1 362.8 367 370.1 374.1 378.9 384.8 390.2 393.5 394.8 393.7 390.3
308.4 308.2 307.7 298.7 303.5 315.4 322.2 336.5 345.9 352.5 357.3 362.3 366.4 369.2 371.5 372.4 372.8 372.2 371.1 370.2 369.6 369 368.4 367.5 366.8 364.6 362.9 360.9 358.2 355.3 352.1 349.5 348 346.8 345.5 344.3 341.7 337.1 332.8 327.3 318.5 307.7 297.7 282.4 284.8 296.3 300.8 306.6 311.2 312.5 314.6 319.2 324 328.8 333.4 338.2 342.6 346.4 351.5 356.5 362.1 366 368.1 370.1 375.4 382.1 384.4 386.2 383.9 382.3 382.4 384.3 383.6 386.8 390.9 393.8 395.7 396.8 397.1 397.8 398.4 398.6 398.9 399.7 400.7 401.6 402.6 402.1 401.9 402.1 403.8 405.3 406.1 410.5 412.4 410.9 411.1 413.4 413.9 412.5 409.8 404.6 408.6 413 417.9 419.4 418.9 421.2 423.9 423.7 419 414.6 412 410.5 406.2 402.4 394.3 403.2 416.5 426.7 436.6 445.9 453.1 461 464.4 468.7 474 472.9 473.4 475.4 475 473.7 470.3 465.6 454.8 443.3 433.1 415.7 392.9 370.2 353.4 335 322.5 312.5 318.2 313.4 291.7 289.4 311.6 331 358.8 372.9 379.9 377.2 371.2 372.2 372.7 367.9 366.3 371.1 373.5 371.8 370.4 370.6 371.3 371.8 370.4 377.2 383.4 389.3 395.9 402 406.3 410.4 409.4 409.1 414.5 412.5 412.7 411.3 409.3 404 399.6 395.1 388.5 382.1 375.6 368.4 364.2 361.2 365.3 368.3 372.5 377.7 383.7 388.3 391 392.6 390.7 385.2
302 305.9 295.3 294 308.8 319.5 329 336.7 345.1 350.6 355.6 361.7 364.6 367.4 369.5 370.4 370.6 370.3 369.5 368.8 367.7 366.7 365.6 364.6 363 361.3 359.6 357.6 355.2 352.4 348.2 345.7 344.8 343.9 343.4 343.6 341.8 338.4 332.7 327.2 317.3 306.4 294.6 281.4 280.6 293 297.3 300.6 303.6 306.9 313 316.1 318.9 323.3 327.5 331.7 336.7 341.8 347.2 352.1 358.1 361.6 363.3 366.2 372.3 375.4 376.4 377.5 377.7 378.7 379.4 380.5 382 385.3 388.8 391.6 393.5 394.5 395 395.2 395.2 395.3 395.3 395.9 396 396.6 397.5 396.6 396.7 396.6 397.5 399.7 401.4 405.3 406.8 407 408.9 411.4 411.1 408 404.5 399.7 404.8 408.8 412.8 415.3 415.7 418.6 421.7 418.4 414.8 410.6 407 404.5 400.4 396.3 386.5 397.7 410.9 421.5 433.9 442.1 448.6 453.9 459.3 464 466.7 467.7 471.2 473.3 470.1 467.6 464.4 460.3 451.1 440.2 430.6 410.5 387.1 365.8 350 331.1 316.8 306.8 308.2 291.6 286.9 298.2 318.6 339.1 362.5 374.1 377 372.2 369 370.8 369.2 363.4 363.8 371.2 371.2 368.9 367.5 366.8 367.1 367.3 370.1 376.5 382.1 388.4 395.8 401.5 405.8 408.8 407.8 406.8 409.2 408 408.5 408 405.4 401.6 397.4 392.7 387.1 380.6 373.5 367.1 363.1 359 363.2 366.9 370.8 376.2 381.5 386.2 387.8 389.3 385 382.5
294.9 291 281.7 303.3 310.9 323.8 333 339.2 345.1 350.7 357.2 360.9 363.6 367.1 368.4 370.2 371 370.2 368.9 367.6 366.2 364.8 362.4 361.1 359.5 357.9 356.3 354.3 352 348.3 343.9 341.1 340.1 339.5 340.6 340.7 338.8 336.1 332.1 326.9 319.4 305.4 290 276.9 279.4 291.5 297.5 299.6 298.4 305.7 309.6 311.6 314.1 318.8 323.1 327.3 331.9 336.1 342 348.2 353.6 356.9 359.2 362.5 366.2 367.5 368.9 370.7 371.4 372.2 374.6 377.5 380.7 382.6 385.8 388.5 389.4 390.2 391 391.7 390.5 391 391.5 391.8 391.6 391.8 392.3 391 390.8 391.3 391.8 393.4 396.4 399.2 401.3 402.4 405.6 407.6 405.7 402.4 399.6 395.7 399.7 403.3 407 410 412.3 415.6 415.2 413.1 409.8 406.4 402.9 399.5 394.5 389.8 379.5 392.6 404.9 417.2 429.7 436.7 441.6 446.4 451.9 457.1 462.2 464.1 467.8 465.7 463.7 461.5 458.1 453.6 445 435.6 424.6 408 384.2 362.3 343.4 326.5 313 300.6 289.1 284.7 289.1 309.2 327.4 353.6 369.6 376.4 373.7 368.2 366.5 368.9 365 359.9 365.9 369.2 367.9 365.3 364.1 362.6 361.5 363.6 369 375.3 381.9 388.5 395.6 400.4 406.1 407.4 404 403.3 404.7 403.9 403.3 403.6 401.9 398.2 394.5 389.7 384.3 378.6 371.2 365.2 361.4 358.6 360.2 365 368.9 374.2 379.3 383.9 385.4 385.2 382 380.1
281.6 275.3 295.1 303.1 315.3 328 335.9 341.6 347.5 353.9 358.6 363.9 367.6 369.4 370.8 371.3 370.4 369.8 368.1 365.1 363.9 362.3 359.6 357.6 355.8 354.3 352.8 351.7 349.1 345.4 340.9 337.9 335.7 334.6 335.7 334.7 331.6 330.4 328.3 325.1 319.4 306.8 285 274.5 280.6 290 294.3 296.4 298.2 301.8 305 307.5 309.3 313.8 318.5 322.4 326.5 330.7 337.6 343.7 348.9 351.7 356 358.8 360.2 360.7 360.8 362.9 364.1 365.5 368.6 373.3 375.5 377.4 378.9 380.2 382.6 384.1 385.4 387.2 386.9 386.2 386.8 387.5 387.6 387 387 385.5 386.2 386.5 387.6 388.2 391.3 393.5 395.6 397.3 398.7 399.4 398.1 396.4 394 390.6 393 396.4 401.2 405.3 408.3 410.6 410 407.1 404.6 401.8 398.4 394.4 390.5 378.1 379.3 388.4 401 413.4 423.7 429.2 436.1 442.1 446.7 451.3 458.4 459.7 460.7 458.8 458.1 455.4 450.4 446.1 440.6 431 419.8 403.9 383.1 361.6 338.7 318 302.5 291.3 284.2 283.5 302.2 317.5 335.3 360.7 373.4 374 371 366.6 364.2 364.3 359.3 357 366.7 366.7 364.6 362.4 360.4 358.5 356 360 367.3 373.1 379.9 388 394.5 399.9 404.6 405.3 401 400.1 402 402.4 400 399 397.7 394.8 391.2 386.1 380.7 375.8 368.9 363.2 358.7 354.9 360.3 363.8 367.1 372.3 377.7 381.3 384 382.4 378.5 378.6
269.9 288.9 299.7 309.2 322.7 333.1 339.8 346.4 352.5 358.8 367.7 371.9 374 373.4 372.3 371.8 370.7 369.4 366.9 363.5 360.9 359.1 357 354.7 352.4 350 348.4 347.9 347.5 343.7 337.8 333.5 331.4 329.6 329.9 327.8 326.2 325.4 325 320.4 320.9 307.1 286.3 272.9 275 286 289.9 286.9 293.8 296.6 299.6 301.9 305.1 308.7 314.3 319.3 322.2 326.4 332.3 338.4 343.2 347.8 351.1 352.8 353.7 354.8 355.4 355.2 358.2 361.2 363.9 367.6 369.3 371.2 372.6 374 375.6 377.2 378.8 382.1 382.4 381.3 382.1 382.9 383.5 382.7 381.9 380.7 380.3 380.4 381.6 384.5 386 388.1 390 391.5 392.4 392.2 390.8 389.9 387.8 384.6 384.8 388.8 394.6 399.1 403 404.1 403.2 400.6 398.2 395.9 393.3 389.3 384.3 371.8 376.4 384.3 398.2 409.3 419.4 423.8 430.3 436.4 439.4 446.1 451.4 452.5 453.1 452.1 451 448.7 445.2 440.8 433.2 425.1 415.3 401.9 382.4 358.3 337.6 320.5 303 288.6 281.5 292.6 305 323.8 347.4 362.5 371 368.7 368.3 363.9 360.3 358.7 354.6 361.1 364.2 363.9 361.9 359.6 357.3 353.7 354.3 359 365.7 371.4 379.3 386.9 392.6 398.2 403.2 402.9 398 397.2 400.8 401.8 396.4 393.1 391.1 388.8 387 381.9 378.1 373.9 366.8 361.2 357 353.5 360.3 364.6 368 371.1 376.7 380.9 382.9 380.6 377.2 376.2
280.7 292.1 302.6 313.8 328.8 339.9 347.9 358.2 366.1 372.3 376.9 379.2 377.8 374.3 372.5 372 370.9 368.4 364.8 361.3 358.3 355.9 353.1 350.9 349 346.7 344.8 344.3 342.5 338.1 333.4 328.7 326.2 324.6 323.8 323.2 321.9 321 318.7 317.6 317.8 310.1 286.9 270.2 273.3 281.8 282.4 286.8 288.5 290.7 292.8 296.4 300.9 304 309.4 315 319.5 322.1 326.4 332.2 338.5 342.6 346 346.2 346.3 346.2 349.5 351.6 354.1 357.8 360.1 362.3 364.2 365.8 367.1 368.4 369.8 371.2 372.6 375 376.2 376.4 377.3 378.1 378.5 377.5 376.8 374.1 373.7 373.5 375.3 378.7 380.7 382.6 383.9 384.4 384.9 385 385 383.9 381 377 379.3 382.2 387.8 391.9 394.3 395 395.9 394.4 392.2 390.1 386.7 383.4 378.5 367.7 371.4 380.2 394.8 405.1 412.9 419.4 425.9 431.7 434.2 439.3 444 442.1 444.8 445.9 444.5 442.1 438.8 435 427.6 421.1 411.7 399 380 355.2 334.2 317.1 298.2 283.6 279.8 292.2 307.7 329.5 351.7 363.1 363.2 363.3 361.9 358.9 355.7 353.2 352.4 359.6 361.4 360.8 359 356.7 354.4 349.9 353.6 359.2 364.4 371 378.6 385.3 390.4 396.1 401.4 400.1 395.5 395.6 399 396 390 387.8 385.4 382.8 381.5 377.5 374.2 370.1 363.5 358.4 354.7 355.2 362.5 368.4 371.4 372.3 376.1 380.4 382.4 379.6 375.5 373.1
284.4 294.3 307.7 323.5 338.1 352 361.5 369.8 376.4 380.9 382.5 380.5 377.9 374.8 373.1 371.8 369.2 366.7 362.8 358.8 355.2 352.5 349.7 347.2 345.1 343.1 340.8 338.1 334.4 330.2 326.4 322.1 320.2 318.9 319.1 318.5 317.7 314.1 314.2 323.7 324.8 316.2 286.8 272.8 265.5 274.1 272.9 281.8 283.5 284.7 286.8 290.7 296 297.4 303.8 308.7 313.8 318.5 322.4 325.7 331.8 336.4 338.4 338.8 339.2 342.6 346.6 347.8 351.2 354.9 357.6 360.2 361.5 362.3 363.5 364.6 365.9 365.7 366.6 367.3 368.4 371.2 372.5 373.5 373.4 372.2 371 368.4 367.8 366.3 370 373.2 375.8 377.3 377.2 377.4 378.1 378.4 379.8 379.3 375.8 373.3 376.5 380.5 385.3 386.7 388.1 388.8 388.7 388.1 386.6 383.8 381.5 378.4 373.2 363.1 368.6 374.7 389.6 401.4 408.3 414.1 420.9 425 429.6 433.9 436.4 437.2 437.5 435 434.9 433.8 433.2 428.8 423.2 415.6 408.5 396.4 374 352.5 331.3 312 292.9 279.7 278.9 293 311.9 337 352.6 360 357.6 356.4 355.3 354.6 351.8 349 353.7 358.4 358.7 357.4 355.5 353.6 350.1 347.4 352.4 356.9 364.8 371.5 377.5 384.4 389.4 394.8 398.8 397.5 394.2 394.8 395.8 393.2 384.8 382.4 379.6 377.3 375.1 373.2 370 365.9 360.4 354.3 349.8 358 365.4 371.5 375.1 375.7 377.4 380 381.2 377.7 372.1 370.4
287.8 299.5 317.3 336.2 351.1 361.7 370.3 376.9 381.4 383.4 382.3 379.8 377.2 373.8 372.7 371 368.1 364.2 360.2 356.3 352.5 349.3 346.3 343.9 340.4 337.9 335 331.7 327 322.8 318.8 315.7 315 314 314.6 314.4 310.6 310.5 311.5 321.5 326.1 320 299.7 281.9 265.5 264.7 268.5 274.4 277.5 277.7 280.3 285 286.8 294.3 298.2 303.9 308.2 311.6 318.7 321.6 324.5 328 329.4 330 334.7 338.6 342.2 345.2 348.5 351.8 354.6 357.5 359.2 360 360.9 361.8 363 362.9 362.3 362.2 363.7 365.8 367.6 368.7 368.4 367 365.5 362.8 361.7 360.4 364.2 368 370.3 371.7 372.7 372.6 373.2 373.5 374.7 375 372 367.6 373.7 377.1 380.8 382.9 382.9 381.6 381.4 381.6 381 378.6 376.2 373.4 368 360.8 361.4 369.3 383.7 397.1 402.9 409.1 415.1 420.1 425 428 429.8 430.4 429.3 427.8 429.6 431.1 426.9 422.3 417.3 411.4 402.8 393.6 371.4 351.1 332.3 308.9 288.8 276.2 278.6 298.5 319.8 345.1 352 351.4 351.8 348 347.4 348.3 346.2 344.4 354.3 356.2 354.8 353.2 351.3 349.5 346.6 345.7 350 356.8 365.4 372.2 377.8 382.9 387.9 392.6 395.6 394.8 392.2 392.8 392.8 389 381.9 377.3 372.9 370.6 368.8 367.6 365.9 362.1 356.3 349.9 349.5 360.2 367.8 373.4 376.3 377.3 378 379.4 379.3 374.7 368.9 366.9
293.2 307.9 329.3 348.3 360.2 368.7 375.2 380.2 382.6 383.4 381.6 379.1 375.5 372.9 371.6 369.5 366.7 362 358.1 354.3 349.4 345.2 340.2 335.9 333.2 329.4 327 324.5 321.6 317.6 313 311.6 310.4 309.4 309.6 308.3 309.5 318.4 323.2 318.9 326.8 324 314.7 296 276.7 263.7 257.3 265.8 267.9 268.9 272.2 274.3 282.2 287.6 292.9 298.8 303.4 307.6 311.3 314.1 318.9 322.8 323.9 326.3 331.4 335 338.5 341.7 345.1 348.8 351.9 354.6 356 357 358.3 359.1 360.1 359.7 358.9 357.8 359.4 361 362.2 363.3 363.3 361.8 360.3 358 356.5 355.3 358.8 361.8 364.2 366.8 367.5 368.3 368.6 369 369.7 370.7 368.8 360.1 370.1 373.7 376.7 377.1 376 374.8 375.6 375.9 375.2 373.2 370.9 368.4 363.1 359.7 357.8 365.5 378.6 390.5 396.3 402.4 408.9 415.5 418.8 421.3 422.2 422.4 420.9 423.1 426.2 425.3 423.6 419.2 411.7 406.2 397.5 390.8 375.6 348.8 325.6 305.3 284.3 273.6 281 301.9 328.3 343.8 348.6 343.9 344 338.1 340.6 342.3 340.3 348.3 352 354.1 352.2 350.2 348.4 345.8 344.1 343.3 349.4 357.4 366.2 371.2 376.8 381.9 386.3 390.7 392.6 391.7 389.6 388.6 387.4 384.9 379.7 374.5 367.9 364.6 363 362.1 360.2 356.9 351.8 345.5 351.4 362.1 368.8 374 376.6 376.5 376.8 377.7 376.5 371.7 366.2 363.8
301.9 323.2 339.2 353.6 364 371.7 376.6 379.7 381.7 382.5 381.1 377 372.8 370.8 368.3 365 362.6 358.8 354.2 348.4 343.9 337.5 332.5 328.5 325.8 321 318.7 316.7 316 312.9 309.2 306.6 304.9 305.4 305.8 306.6 313.8 318.2 322.3 326.2 326.1 325 321.5 317.1 304.9 289.6 268.5 256 256 257.8 263.5 271.1 276.3 281.8 286.2 293.7 298.7 303.4 305.5 309.7 313.8 317.7 320.1 323 327.8 331.5 334.8 337.9 340.9 344.8 348.3 350.5 351.7 351.6 352.8 354.1 355.3 355.6 354.6 353.3 354.9 356.2 357 358.2 357.8 356.8 355.1 353.2 352.7 351.2 353.5 356.3 359.6 362.2 363.7 364.1 365.3 365.6 364.9 365.6 363.2 356.6 365.1 368 368.8 369.2 369.4 368.3 369.3 370.1 369.3 368.2 365.8 363.3 359.5 356.9 355 361.3 373.7 382.7 387.7 394 402 408.1 412.4 413.9 413.9 413.8 417.4 420 418.7 416.3 414 413.8 408 399.5 393.5 387.1 372.9 348.4 323.9 302 276.2 273.3 286.6 306.3 330.7 343.3 338.5 336.9 335 331.9 334.6 335.6 343 348.3 352 353 352.3 350.7 348.3 344 341.8 342 347.2 356.2 364.7 369.9 375.3 379.7 383.7 387.5 389.3 388.3 386.6 385 383 379.2 375.1 371.8 363 358.2 357.3 357.4 355.9 352.7 346.7 340.1 352.8 362.4 368.6 372.7 375.7 375.3 375.4 375.4 373.1 368.7 363.8 360
317.4 338.1 350.6 360.1 367.8 372.3 375.9 378.4 380.1 379.8 377.1 372.4 369 365.3 362.3 359.3 355.6 350.6 345.5 341.7 336.6 329.6 325.3 321.1 317.3 313 311.2 310 309 307.4 304.7 302.6 300.7 301.6 303.3 308.5 312.8 316.4 319.7 324 325.3 325.8 325.3 321.6 317.6 308 293.9 275.2 256.9 250.1 256.1 262.4 269.3 275.3 283.1 289.2 294.6 299 303.1 307.6 311.7 315.4 318.2 320.1 324.4 327.4 331 334.5 337.8 340.5 343.9 345.8 346.2 346.4 347.2 348.4 349.6 350.4 350 348.8 350.2 351.3 352.1 353.1 352.3 352.1 350.3 349.7 348.9 346.6 348.8 351.6 355 357.5 359.3 360.9 361.4 361.7 360.1 359.1 355.4 354.2 358.7 362 363.6 364 363.2 362.6 362.7 363.2 363.2 362.5 360.6 358.4 355.7 353.2 352.2 357.5 368.1 375.4 380.3 386.3 395.8 399.9 404 405.6 406.8 409 413.9 413 410.1 406.9 406.2 406.1 402.4 394.9 389.6 382.8 370.5 347.8 323.5 298.4 280 271.6 286.1 310.9 327.2 336.5 329.1 329 325.1 323.6 330.5 336.9 342.5 347.4 351.6 353.6 353.3 351.4 350.6 343.6 338.4 341.2 346.8 356.3 362 367.3 372.6 376.8 381 384.2 385.5 385 383.4 381.6 378.7 374.4 369.4 365 357.8 353.8 352.5 352.7 351.2 348.2 342.4 337.4 352.6 361.9 368 371.9 373.5 373.4 373 372.6 369.3 365.4 360.9 356
329.7 344.8 354.9 362.8 368.5 372.5 374.9 375.7 375.9 374 370.4 366.8 362.6 357.9 355 350.9 347.4 343.5 336.5 333.3 328.5 322 316.5 311.8 309.3 306.7 304.8 303.6 302.9 302.6 300.4 298.9 297.6 299.4 303 307.7 311 314 317.2 321.3 325.2 326.5 325.4 321.8 318.8 316.5 311.8 300.7 284.3 265.6 251.4 250.2 259.5 267.4 276.8 286.1 292.9 297.6 301.3 305.1 308.1 312.2 314.7 317.5 320.9 325.4 328.1 331.5 334.9 337.6 339.6 339.9 340.2 340.6 341.9 343.6 344 344.4 345 344.3 345.4 346.5 347.3 347.9 347.7 347.4 345.7 345.7 343.9 342.9 346.4 348.4 351.6 354.5 356.3 357.7 358 356.4 354.7 352.7 349.1 348.1 353.3 355.9 358.2 358.1 357.8 356.5 356.2 356.6 357 356.7 355.7 353.8 351.7 352.3 348.9 354.8 361.5 369.5 374.1 381.5 390.5 392.8 395.4 397 399.6 405.5 405.7 403.5 401 398.7 398.3 397.3 393.8 388.6 383.9 377 364.1 344.2 322.9 296.7 277.4 269.5 287.6 311 322.3 324.3 321.5 319.8 319.8 317.8 329.6 334.7 340.6 346.1 351.6 355.3 355.1 355.1 352 343.3 336.5 340.7 345.6 353.9 359.7 364 369 373.8 377.8 381.1 382 381 380 377.9 374.9 371.3 365.1 360.2 353.9 350.1 347.7 346.9 346.1 342.5 337.3 340.4 352.8 361 366.7 369.8 370.8 370.5 370 368.7 365.2 361.5 357 351.6
335.2 346.5 354.3 360.9 365.5 368.3 369.9 369.4 368.6 366.2 362.3 357.6 353.6 349.8 346.4 341.7 337.8 334.1 327.3 324.6 319.3 313.5 308 305.8 304.1 302.4 300.2 298.2 297.5 297.9 296.1 295 294.5 298.7 302.8 305.6 308.4 311.3 313.7 318.7 322.5 324.5 323.8 321.3 318 315.3 311.8 306.6 301.8 293.3 267.4 244.6 249.4 268.7 275.4 286.2 290.3 294.2 299 301.5 304.4 308.4 311.5 314.3 317.2 321.6 326 329.3 331.2 334.4 335.5 335.3 335.1 335.3 336.8 338.5 338.4 338.3 338.9 339.9 340.8 341.8 343.2 343.8 343.3 342.8 340.7 339.9 338.1 340.1 343.4 345.4 348.3 351.1 353 354 353.2 350.7 348.8 346.8 342.6 344 347.6 350.8 352.5 352.6 352.6 351.1 350 350.7 351.4 351.6 351.5 349.1 348 348.2 346.9 352.2 359.3 365.1 368.9 376.1 383.8 386.6 387.5 389 393.7 397.4 395.8 393.4 391.5 392.1 392.3 390.3 386.1 383.8 379.7 370.8 358.1 341.1 325.1 297.6 276.2 269 288.8 310 316.1 315.8 314.6 313.6 313.1 318.6 327 331.8 338.1 344.9 350.8 357 358.5 355.9 349.2 341.6 335 338.3 344.3 352.4 355.2 359.3 364.7 369.9 375 377.7 379.3 377.1 375.8 374 371.8 368.2 361.1 354.3 348.9 345.8 343.8 342.7 340.2 335.4 331 341.4 352.7 359.7 365 367.8 368 367.3 366.6 364.4 361.3 357.7 351.7 346.7
336.6 345.9 352.2 357 360 362.1 362.8 361.8 360.4 356.8 352.6 348.3 343.8 341.4 338 332.3 327.7 322.4 317.4 313.8 307.9 303.5 302.5 300.6 299 298.3 295.9 293.4 291.6 290.7 290.7 291.2 293 296.1 299.9 303.1 305.7 307.3 309.7 314.6 320.8 322.3 321.9 320 316.7 313.1 307.9 302.8 294.2 289.6 273.9 239.3 245.1 265 277.1 282.9 286.6 290.7 294.9 298.4 302.2 305.8 309.2 311.3 314.2 315.7 321 325 326.6 328.9 331.3 331.6 331.3 330.9 332 333.3 334 333.8 334.6 335.7 335.6 336 337.1 338.2 338.3 338 335.9 335.1 334.5 334.5 339.7 341.6 343.8 346.7 348.6 348.6 346.8 344.7 343.2 341.8 339.1 338.6 342.6 346.5 346.9 347.2 347.3 345.7 345.1 346.3 347.8 347.8 346.8 345.4 345 345 345.6 350.1 355.6 362.6 366.5 372.6 377.3 380.8 379.5 382.2 387.4 387 386 383.9 384.2 385.6 384 382.7 379.8 377 373 362.7 351.9 338.8 327.1 301.5 278.1 266.5 284 307.9 311.3 310.7 307.7 307.4 307.9 317.3 324 329.7 336 342.9 350 357.5 359.8 354.7 345.5 339.4 331 334.8 340.8 348.4 351.9 355.5 360.8 366.2 371.6 374.5 376.5 374.3 373.4 371.6 369.2 364.7 358.2 351 344.2 341.1 338.5 336.7 333.6 330.2 327.9 343 351.6 358.5 363.2 365 364.4 363 362.3 360 356.8 352.5 346.3 340.9
336 343 347.8 351.2 353.8 355.1 355.4 353.5 351.2 346.8 342 338.9 333.8 331.2 326.8 321.6 317.9 310.7 305.3 301.2 298.8 298.1 296.7 295.8 295.3 294.7 292.6 289.7 286.6 284.6 287.2 290 291.8 293.9 296.2 299.4 301.1 302.2 303.7 309.3 316.8 318.8 317.3 314.6 310.3 306.6 300.5 296.2 289.6 282.4 266.6 240.8 245.9 258.1 274.5 278.1 282.2 285.8 289.4 293.4 299.3 303.5 307.1 309.5 310.6 311 315.2 319.4 321.3 323.3 324.4 326.8 326 325.5 327 328.1 329.1 328.9 328.9 329.3 329.3 331.4 332.4 332.7 332.9 331.8 331.2 331.6 331.1 331.9 335.8 337.8 340 342.1 343 342.9 340.6 338.3 337.2 336.2 334.9 333 336.6 340.7 341.8 342 342.1 340.6 341.6 343.2 343.9 343.9 344 342.9 343.2 340.6 343.8 347 350.8 359.1 363.6 366.3 370.1 372.2 371.9 378.4 381.3 379.8 378 377.1 377.9 378.5 377.9 376.9 374.1 371.3 365 355 347.3 337.4 327.9 308.6 283.6 264.5 283.7 303 304.7 306.3 303.8 301.7 307.7 316.2 322.3 327.3 334.6 342.2 350.4 357.2 358.6 351.1 342 334.7 327.7 333.1 338.2 344.8 348.1 352.6 358.7 364.5 368.8 373.3 373.6 372.4 371.2 369.3 366.2 360.9 354.8 347.8 340.1 335.8 333.2 330 327.9 324.6 333.7 343.4 351 357.4 361.4 361.9 361.2 359.6 358.1 355.5 352.3 347.1 340.4 335.3
330.8 336.6 341.6 344.4 346.8 348.1 347.1 345.2 341.5 336.5 331.6 328.8 324.5 319.6 314.6 310.3 307.5 300.9 296 292.9 294.4 293.6 292.4 291.5 291.3 291.6 290 285.4 279.7 285.2 288.9 288.8 289.7 290.8 292.7 295.1 295.5 296.6 297 302.5 309.5 310.7 309.1 305.2 298.7 295.6 291.1 287.4 282.5 272.3 254.7 238.8 251.2 260.4 271.9 274.8 278.9 281.5 284 288.2 294.6 300.4 303.4 306.2 306.9 307 309.6 310.8 311.7 314.2 315.3 316.4 317.8 319.9 322.1 323.6 322.8 322.1 320 322.2 326.7 327.6 328.7 328.3 327.7 326.4 326.4 326.8 324.9 328.6 331.6 333.4 334.7 335.7 336.1 336.3 334.6 333.1 332.3 331.5 328.3 329.4 331.8 334.3 335.3 335.7 336 337.2 338.4 340 340 340.1 340.3 340.9 341 335 341.4 343.4 348.1 353.7 358.5 361.5 363.7 364.7 364.8 372.2 372.8 373.6 371.4 371.1 371.4 371.8 371 370.4 368.8 366.5 357.3 348.5 341.9 336.3 325.7 314.1 291.8 264.3 278 295.8 301.3 301.4 298.4 298.7 306.9 314.7 320.1 325.8 333.3 341.3 350.9 356.8 356.1 347.9 338.8 330.8 326 330.5 337.6 342.5 345.3 350 356.8 362.8 368.6 371.1 370.6 370.1 369.1 367 363.3 358.2 350.8 343.9 336.6 331.2 327.9 325.4 321.4 322.4 334.9 343.2 350.9 357.1 359.6 359.8 357.8 356.3 353.8 351.1 347.8 341.3 334.2 329.6
323.4 329.1 334.3 336.4 339 339.8 338.5 335.3 330.5 326.2 322.9 318.7 314 308.4 305.2 301.3 297.6 291.4 290.9 290.4 289.9 288.9 288.3 287.3 288 288.2 286.7 283 278.5 282.9 284.5 285.7 286.9 287.5 289.5 290.7 291.4 291.9 291.4 296.7 299.5 299.7 297.6 292.6 288.5 286.4 283.7 278.6 272.3 261.8 240.7 238.7 252.9 262.1 267.7 269.2 273.9 276.9 279.3 282.4 288.2 293.8 297.1 301.8 303.5 302.8 304 306.7 307.9 309.1 310.7 308.8 310.8 312.8 315.7 317.5 316.4 314.5 312.5 319.6 322.6 323.8 324.6 324.2 323.8 321.9 321.7 321.1 313.9 324.5 327 328.4 328.8 329 329.4 330 329.9 329.6 328.3 327.5 322.3 325.2 325.9 328.4 329.6 330.4 332.8 335.2 335.9 336.6 337.3 337.9 337.9 340.1 339.8 333.5 338.8 341.4 344.1 349 353.6 356.7 358.9 359.3 362.9 365.9 366.5 367.5 366 366 365.3 365.6 366 364.7 363.3 359.4 349.6 340.6 335.2 332.5 323.9 313.9 297.1 274.9 258.7 285.4 297.8 295.9 290.8 297.5 305.9 312.4 317.5 325 332.4 342.6 351.3 355.8 354.4 344.2 333.9 325.5 323.7 331 336.2 339.3 342.3 349.7 357.6 362.7 366.7 368.1 367.6 367.1 366.6 364.4 360.8 355.4 348.3 340.6 332 327.1 323.1 321.1 317.2 327.9 335.9 343.7 350.5 356.1 357.9 356.8 354.8 351.6 349 346.4 341.9 334.7 328.8 325.3
317.2 322.5 327.1 328.4 330.4 331.8 329.7 326.2 321.8 317.4 312.7 308.1 303.1 299.6 296.4 291.5 288.3 288.3 287.3 286.1 285 284.6 284.2 283.4 284.2 284.2 282.7 278.4 271.8 280.7 282 282.5 283.8 284.7 284.5 284.8 284.9 282.6 282.1 283.2 287.9 287.7 286.9 283.7 281.4 277.8 275.4 270.5 263.6 250.5 227.9 240.7 252.4 256.9 260.4 263.5 269.7 272.2 273.9 275.7 281.5 287.4 291.5 296 298.5 300.3 301.3 303.9 305.4 307.4 308.2 306.2 303.8 304.8 308.2 309.1 309.5 308 309.9 313.6 317.5 320.1 319.9 319.6 319 317.8 316.1 317.5 314.7 320.6 322.6 324.7 325.2 325.8 325.7 325.3 325.7 325.9 323.8 323.2 320.8 318.8 319.9 324.6 326.4 328.3 330.5 333 333.8 334.5 335.4 335.6 334.2 334.5 335 328.1 335.4 337.5 339.9 345.1 348.7 351.5 352.5 356.6 360.3 360.1 360.5 361.2 360.8 360.6 359.8 359.5 360.1 359.7 358.5 352 342.8 332.3 328.7 326 319.9 310.5 298.8 280.9 259.3 277.9 293.2 290.2 288.1 296.2 304.2 310.7 316.4 324 333.1 344.9 351.7 355.5 352.3 339.6 330.4 322.5 324.1 328 332.4 334.3 338.7 345.3 352.7 359.3 363.5 365 364.9 364.4 362.8 361 357.5 352.3 344.2 336 327.4 322.1 318.1 315.1 320.3 327.4 335.6 343.7 349.9 354.7 356.1 354.6 351.5 348.3 345.1 341.9 336.3 329 323.9 320.4
312 316.6 321 322.6 321.9 321.7 319.4 316.3 313.4 309.1 301.9 297 293.7 291.4 287.5 285.6 284.2 283.6 283.1 282.1 280.9 279.7 280 279.6 279.6 279 278.4 274.2 271.7 276.4 277.1 276.9 277.8 278.1 279 279.9 279.9 279.3 278.2 277.6 279.8 281 279.1 275.3 272.5 270.7 267.9 263.1 255.9 240.5 227.1 249.3 254.8 260 262.5 263.9 265.7 268.5 269.4 270.9 274.6 278.7 284.2 289.8 293.2 295 296.9 299 300.6 301.9 302 298.7 299.5 301.4 302.5 301.2 301.3 303 307.5 309.9 313.4 315.6 316.6 317.4 316.6 312.3 306.7 307.9 311.9 315.2 317.3 320.8 321.2 322.5 322 321.2 320.4 318.4 316.4 314.9 310.9 314.3 319.6 322.5 325.1 326.5 328.7 330.9 331.6 331.9 332.4 330.8 329.5 330 330.5 330.6 333.9 335.4 337.1 340.5 344.4 348.4 350.1 356 355.5 355.6 355.2 354.9 354.9 354.7 354.4 354.7 354.9 354.6 353.6 345.9 334.9 326.5 321.9 317.6 313.1 306 295.2 283.8 260.7 265.3 285.8 277 287 294.7 301.9 308 316.3 323.6 336.1 345.3 352.1 355.2 351.7 340.8 328.2 320.6 318.4 325.2 326 324.8 330.9 338.3 348.2 355.4 359.8 361.6 362.2 360.9 359.1 357.3 354.2 348.5 340 330.7 322.9 318.5 313.4 315 321.2 326.9 334.9 342.9 349.8 353 353.7 351.3 348.2 345 341.5 337.8 331.8 323.9 319 315.3
306.9 310.9 314.1 314.8 312.9 312.4 309.3 307.1 303.3 297.6 291.7 289.3 287.5 284.7 282 280.8 278.5 278.5 278.2 278 277 275.3 273.5 273 272.4 272.4 273.2 269.6 266.7 269.9 271.1 272.2 272.7 273.8 275.4 275.8 275.4 273.3 272.2 271 271.8 272.9 270.5 267.3 265.6 262.4 260 256.2 246.4 228.4 236.8 246.6 251.1 256.6 260.4 261.4 263.1 264.8 265.5 266.5 268 271.6 275.5 280.2 285.3 289.4 291 293.9 293.9 293.4 293 291.9 294.2 295.5 292.9 293.8 297.4 305.2 312.2 315.4 313.7 314.3 315.1 314 307.8 300.7 298.6 294.3 305.5 307.6 310 313.8 315.1 316.5 316 314.5 313.5 312.7 311.2 309.8 304.2 311.4 317.4 320.2 322.4 324.7 326.8 327.6 327.8 327.4 326.5 325.6 325.4 325.5 324 328.2 330.4 332.2 334.3 338 342.1 346.9 348.8 350.9 352 351.3 350.3 349 347.4 348.7 349.7 351.3 350.5 350.2 346.9 339.9 329.4 320.6 314.4 308.9 304.6 299.2 291.8 279.9 261.7 261.7 275.1 275.4 286.8 293.9 300.2 307.2 315.3 325.9 338 345.2 351.6 355.4 355.1 344.7 327.4 319.1 316.6 320.5 318.5 318.6 324.1 332.6 343.8 352.4 356.8 358.3 359.9 358.2 356.8 355.3 350.5 343.6 334.8 324.6 318.3 313 310.4 314.1 319.4 326.3 334.9 342.9 348.7 351.2 351 349.1 345.1 341.1 337.5 333.5 327.8 320 314.2 310.2
299.5 303.6 305.5 305.7 304.4 303.2 300.5 295 291.5 288.1 285 283.8 281.4 279.6 277.7 274.7 272.9 273.2 273.1 272.4 271.6 269.7 268.2 267.4 267 267.8 267.4 263.4 263.8 268 269.3 269.6 269.9 269.4 270.4 270.2 269.1 268.3 266.8 265.7 266.6 265.3 261.5 260 259.5 257.7 255.1 251.7 246.4 221.4 232.3 244 248.2 251.4 254.9 257.7 259.2 260 261.9 263.8 264.9 266.3 268.9 273.8 278 282.6 284.8 286.3 286.4 287.2 287.2 286.4 286.1 284.3 287.8 295.6 304.8 312.9 318.6 321.7 319.2 317.2 314.2 307.1 297.3 291.6 294.3 298.5 300.4 302.9 305.4 308.5 309.8 309.8 311 309.6 308.7 308.1 306 301.1 301.4 309.2 313.3 315.9 318.5 321.1 322.4 323 322.7 321.2 320.8 320.7 321.4 319.9 316.5 323.6 324.9 327.9 330.7 334.9 339.1 343.1 347 344.4 344.8 346.4 344.8 342.6 340.2 342.4 345.6 348.3 347.4 346.2 342.4 333.7 323.4 313.5 306.9 301.5 297.3 290.2 283.3 275.8 258.6 251.5 267 276.6 286 292.3 299 306.2 314.7 327.8 337.7 345.6 351.8 357.1 357 345.3 328.8 319.3 315.9 315.1 315.7 317.4 322 328.9 339.5 349 354.3 357.1 358.4 357.2 355.3 351.7 346 337.3 328 319.1 313.1 308.2 307.4 314.4 318.7 325.6 334.4 341.9 346.8 349.4 348.6 346 342 337.7 333.9 329.1 322.9 316.5 309.9 306.1
292.3 295.3 296.6 297.4 295.6 293.5 289.8 287.8 286.3 283 279.3 278.1 276.5 275.1 273.7 269.7 267.1 266.8 266.1 265.5 265.8 264.6 264 263 262.7 263.4 263.2 257.6 262.5 264.4 265.4 266.7 266.2 265.6 265.2 264.3 264.2 264.1 263.2 262.6 262 259.9 257.4 255.9 254.9 252.9 250.7 247.7 243.9 221.8 230.8 244.9 251.1 251.7 252.9 254.5 255.3 256.5 258 259.9 261.6 263.2 265.6 267.8 270.1 273.6 277.8 279.1 280.7 281.6 281.2 280.6 279.6 281.7 290.4 298.5 306.1 312.5 317.4 321.9 323.3 320.2 315.1 307.3 291 288.1 284.9 292.8 295.5 298.2 300.3 302.1 302.4 303.8 305.4 304.2 303.8 303.2 295 293.9 301.6 305.2 308.6 311.4 314.2 316.5 317.4 319.1 318.2 317.7 316.7 316.6 315.6 314.5 311.1 318.7 320.2 322.5 325.6 329.8 332.8 335.6 336.4 337 338.4 339.6 339 337.2 335.6 337.1 342.8 345.3 344.6 342.6 337 326.4 316.2 308 301.4 293.8 287.8 281.2 276.7 271.4 256.3 246.6 267.9 277 284.4 291.7 298.8 305.3 315.3 328.3 337.7 345.5 353.8 359.6 359.1 347.9 329.6 320.1 315.9 314.3 314.8 316.8 321.1 326.2 336.5 346.6 352.3 355.1 356.7 356 352.8 348.2 341.5 332.2 322.9 315 308.2 303.9 308.7 312.8 317.6 324.4 333.2 340.8 345.3 346.9 345.6 342.9 338.8 334.5 330.6 325.6 317.4 311.4 305.3 302.2
282.4 283.7 286.6 284.7 286.3 286.6 285.9 285.2 281.7 277.9 275.7 274.1 271.5 269 268.4 265.4 262.1 261.1 260.4 259.8 260.2 260.4 259.9 258.6 259 260.1 260 251.2 259 261.1 262.8 264.6 263.6 261.7 261.8 261.3 260.6 259.2 258.6 257.8 256.8 255.8 254 252 250.1 248.4 245.8 243.8 240.7 218.6 230.6 241.4 248.2 250.1 252 251.8 251.7 253.2 254.6 255.9 257.2 259.2 261.7 263.7 265 267 269.4 273 273.9 275 275.5 275.2 272.4 282.5 290.7 299.3 305 310.7 314.7 318.7 321.1 321.7 317.2 306.8 293.3 281.3 276.4 286.5 289.2 292.2 293.1 295.7 297.6 298.9 299.3 298.5 298.4 294.4 288.7 293.5 298.8 301.6 303.3 307.6 311.1 313.9 314.9 315.3 315.1 314.7 313.7 311 310.3 309.6 311.2 314.3 315.6 317.8 320.3 323.3 324.8 328.7 330.3 332.1 332.4 333.6 332.5 332.8 333.4 334.4 338 342.2 341.4 338.1 329.9 319.7 308.5 301.6 295.2 287.8 280.7 276.3 271.8 266.1 254.4 246.8 268.1 276.2 283.3 290.9 298.7 305.7 318.9 329.9 337.4 347.1 357.2 362.8 363.7 352.1 332.2 321.2 316.5 314.4 314.2 315.5 319.9 324.9 334.2 344.5 350.6 353 354.9 353.5 349.5 343.8 337.2 326.8 319 310.4 304.1 301.2 306.7 310.8 316.1 322.9 332.2 339.3 342.9 343.9 342.4 339.5 335.4 330.2 326.1 320 312 306.9 303 299.5
273.5 275.4 277.4 280.5 286.8 285.8 283.7 279.9 276.7 274.2 271.9 268.5 265.2 264.1 261.6 258.6 257.4 257.5 255.9 255.5 255 255 254.8 254.5 255.1 255.6 254.8 243.2 256.4 259.6 262.1 262.9 260 259.2 259.7 259 256.6 255.7 256.8 257.1 254.1 252 249.7 247.5 246.1 241.7 237.9 233.4 225 215.5 230.1 235.7 241.9 248.2 250.6 250.6 247.6 249.6 250.8 252.1 253 255.2 257.6 259.6 260.8 262.6 265 267.3 268.6 267.9 267.7 266.6 276 281.3 288.9 295.6 302.6 307.7 311 315.3 317.4 319.1 317 306.2 289.6 274.7 268.4 280.5 282.5 284.5 288.2 290.7 291.2 292.1 293.3 292.6 291.6 287.1 284.1 296.1 299.2 301.6 302.5 305.9 307.8 310.1 311.9 312.3 312 311.7 309.4 307.4 306 303.8 308 310.4 311.2 312.7 314.7 316.7 319.2 323.1 324.3 326.7 327.5 328.5 328.7 330 332.8 335.5 336.5 340.1 338.8 332 322.7 312.5 303 296.4 288.4 279.6 274.7 269.7 265.8 259.5 250.5 251.3 264.4 275.1 284.2 291.3 299.6 307.1 318.4 328.9 337.5 351 359.7 367.3 366.9 354.9 335.7 321.7 316.5 314.3 313.5 314.5 318.8 324.2 331.6 343.1 349 351.8 352.6 350.1 345.6 339.1 331.6 324.2 315 306.9 300.9 299.2 305 308.8 313.8 321.5 330.7 337 340.2 340.9 339.2 336 331.1 325.9 320.8 314 307.2 301.7 299.1 296.4
269.3 273.4 279.5 283.4 284.4 281.9 278.9 275.5 273.4 270.8 268 263.6 259.7 257.9 256.5 255.2 254.6 254.1 251.8 251.4 251.3 251.3 250.8 250.2 249.9 249.6 248 243.5 254.1 256.6 259.1 259.1 258.1 257.5 257.6 255 253 253.8 254.5 253.8 250.6 246.8 244.5 242.1 239.7 234.1 228 217.7 213.1 215.4 228.9 233.6 240.7 246.1 248.4 247.9 242.5 245.1 246.6 248.2 249.3 251.5 253.5 255.5 256.6 258 260.4 263.3 263.8 262 261 267.9 273.4 278 285.2 290.8 297.5 301.3 304.4 308.9 313.9 316 313.3 302.1 285.6 271.2 268.6 273.2 275.6 278 281.8 284.9 284.4 285.4 285.6 286 286.4 280.4 288.8 297.3 302.4 304.6 305 304.9 306.6 308.4 308.4 308.7 308.9 307.8 306.1 304.3 302.6 298.5 304.7 306.1 307.6 308.9 310.8 312 313.9 318.2 320 321.7 323.2 324.6 326.3 328.6 332.3 335.5 338.1 338.2 334.7 326.7 316.8 305.3 295.5 287.5 280.6 272.6 266.5 262.6 260.6 253.8 242.1 233.1 259.9 277.6 286 292.9 300.6 308.7 316.9 329.2 341.2 353.3 365.8 370.2 367.8 357.4 337.9 321.1 315.4 313.6 312.7 314.5 318.9 324 331.2 342.2 347.1 349.5 349.7 346.3 340.8 332.8 326.7 319 310.3 304 300.8 296.9 303.3 306.9 311.8 320.2 328.5 333.4 337.3 337.3 335.3 331.5 325.9 320.2 314.8 308.1 301.1 296.8 295.2 292.4
270.6 275.7 279 280.9 280.1 277.2 275.3 273 270.8 267.2 262.8 257.6 254.3 254 253.3 252.1 251.2 249.8 248 247.4 247.2 246.7 246.4 245.9 245.2 244.6 242.8 236 251.4 254 255.8 258 256.3 255.3 253.3 250.7 248.6 249.2 249 247.2 245.3 242.6 239.1 235.9 232 224.6 214.8 208.2 212.2 226.1 228.4 233.7 239.4 241.7 243.4 242.9 238.7 240.7 242.2 243.8 245.6 247.9 249.9 251.3 251 253.3 256.6 259.5 259 254.6 256.2 263.1 269.8 275.1 281 286.3 290.3 295.1 297.8 303 308.7 311.2 308.8 296.5 283.1 272.2 256.4 263.2 267.5 270.5 273.3 275.6 276.7 278.4 279.1 279.5 277.9 275.7 286.3 294.8 300.3 302.5 304.2 304 304.9 305.3 305.6 305.9 305.8 305 303.6 302.1 298.6 294.7 300.6 300.4 302.5 304.2 305.2 306.2 309.6 314.5 316.2 317.8 319.3 321.8 324.2 327.3 331.2 334.4 335.8 334.7 330.2 320.3 310 297.8 287.4 278 273.3 267.4 265.1 258.7 254.1 245.4 231.5 248.3 266.6 277.3 285.7 293 302.6 310.7 317.6 330.6 344.1 356.7 367.5 369.6 365.1 358.8 337.2 320.8 314.5 312.8 312.1 315.3 318.2 322.2 330 340.3 344.9 346.7 346.8 343.2 335.3 326.7 320 313.5 306.7 302.3 298.8 295.3 301.2 305.2 309.7 318.5 324.8 329.8 333.2 332.6 329.2 324.9 320.1 313.6 309 301.8 295.9 293.8 291.1 285.5
271.4 274 274 272.9 271.8 270.4 269.8 268.5 265.9 262.3 257.4 252.2 248.3 249.5 250.1 248.9 247.2 245.7 244.3 243.1 242.8 242 241.7 241 239.9 239.9 238.4 235.1 243.6 247 250 252.9 252.5 251.9 249.2 245.5 243.1 241.3 241.3 240.4 239.5 235.4 230.3 228.9 224.4 214.9 206.6 213.8 222 225.8 230.5 232.9 235 236.8 237.6 237.4 235.9 235.3 236.2 237.3 240.9 243.9 246.3 246.8 247.4 249.4 252.2 254.8 256.1 247.9 253.1 260 266.1 272 277.7 282.7 286.7 288.8 291.5 295 298.2 299.5 298.5 291.2 280.7 272.9 261.5 251 254.8 260.6 263.9 264.8 267.2 270.8 271.7 271.6 271.3 280.4 283.8 288.8 296.5 299.1 299.6 300.7 301.8 302.1 303 303.5 303.4 303.1 302.5 300.9 295.7 291 296.8 295.9 299.7 299.7 300.2 302.4 306.5 310.6 312.3 314 315.8 319 322.2 325.9 329.5 332.9 333 330.6 325.9 314.4 303.2 290.5 282.1 272.8 266.8 265.2 260.4 255.5 254.4 238.6 241.4 257.9 268.2 276.5 285.9 294.5 305.4 313.8 321.1 333.8 347 360.5 366.3 364.2 360.9 357.2 336.3 319.4 313.3 311.3 312 315.2 316.8 320.4 328.9 337.5 341.8 343.7 343.5 340.2 334.7 327.4 316.8 310.2 305 301.8 297.7 291.8 299.7 304.8 308.8 315.5 321 325.9 328.1 327.3 323.5 320 315.4 309.3 303.3 295.5 291.4 290.4 284.1 275.2
268.5 269.1 268.4 266.2 265.4 265.5 264.9 261.5 259.3 256.7 252.7 247.5 244.5 245.5 246.1 245.7 243.5 242 240.6 239.3 237.8 237.2 236.8 235.3 235.4 236 235.5 232.1 236.9 240.3 243.1 245.8 246.4 244.3 242.7 239.2 237.5 235.5 234.6 234 232.8 226.8 224.8 213.9 204.9 203.9 212.5 221.1 223.4 226.5 228.9 229.9 229.7 230.6 231.1 231.1 231.8 231.5 231.3 233.5 237 240.2 242.5 242.8 243.9 245.8 249 251.6 251.6 244.8 248.9 256.2 262.6 267.6 273.7 279.1 283 284.3 286.3 289.8 293 293.8 294.2 289.2 278.8 272.4 261.1 245.8 249.1 253.1 254.9 259.6 258.5 259.8 263.3 266 272.6 278.2 281.4 285.3 289.8 292.8 295 297.1 298 298.9 300.3 301.1 301.6 302.7 302.9 300.8 296.8 286.3 290.2 292.4 295.8 296 297.1 299.8 302.6 305.6 308.2 310.1 312.5 315.5 318.4 321.4 325.3 328.7 329.6 327 322.6 310.5 295 283.8 276.1 268 261.7 258.1 255.6 252.4 248.6 232.7 245.2 259.8 269.8 278.4 287.1 296.6 306.6 314.9 322.9 336.7 350.3 360.7 363.3 358.5 359 353.8 332.9 317.4 312.1 310.7 312.7 314.1 314.9 317.7 325.8 333.6 338.2 340.8 340.3 337.4 331.7 323 313.9 307.4 303.4 301.1 296.2 292.7 297.8 303.6 308 311.6 315.2 320.1 322.6 321.9 319.6 315 309.1 303.5 296.5 289.9 287.2 282.1 276.1 279.6
261.7 261.8 260.9 261.1 258.8 258.9 258.4 255 253.3 250.7 246.1 240.5 239.7 240.2 240 238.7 236.7 235.1 235.1 232.6 230.9 229.4 229.1 229.8 231.9 233.4 234.7 226.9 233.6 235.9 236.6 237.7 237.4 234 233.5 232.1 230.9 229.4 228 227.5 226.1 223.4 220.3 196.8 201.8 209.2 217.5 219.8 221.5 223.3 224.7 224.7 224.2 224.4 225 225.4 226.6 227.4 228 230.2 233.4 236.8 238.3 238.6 239.9 242.6 245.4 247 242.9 238.7 243.6 251.3 257.7 262 269.2 274.3 278.4 281.7 284.6 288.3 290.8 290.2 289.8 288.1 278.7 269.6 259.1 242.8 254.4 260.1 262.8 262.4 262.6 265.6 268.7 270.1 272.9 278.5 280.7 282.5 285.9 287.7 290.6 292.7 292.8 294.1 295.5 297.2 300.8 301.7 301.6 299.5 295 291.8 283.5 287.3 291.8 292.6 292.9 295.8 299.1 302.2 304.6 306.4 308.9 311.8 314.7 318.1 321.6 323.9 324.8 325.1 321.3 309 292.2 278.6 270.7 263.3 258 254.7 252.3 250.1 239.2 230.7 251 261.3 270.5 280.3 289.4 298 306.5 315.1 325 339.2 351.9 357.2 355.7 354.4 354.8 349.9 330.4 315.2 310.6 309.9 310.6 310.6 311.2 314.2 321.3 329.2 334.6 337.5 337.1 332.1 325.2 317.8 310.5 305.7 303.1 300.3 294.5 288.5 292.4 300.5 306.4 309.9 314 318.1 319.2 318.4 314.4 310 303.7 297.8 290.4 282.7 277.7 272.8 268.8 283.4
255.8 255.5 253.6 255.1 253.5 251.5 249.8 248.2 246.7 243.6 238.7 235.8 234.3 234.4 234.8 232.5 230.3 229.1 229 227.9 226.6 225.5 226.5 230.3 232.9 234.1 234.5 225.8 226.6 233.6 233.1 232.4 228.1 228.3 227.3 225.8 225 224.1 224 223.8 222.7 216.9 195.7 197.4 206.4 213.5 217.3 219 220 219.9 219.5 219.6 219 219.8 220.4 221.8 223.1 224.7 226 228.4 231.1 233.5 234 234.5 236.6 238.7 240.6 242.5 238.9 235.2 240.4 246.5 251.5 257.4 264.4 268.4 272.4 276.3 280.5 284.5 286 283.7 282.8 282.5 275.9 266.6 257.9 241 248.9 254.7 259 261.3 264.6 268.4 271.6 275.3 278.6 279.3 280.3 280.7 282.1 281.7 283.6 285.9 287.5 289.2 291.1 293.2 296.2 298.2 298.4 296.6 293.1 290.8 278.9 282.4 286.4 288.6 289.2 291.1 294.6 298.5 300.9 302.7 305.3 308.1 311.6 314.5 316.7 318 318.5 321.3 319.8 303.1 289.7 275.9 267.1 260.2 255.1 251.3 248.1 243.5 226.8 238.1 256.8 263.7 272.9 283.1 291.7 299.1 306 315.3 328.1 342.1 351 350.3 347.7 349.1 351.3 347 327.8 313.8 309.1 310.6 310.9 310.1 308.9 309 317.5 325.7 330.5 332.7 331.4 326.8 319.8 312 306.8 304.1 301.3 297.6 291.2 286.5 295.1 302.4 306.2 309.8 312 314.6 315.8 313.4 309.5 304.6 299.3 291.8 281.5 273.1 268.3 269.1 281.9 287.3
248.6 247.4 247.5 249.2 246.4 244.1 243.6 242.6 240.4 236.4 232.5 230.9 228.8 229.8 229.5 226.7 224.2 222.9 222.2 221.4 221.3 223.9 227.5 233.5 237.2 236.9 232.6 224.5 223.9 229.9 228.8 224.7 221.9 223.6 222.4 222 221.5 221.7 221.4 221.2 218.2 207.7 193.2 200.6 209.8 214.8 216.6 217.1 217.3 215.3 213.9 214.3 215.8 216.1 217.8 219.4 221.8 223.4 224.9 227 228.7 230.4 230 231.6 232.7 234.4 236.3 236.9 234.7 230.6 238.2 243.9 247.5 252.6 257.8 261.5 265.9 269.9 273.9 277.4 277.7 276.2 275.9 274.9 269.6 261 249.2 237.2 241.2 251.1 256.2 261.6 266.3 270.7 274.4 278.3 280.7 280.2 280.1 280.2 280.1 277.5 277.8 281.1 283.6 285.1 287.1 289.4 292.2 293.8 293.8 292.1 289.5 285.1 276.5 276.9 280.9 284.2 285.7 288.5 291.5 294.9 297 299 301.4 304.1 307 309.6 311.4 312.7 316.8 321.1 319.8 305.8 286.8 274 264.3 257 252.3 247.9 244.4 229.1 230.7 248.9 262 267.9 275.4 285 293.2 300.2 306.7 316.2 331.1 342.9 347.2 342.3 342 344.9 350.4 343.1 326.1 310.7 308.6 310.2 307.9 304.3 303.2 306.2 314.2 320.8 326.4 330.9 326 320.8 314.7 309.1 305 302.6 300 293.4 288.1 284.4 294.3 301.9 305.5 309.1 310.7 311.9 312.3 308.8 304.7 299.7 294.3 286.1 274.4 266.1 266.9 280.9 288.3 288.9
241.2 239.4 241.6 242.1 240.1 237.7 236.5 234.7 232.4 228.8 224.9 223.7 222.6 222.9 222.1 220.8 219.3 219.8 218.6 219.7 221.3 223.9 228.9 236.1 237.9 234.7 228.8 219.7 222.9 224.2 222.7 219.7 219.5 219.1 219.5 219.5 219.1 218.6 216.9 213.7 211 199.8 192.7 203.3 211.1 215.1 215.2 214.9 213.5 211.2 209.4 210.3 212.5 217.7 218.4 218.7 220.2 221.7 223.1 224.3 225.5 226.7 227.3 227.9 228.9 230.1 230.8 230.2 230 230.2 234.5 239.5 243.4 247.6 251.2 254.7 258.5 263 267.1 269.3 269.2 268.6 267.5 266.8 261.1 248.6 238.7 233.2 243.8 254.1 260.3 265.2 269.7 274.5 278.2 280.7 282 282.4 281.5 280.6 279.5 277.9 276.1 276.8 279.6 281.6 283.5 285.9 287.3 289.1 289.1 286.6 283.2 281.5 271.9 272.1 276.2 279.8 281.6 284.5 287.8 290.6 292.7 294.8 296.4 298.9 302.7 304.2 305.1 306.7 310.4 314.3 316.1 308 287.6 271.6 261.6 253.8 248.2 241.3 225.4 236.6 253.1 258.8 263.3 270.5 278.4 286.1 293.3 300.4 306.8 318.7 332.6 340.8 340 336.1 336.5 340.5 344.2 340.1 324.2 308.5 304.4 306.2 304.3 300.3 298.9 303.4 311.6 317.9 322.9 323.1 319.2 314.1 310.4 308.3 305.1 302.1 297.6 290.8 283.9 284.1 293.3 300.7 303.8 306.1 307.4 308.9 308.1 303.9 299.5 294.7 288.7 279 264.1 260.4 278.8 284.4 286 287.5
235.6 236.9 237 235.4 233 231.3 229.6 227.2 222.9 219.7 217.7 216.4 215.7 215 214.9 214.9 215.6 216.6 218.6 220.8 225.1 229.9 234 235.3 234.6 231.2 225.6 214 217 217.7 218.3 217.7 217.7 218.2 217.7 216.6 215.8 213.9 211.5 208.5 205.4 195.5 191.3 205.2 210.8 212.1 212.3 211.8 209.7 207.8 209 211.2 211.8 211.6 213.8 216.1 218 219.5 220.6 221.5 223.2 224.3 224.9 225.3 226.2 227.2 227.2 225 220.7 227.2 230.9 234.1 238.3 241.8 245.1 248.3 251.5 255.9 260.3 261 262 262 261.6 261.1 250.8 233.6 229.6 233.4 248.1 258.9 264.6 269.7 274.5 278.7 281.1 282.3 285 285.8 284.3 282.4 279.9 278 275.9 275.1 276.5 278.1 280 280.8 281.2 282.2 282.2 281.1 277.7 274.2 266.9 269.2 272.1 275.2 277.6 280.9 283.6 286.1 288.3 290.4 291.9 293.4 297.6 299.3 299.4 301.5 303.4 305.1 304.1 300 285.2 269.9 259.4 250.3 242.7 224.9 227.7 247.6 257.1 261.7 265.9 269.5 277.7 285.3 292.4 299.6 307.9 321.1 334.3 334.6 331.2 330.2 332.2 336.7 341.5 337.5 323.5 308.5 301 301 299.3 296.3 297 302.3 310.1 315.1 319.4 316.9 311.7 308.6 306.7 305.5 303.4 300 294.5 288 279.7 286.1 294.3 298.6 301.8 303.2 304.3 304.9 304.2 298.8 294.4 289.9 281.8 267.6 257.7 265.8 278.3 282.1 284.7 287.4
231.8 232.8 229 228.4 226.1 223.2 220.8 218.1 216.4 213 212.1 211.2 211.3 211.1 211.8 213.7 217.1 222.2 224.8 226.5 228.1 228.9 231.1 230.3 228.3 225.6 222 208.5 216.6 211.4 215.8 215.2 214.8 215.4 214.8 213.5 211.6 209.4 206.5 204.6 201.5 188.1 194.5 204.6 207.3 207.8 207.5 207.3 207.2 206.2 206.9 208.7 209.3 209.4 211.7 213.7 215.9 217.3 218 218.8 220.4 222.1 223.4 223.7 224.4 225.2 224.1 221.4 217.1 223 226.4 228.2 231.1 236.3 239.5 242.7 245.9 249.5 253.6 254.4 255.5 254.8 254.2 250.9 238.3 224.1 236.2 249.4 254 260.7 266.7 271.6 277.5 281.3 281.7 283.7 286.9 287.3 285.2 281.4 278.5 275 273.3 273 273.6 274.9 276.6 277.1 277.4 277.7 277 275.9 273.7 270 263.8 264.5 269.2 271 273 275.3 278.5 280.9 283.3 285.7 287.6 288.7 291.6 293.9 295.8 298.6 299.9 299.2 300.5 299.4 283 269.7 256.8 246.6 228 221.3 232.5 253.8 259.1 263.5 267.3 271 275.1 282.3 290.9 299.4 310.1 322.5 328.6 326.7 324.2 324 327.2 334.3 340.4 337.8 325.7 309 299 298.6 296.6 294 295.3 302 307.4 311.5 312.2 309.8 305.6 303.4 303.5 302.4 300.8 296.6 291 284.2 278.6 288.4 293.3 297.3 299 300.3 300.6 301.2 300.6 294.4 289.3 284.6 274.1 256.2 257.6 273.8 280 280.5 284.1 287.4
226.5 224.7 222 221.4 220 216.5 211.8 209.9 208.3 207.2 206.5 207 209.8 212.1 215.4 218.4 220.7 223.7 225.2 224.6 224.2 224.1 223.1 222.1 220.8 217.9 210.4 202.1 213.5 210.9 211.7 211.4 211 211.2 210.2 208.3 206.4 204.9 202.2 199.3 189.9 185.6 195.2 202.3 201.7 202.1 203.3 204.6 205.3 204 206.4 206.4 207 207.1 209.5 211.1 213.4 214.8 215.5 216.2 217.7 219.5 221 222.5 223 223.7 223 221.1 214 221 223.3 225 227 231 234.2 237.4 241 241.9 246 247.4 248.3 247.4 246.5 243.1 227.2 228.8 243.9 250.2 254.4 259.6 265.3 270.6 276.7 280.9 281.8 283 285 284.5 283.3 280.1 277.5 273.3 270.2 269.5 270.4 271.7 272.9 273.2 273.4 273.7 273.3 271.2 268.8 266.3 256.4 261 265.1 267.4 268.6 270.2 273.4 276.3 278.8 282.4 283.2 285.2 287.8 290.1 289.9 290.9 292.8 296.6 302.8 302.4 285 267.4 253.9 243.3 220.8 220.6 235.2 257.6 260 262.9 266 268.8 273.1 279.5 288.3 298.6 310.8 320.5 320.4 319.1 317.5 319 324.8 332.7 338.7 337 326.9 312 299.5 295.7 293.4 290.9 294.8 300.7 305 308.9 306.4 303.3 300.2 299.9 300.4 299.3 296.9 293.4 286.8 278.1 279 289.3 294.7 296.4 297.1 298.2 297.8 298.3 293.2 287.5 283.4 277.4 265.6 252.3 264.7 280 279.1 279.5 284 288.2
217.6 215.4 214.5 214.3 210.5 207.7 206.1 203.3 201.7 202.6 206.8 209.9 214.5 217.2 218.6 220 219.6 220.2 220.7 219.6 218.5 216.6 215.4 214.3 212.9 211.3 200.3 203.2 208.7 208.1 207.4 207.4 205.5 205.9 203.8 203.7 201.9 201.1 199.1 190.1 182.9 183.6 198.6 197.7 198.1 199.1 200.8 202.5 201.9 201.1 204.2 204.6 205.3 205.4 206.5 208.4 210.9 212.1 213.3 213.6 215.1 216.8 218.4 220.1 221.4 221.9 221.2 218.9 213.2 217.4 219.6 221.8 223.3 225.8 228.9 232.5 235.7 236.6 237.6 238.2 238.7 239.2 238.2 232.3 219.8 232.4 242.4 247.3 251.9 257.1 263.2 269.3 272.6 276.4 278.6 279.5 280.7 281.4 281.1 278.9 272.8 268.1 266.2 265.5 265.4 266.8 268.6 269.1 269 269.3 268 266.6 263.2 260.9 252.3 255.5 261.7 263.3 264.7 266.3 268.8 272.9 276.6 279 280.2 282.5 283.4 284.1 284.9 285.6 287.4 290.9 295.7 294 283.6 267.2 249.3 231.8 216.4 217.4 233.2 258.2 260 261.8 264.2 266.3 271.4 277.6 287.3 300.6 311 314 313.1 311 310.9 315.7 323.7 329.7 333.4 331 326.1 314 302.6 295.2 292.8 292.8 293.7 300.1 304.1 302.9 300.6 297.8 296 296.1 296.3 296 293.3 289.7 280.9 273.3 276.7 288.1 293.5 294.7 295.4 295.6 294.9 292.3 285.5 282 277.2 269.7 256.8 249.4 268.4 277.5 278.1 278.4 283.6 288.8
209.8 207.2 206.8 206.4 204 200.7 199.4 196.6 201.4 205.6 210.1 213.3 215.7 217.5 216.8 216.3 215.2 214.4 214.6 213.9 212.9 211 209.8 208.7 208.5 207.5 201.3 198.6 204.8 205.1 203.6 201.5 198.8 200.5 200.5 201.6 201.1 198.6 195.1 183.8 180.1 192.1 193.5 193.3 195.1 196.6 198.3 199.8 197.5 199.1 200.2 200.3 201.3 201.5 203 204.7 206.5 208.9 210.1 210.9 212.4 214.1 215.3 216.8 218.2 218.2 216.7 214 210.1 214.6 215.6 216.6 218.7 219.9 221.9 225.1 228.8 231.6 231 230.9 229.9 229 229.2 222 220.4 233.7 239.4 244.3 249.1 253.1 258.8 264.5 267.9 270.6 271.9 272.7 274 275.7 277.5 273.6 268.4 264.9 262.7 260.5 260.4 261.6 263.5 264 264.2 262.8 260.9 259 257.9 256.4 250.1 252.5 258.5 259.5 261.1 263.3 267.5 271.4 273.9 276.3 278.9 279.8 279.4 279.1 279.9 281.6 284 286.8 288.6 284.4 277.3 264.3 246.7 219.4 227.1 221.3 244.6 258.9 260.4 260.4 263.5 266.1 270.5 278.4 288.3 300.7 304.7 306.9 305.2 304.7 307.4 313.3 320.2 325 327.1 326.2 322.4 315.7 304.9 300.5 298.3 294.3 294.3 298.6 300.6 298.1 295.3 293.5 292.3 292.7 293.4 292.8 290 286.9 281 270.5 278.4 286.5 291.1 292.4 293.3 291.9 290.2 283.9 277.9 275.4 271.1 263.3 249.2 251.7 270.4 274.5 277.2 277.6 282.4 287
203.8 199.9 199.2 199.7 197.5 195.3 195.3 198.6 203.7 207.1 209.7 212.2 212.5 212.9 211.7 210.4 209.9 208.6 209.4 208.1 207 204.3 201.3 201.1 201.4 200.3 196.8 196.1 200.7 199.8 198 195.2 195.9 197.7 198.9 198.9 196.8 192.1 190.9 177.8 178.4 189.2 189 190.4 192.4 194.6 196.2 197.9 193.5 193.9 196.7 195.3 195.2 194.6 198.3 199.8 201.4 203.2 204.3 206.5 209.1 210.8 211.7 213.3 214.2 214 213 207.7 205.9 211.1 210.2 210.7 211.6 212.3 214.6 217.1 220 222.9 223.1 223.3 221.8 220.7 219.1 215 225.2 230.6 236.2 240.1 243.7 247.8 251.3 255.4 260 262.5 262.4 263.9 267.1 268.5 270.7 267.3 263.1 261.4 259.3 256.2 255.7 256.8 258.1 258.6 258.8 257.6 255.9 254.3 252.4 251.6 245.6 250.7 254.5 255.4 256.9 259.8 265.2 270.1 271.5 273.5 274.4 275 274.9 274.7 275.4 277.7 279.3 279.7 280.8 277.1 273.8 263.1 242.1 209.6 229.2 249.5 256.3 258.3 260.8 260.6 261.8 265.6 274.3 282 291.1 297.2 298.4 300.5 298.4 299.5 304.2 310.6 315.8 318.5 319.9 319.3 316.2 311 305.7 300.3 298.7 294 291.3 296.1 295.8 292.9 290.1 289 289.2 289.9 290.5 289.8 287.8 283.8 280.3 271.1 274.1 284.5 287.7 290.1 289.9 287.3 283 276.1 271.5 268.2 263.7 250.9 245.9 253.9 268.5 272.5 275 277.5 282 287.6
195.4 193.5 193 193 192 190.1 196.5 199.8 203.5 205 206.4 208.1 207.1 206.7 206.1 205.7 204.6 203.1 202.3 201 199.3 197.4 196.2 196.5 195.2 195 185.8 194.7 195.8 194.7 193.2 192 192.2 194 195.7 195.8 194.6 193.4 189.6 176.9 177.3 184.3 185 187.2 190.3 193 194.2 195.4 193.1 189.5 190 190.8 191.2 189.5 193.6 195.1 196.4 198.1 199.2 201.1 204 206.3 208.2 209.4 210 209 208.2 200.1 202.5 205.3 205.2 205.6 206.9 208.6 211.5 213.3 214 214.4 216.1 216.3 215.9 214.5 214 221.1 224.4 229.6 234.1 235.8 238.7 241.4 244.4 247.4 250.6 252.7 254.1 256.6 259.4 261.7 265.6 261.6 258.1 257.5 255 251.6 250.8 251.6 252.4 252.7 252.6 252.2 251.1 249.7 248.3 248.3 243.6 245.9 250.5 250.9 252.2 255.1 260.7 266.7 268.8 268.6 269.4 270.1 270 270.1 270.5 272.6 273.8 273.1 273.5 272.7 269.6 264.6 238.8 205.6 235.1 252.8 255.9 258.2 259.1 258.7 261 268.2 276.8 284.3 290.5 292.8 292 291.7 290.9 296.2 300.8 308.4 311.2 312.7 312.7 311.3 308.5 304.2 300 297.6 294.2 290.8 285 293.2 291 288.9 286.9 286 286.6 287.5 288 287.5 285 280.7 275.5 265.9 279.4 282.9 284.8 286.7 286.1 282 276.3 269.6 264.9 260.9 256.7 246 246.7 254.4 261 270 272.8 276.7 281.5 284.3
188.6 187.9 187.6 187.2 187 192.7 194.9 200 202.6 202.9 203.1 202.6 202.1 201.5 201.1 201.5 200.3 199.1 195.5 194.2 193.8 194 192.2 192.4 192 190.8 184.5 191.6 191.4 190 189.1 187.5 188.7 190.3 191.5 191.4 190.8 190.9 189 174.2 174.5 175.5 178.2 184.8 188 191.2 191.8 192.3 191.3 184.6 186.8 186.8 188.1 189 189.9 190.1 191 193.4 195.7 197.5 199.3 200.5 202.2 204.1 204.5 201.8 200.5 197.7 199.3 201.5 199.7 200.7 202.5 204.5 207.1 208.2 211.4 210.5 211.9 211.7 212.3 208.8 213.5 218.1 220.1 222.9 228.5 230.8 230.1 233.3 237.6 240.5 244 245.2 247 251.4 256.2 260 260.7 254.8 251.4 250 248.5 245.5 244.9 245.8 246.6 247.4 247.5 247.4 247 246.2 244.3 243.7 237.1 241.3 247.1 247.7 248.8 251.3 256.8 261.3 263.3 263.7 264.6 265.3 265.3 265.7 266.1 267.6 268.3 267.6 267 266.7 265.9 263.9 233.1 205.4 243.8 253.8 254.5 254.1 255.1 256.4 259.4 266.5 276.3 282 287.5 288 285.5 286.2 289 293.9 298.4 303.2 306.5 306.4 304.7 303.5 300.4 297.7 294.7 292.6 291.1 288.6 277.2 288.6 287.1 286.7 284.6 284 285.3 285.4 284.4 283.3 281.2 273.8 263.6 264.4 278.9 280.5 281 280.9 279.3 276 269.3 263.4 258.1 253 249 240.4 248.9 257.7 262.3 268.6 270.2 274 277.4 279.2
182.4 182.2 182 181.9 190.8 193.7 198.5 200.7 201.6 201.3 199.7 198.6 197.8 197.7 196.9 196.3 195 193.7 191.6 191.5 191.1 189.8 188.3 187.8 186.5 185.6 180.6 186.5 187.1 186.7 185.2 184.7 185.5 186.7 187.9 188.7 188.6 188.3 186.9 172.6 172.3 172.1 176.1 182.2 185.4 187.7 187.8 187.5 186.6 181.1 181.6 183.7 185.4 186.6 187.6 188.7 188.7 190.2 192.4 193.6 195.4 196.3 199 199.4 199.6 197.6 196.3 195.8 200.8 200.7 196.2 194.9 197.5 200.2 201.6 200.4 202.3 204 207 206.4 207.1 209.4 211.7 215.6 218.3 219.9 221.7 223.4 225.2 227.6 230.5 233.6 236.8 237.7 239.7 244.9 250.1 253.2 253.4 246.1 243.4 242.3 241.4 239.7 241 242.1 242.3 242.5 242.5 243.1 243.5 243.4 241.8 240.4 233.5 238.7 243.2 246.2 248.7 250.3 253 256.2 258 258.9 259.8 260.4 261 261.6 262.3 263.1 263.1 263.1 263 263 263 253.8 226.4 215.2 243 248.3 249.5 249.8 252.2 254.9 258.2 266.4 274.9 280.5 283.5 284 283.2 284.2 286.1 291.1 295.5 299.5 302 301.7 299.5 294.8 292.3 292.8 290.7 289.5 288.6 281.7 280.9 283.8 283.7 283.7 282.4 282.1 283.5 284 282.1 276 273.2 263.2 260.1 269.4 275.5 276.7 276 276.4 273.1 269.2 262.7 257 250.4 239 238.1 241.5 252.6 258.3 262.8 267.4 270.7 272.1 275.2 278.2
176.9 176.2 180 186.4 191.9 195.7 198.4 200 200.3 198.5 196.7 195.1 193.9 193.8 192.8 192 188.9 186.8 186.7 186.9 186.3 185.2 184.8 183.9 182.5 181.5 175 180.5 183.1 183.4 181.1 180.9 182.6 184 185.1 186.2 186.2 185.4 184.4 182.8 170.5 170 174.1 180.4 181.8 182.8 183.1 182.7 181 180.1 180.8 181.2 182 182.8 183.5 184.7 186.5 187.7 189.2 191 193.1 193.4 195.5 195.5 194.2 191.2 197.9 200.1 200 198.3 194.8 189.4 192.1 193.2 195.3 197 198.9 200.4 202.2 203.8 208 209.9 212.6 215.2 217.7 220.4 223 225.2 227.4 227.6 224.6 226.8 229.6 230.8 232.5 237.8 243.2 246.1 247.4 242.8 235.9 234.6 234.2 236.6 237.8 237.5 237.5 237.8 238 239 239.8 239.6 239.5 236.8 234.1 237.2 240.5 244.1 247.4 251 252.1 253.2 254 253.9 254.7 255.3 256 256.7 256.6 255.8 255.7 257.3 258.3 258.8 260.4 254.5 218.1 215.9 233.1 240.9 243.6 247.4 250.7 257 261.7 270.6 273.2 279 281.2 282.1 282.5 285.7 287.1 289.1 291.8 294.4 296.2 295.3 290.6 287.6 287.9 288.7 286.5 285.2 283.8 278.1 281.8 279.3 279.5 280.7 280.1 280.1 281.4 281.4 274.8 268.4 264.4 257.4 260.4 268.6 270.1 269.7 271.4 272.1 268.4 263.9 258.6 251.7 233 234.2 237.5 247.6 253.4 257.5 261.6 266.1 269.5 271.4 273 276.6
173.3 178.5 181.8 187.9 193 195.7 197.7 197 195.1 194.1 191.6 190.8 190.5 189.5 188.9 188.6 185.8 183.5 181.1 181 181.1 181.8 180.8 180.6 179.4 178.8 170.8 179.5 180 178.9 174.6 176.2 180.1 181.4 182.2 182.6 182.6 181.9 179.9 179.1 170.2 168 172.3 176.3 176.9 176.9 177.7 176.8 176.4 178.3 178.6 179 180.1 181.1 181 181.5 183 186.2 190.2 191 193.6 195.8 194.7 193.6 187.2 191.7 194.7 192.9 185.4 185.9 185.8 187.9 189.1 191.2 193 195.5 199.2 204.2 206.6 209.3 210.1 210 212.1 214 216 218.6 219.6 220.1 222.1 222.7 221.9 222.3 225.4 226.2 229.4 231.3 236.2 240.1 240.2 235.7 230.5 234 234.6 234 233.5 232.5 233.1 233.5 233.5 234.4 235.4 235.5 235.2 232.4 228.3 234.5 236.5 239.4 243.2 246.4 249.1 250.1 250.3 249.6 249.2 249.6 250.3 248.9 247.5 247.3 249.4 251.4 253.9 255.6 256 248.8 213.4 213.8 236.1 240.7 241.8 246.5 250.1 255.6 264.2 271 273.4 275.5 278.1 279.9 281.7 285.7 289.5 287.1 287.1 288.1 289.1 288.1 284.9 286.9 283.7 282.4 280.5 279.9 278.1 274.1 276 277.2 276.5 277.2 277.7 278.5 278.3 274.4 267.6 262.5 258.3 254.9 260.6 262.3 265.2 269.1 270.6 268.8 263.4 259.4 254.2 246.4 229.9 234.2 244.1 250.9 253.2 256.9 260.9 264.7 268 271 273.4 275.6
175.4 181.1 182.6 188.6 191.3 194.2 193.7 191.4 191 190.2 188.4 187.3 187.5 186.3 186 185.8 183.5 181.5 176.4 175.3 176.1 176.9 177.2 178 177.3 174.9 167.2 177.2 177.1 176.1 166.2 173 175.4 176.4 177.1 177.1 176.4 175.8 175.1 173.9 171.8 169 168.4 171.8 172.1 172.5 173.5 175.1 175.9 176.4 177.8 179.2 180.6 181.4 181.1 179.4 180.3 183 186.2 188.6 190.8 193.4 191.9 191.3 183 191.3 184.2 180.7 182.8 184.4 186.1 188.5 194.2 197.2 200 201.9 204.6 206.8 209.6 210.9 210.9 210.5 211.6 213.7 215.4 216.7 217.8 219.8 219.6 221.2 220.1 221.4 224.8 227 227.3 226.8 230.6 233.6 232.6 230.2 229.8 232.3 233.3 231.8 230.5 229.4 228.5 229.1 229.6 229.9 230.4 230.7 230.4 228.6 224.9 230 232.3 234.3 236 239.3 241.8 242.5 242.5 241.9 242.1 241.1 240.9 239.3 241.1 242.7 244.4 245.1 246.4 247.2 246.9 241.4 209.6 212 233.4 240.3 240 245.3 250.1 254.6 260.5 267.9 270.7 271.3 272.5 274.6 277.6 279.9 282.4 286.7 284.5 283.3 282.5 281.7 281.2 281 279.1 278.2 276.5 276.2 274.7 263.6 274.5 271.9 272.9 273.8 274.5 273.4 271.8 268.1 260.6 256.6 252.4 250.8 257.1 258.8 262.6 267.5 269.7 264.2 259.1 254.4 247.8 236.2 228.4 236.5 247.7 252.7 255 257.3 260.3 263.4 267.3 270.9 274.1 276.5
176.1 179.7 183.1 186.9 189 190.4 188.9 187.6 187.6 187 185.7 184.4 184.4 184.3 181.3 178.4 177.9 172.7 166.7 168.5 170.4 173.7 174.5 175.1 174.3 169.4 162.5 174.4 173.7 170.7 159.9 168.3 169 170.5 171.3 171.1 172 170.4 169.9 167.2 163.8 164.1 165.1 167.2 172.2 174.5 175.5 175.4 176.4 177.5 178.7 179.5 180.3 180.2 179.6 178.9 179.1 179.8 181.3 184.1 186.9 188.8 187.2 185.3 180.6 178.9 179.1 181.2 186 191.9 196.5 198.4 199.8 201.1 203.4 204.9 206 206.7 207.8 209.7 210.9 211.1 211.3 211.8 213.4 214.5 215.9 217.4 219.3 219.9 218.8 219.2 220.4 221.3 221.1 221.3 224.1 226.6 226.3 225.4 227 228.1 226.5 225.6 224.8 224.9 224.8 224.8 225 225.4 225.6 225.7 226 224.9 224.3 228.5 229.5 228.8 228.7 231.1 233.8 234.4 234.5 234.1 234.6 233.8 235.6 239.8 242.8 245.8 247.4 241.8 234.5 241.7 242.4 229.1 206.7 209.9 229.5 237.2 239.1 241.9 249.2 255.6 260.5 263.8 265.9 266.4 267.3 269.4 273.4 279 280.3 281.3 280.3 279.4 279.2 277.8 278.1 276.8 274.8 273.5 272.5 271.7 271.1 259.9 269 267.4 268.4 270.3 269.8 268.5 265.6 261.2 254.6 250.7 249.1 249.2 256.8 259.9 261.3 263.7 264 260.3 255.7 249.4 231 224.6 230.9 244.9 250 253.9 255.7 257.5 259.9 262 266.4 270.4 272.9 275
177.6 180.5 184.4 186.3 186.7 184.7 184.8 183.2 183.2 183.3 182 180.5 179 177.1 175.2 172.4 168.4 161.8 168.1 170.3 170.5 170.3 171.5 171.3 171.2 162.1 157.9 168 167.6 165.9 153.9 162.7 164.1 164.5 164.7 165.7 167.2 165.3 160.9 159.8 160.3 161.3 164.8 173.4 175.7 177.6 176.9 176.2 176.8 177.2 177.9 178.3 177.7 177.7 177.8 177.4 177.7 178.4 179.6 180.8 182.1 183.5 181.9 179.7 178 178.1 178.9 186.4 189.9 192.7 195.1 196.8 198.2 200 201.8 203.3 204 204.7 205.5 206.8 208.3 209.2 210 210.4 211.3 212.7 214 215.2 216.4 216.9 216.9 217 217.7 216.7 215.1 215.3 217 220 219.7 220.7 222.5 222.7 220.8 220.5 221.8 221.6 221.1 220.9 219.6 219.2 219.6 220.5 222.3 219.9 222.7 226.6 226.2 225.5 226.2 227 228.4 228.6 228.5 229 230.7 232.1 237.4 241.1 243.2 236.5 234.1 232.8 219.2 231.3 228.8 204.9 203 225.6 229.3 235.8 238.1 242.2 247.3 253.6 259.2 260.6 261.5 262.2 261.9 264.6 270.2 275.1 278.7 278.1 277.1 276.1 276.3 274.9 273.4 272.6 270.7 269.2 268.6 267.9 267 255.8 259.9 264.3 265.7 266.7 265.8 263.2 258.9 254.7 248.9 245.5 246.3 255.1 260.8 264.5 262.7 260.3 257.7 253.7 249.5 239.3 220.8 231.6 241 248.3 251.9 254.5 256.2 258.3 260.6 264.7 267 267.6 270.4 272.6
179.5 181 183.9 184 181.8 179.7 179.9 179.3 179.1 178.9 177.7 176 173.9 171.6 168.4 165.3 159.2 161.2 167.3 169.2 168.9 167.3 166.5 166.2 164.5 158.1 158.9 161.2 161 159.2 147.7 153.1 154.3 155.7 157.5 159.7 158.7 155.8 156.7 158.1 159.1 160.6 169 172.2 174.2 176.1 177.1 176.7 176.4 176.6 175.9 175.6 175.5 176.2 176 175.6 173.2 176.7 178 179.4 180.5 179.5 177.6 175.4 175.8 181.6 184.5 185.7 188.5 190.2 192.2 193.2 194.6 196.6 198.1 199.3 200.2 201.1 202 203.3 205.1 205.9 206.5 206.7 208.7 211.4 211.6 212.1 213.3 213.9 214.3 213.4 212.9 211.2 211.2 211.9 211.8 213.3 214.2 216.2 217.8 216.3 219.2 220.9 218.8 217 216.3 214.8 214.4 216.2 218 219.5 218.6 216.2 222.5 224.5 224.9 225.8 225.2 224.8 224.8 224.8 225.7 225.9 228.9 231.6 233.9 233.1 226.1 226.8 226.3 220.9 206.8 214.6 214.6 201.3 224 227.9 231.9 234.1 237.5 242.7 248.1 252.3 254.8 256 257.3 259.4 259 261.9 267.9 270.8 274.7 275.2 276.1 276.3 274.4 272.4 270.9 268.1 267.1 265.9 265.1 264.4 262 255.6 255 261.2 262.8 262.8 261.2 257.4 253.1 247.1 242.8 245 254 259.7 262.4 268.7 265.3 257.6 251.8 248.1 239 226 223.7 239.3 243.8 249.3 252.5 254.9 256.9 258.8 261.7 265.7 269.2 270.8 270.8 270.1
177.1 179.5 180.1 179.5 178.4 176.8 176 175.7 175.3 174.5 173.5 170.9 168.2 166.2 163.2 159.6 152.7 162.5 166.9 166.8 165.6 163.8 163.4 163.4 161.1 154.2 152.4 154.7 152.8 147.7 149 149.3 150 150.8 151.1 152.9 154.3 155.4 157 158.4 159.8 161.5 164.3 168.8 171.7 173.6 175.8 175.5 175.2 171 172.1 170.1 174.5 175.9 175.2 173 169 171.4 175.9 176 175.3 174.3 173.9 175.4 179.5 180.8 181.2 181.6 182.8 186.7 189.6 189.8 190 190.6 192.7 193.8 194.4 195.8 198.8 201.1 201.9 202.7 202.5 203 205.1 208.8 208.2 210.1 211.1 211.2 211.8 209.7 208.1 207.7 208.6 208.5 207.7 208 208.4 209 209.8 214.8 214 212.9 211.1 209.4 209.3 210.1 212.6 215 215.5 217 214.5 215.8 219.4 220.9 220.7 222.9 222.5 221.5 221 222.5 223.7 223.1 224.2 223.3 219.3 212.6 216 211.6 213.6 209.2 197.3 199.3 194.7 206.4 226.1 230.6 233.7 234.6 237.8 245.3 251.4 255.3 254.8 254.6 255.1 257.3 258.9 259.7 266.5 270 272.2 273.3 274.6 274.1 272.5 270.4 266.1 262.5 264.7 262.8 262 261.5 260.8 257 246.2 256.1 257.9 257.4 255 250.6 244.9 241.1 238.6 253.9 259.2 260.9 261.1 263.1 259.5 255.8 248.8 237.4 224.9 219.3 236.9 243.3 247.3 250.6 252.4 254.8 257.3 259.4 262.6 265.5 267.3 268.9 267 266.5
173.6 174.2 174.9 175.3 173.9 172.5 171.2 171.1 170.5 169 167.8 165.7 163.2 160.5 157.7 154.6 149.8 160.6 164.4 164.1 161.5 160.9 160.8 159.3 155.8 150.3 147.3 146.1 145.8 148.7 149.1 150 153.3 154.8 153.3 151.9 153.3 154 154.4 155.2 155.9 156.4 158.2 159.7 165.9 167.8 167.7 163.2 162.2 162.1 162.6 163.4 164 165 166.2 167.4 167.5 168.4 169.2 170 170.8 172.8 174.3 175.7 178.2 179.2 179.5 180 181.6 184.3 187.9 188.3 187.6 187.4 188.3 189.1 189.6 190.1 192.8 194.7 195.5 196.7 198.1 199.8 201.2 202.8 203.7 206.1 207 208.5 207.5 205.1 203.7 202.3 203 203.3 204.1 204.1 204.1 205.3 206.2 206.7 207.7 207.6 206.8 206.7 208.6 211.1 213.9 215.2 215.6 214.7 211.2 213 213.9 212 212.2 215 215.1 215 217.3 219.7 220.4 220.7 215 213.3 204.1 200.5 202.5 204.7 206.4 204 188.8 183.5 201.3 219.3 226.9 232.4 235.9 237.3 240.4 246.4 249.5 253.4 253.7 252.2 253.4 255.1 258.9 260.7 266.7 269.8 270.7 271.6 272.9 272 270.2 267.3 262.7 258.9 260.4 259.3 258.8 258 256.8 253.9 242.5 252.5 252.6 250.6 247.3 242.1 237.6 241.6 252.6 257.4 259.4 260.8 260.8 258.7 254.3 249.6 241.4 228.4 209.7 232.9 247.2 249.6 248.7 250.2 251.3 253.7 256.2 258.6 261.4 264.2 264.8 263.4 260.2 261.1
170 169.5 169.6 169.4 168.4 167 165.7 164.3 163.9 162 160.2 159 156.6 152.3 147.4 146.8 145.7 153.7 158.1 156.9 157 157.7 152.1 147.2 145.2 146.7 145 144.8 147.5 151.4 157.6 160.8 158.3 159.3 162.3 163.8 162.4 153.6 159.9 159.9 159.1 157.3 158.2 158.5 159 159.9 161.1 162 164 168.5 172.4 173.6 172.9 166 165.6 166.3 167 168 168.9 169.5 170.3 171.4 172.4 173.3 173.3 173.1 173 173.9 177.2 181.7 185.2 185.1 184.6 184.9 185.6 185.7 186.1 186.7 188.7 189.9 189.4 189 190.8 194.7 199 199.8 201.3 202 202.6 203.2 203.1 200.4 199.1 198.4 199.1 199.8 200.9 201 201.5 203 204.1 208.5 207 206.1 204.5 206.1 209.1 212.6 214.3 213.4 212.4 210.3 209.4 210 210.3 208.9 209 209.5 209.4 210.1 211.6 214.9 216 210.8 205.9 193.8 185.1 181.2 188.1 196.2 196.7 185.4 181.4 202 219.2 226.9 229.8 230.7 232.1 234.8 239.4 243.9 248.5 250.7 250.2 249.9 250.9 253 256.8 261.2 265.1 269.1 270.9 271.4 271.2 270.3 266.8 263.2 259.1 254.7 254.7 255 254.8 254.1 254.2 253.2 248.1 240.9 247.4 245.4 237.4 232.9 239.5 249.3 254.8 260.8 260.8 260 256.8 253.7 250.7 241.9 232.9 218.8 214.1 238.8 246.4 245.2 245.1 247.3 249.2 251.8 254.6 257 259.8 260.7 259.4 257.9 256.9 257.2
165.6 164.6 163.8 163.2 162 160.5 159.9 158.5 155.9 154.5 154.1 152.5 145.3 139.5 135.6 140 141.6 147.1 149.7 150.8 152.6 143.4 142.4 141.5 142.5 144.1 144.4 146.9 156.2 157.9 164.9 163.4 161.8 163.3 165.4 167.2 167.1 167.9 169.5 169.2 168.5 168.6 169.7 168.6 164.9 163 167.7 173.3 178 184.1 188.7 189.9 188.9 182.4 181.8 175.8 172.1 169.7 168.8 173 177.7 178.8 176.7 173.4 173.2 173.5 173.3 173.6 173.5 176.1 178.7 179.7 181.3 182.8 184 183.3 183.2 183.3 185.3 183.4 185.3 186.6 188 191.6 195.2 195.2 195 194.6 194.7 194.4 194.4 195.6 196.4 198 198.9 199.5 200.4 199 200.2 201.5 205.9 208.3 206.9 203.4 203.9 206.5 210.1 210.5 209.2 208.9 206.7 206.3 206.5 207 205.4 206 206.5 206.4 208.2 209.2 210.1 211.1 209.7 198 194.8 180.9 174.9 178.5 180.9 180.4 183 194.5 200.6 217.3 226.7 224.6 225.1 226.1 226.2 229.7 237 240.7 244.8 248.4 248.1 247.9 248.9 250.8 255 257.9 260.8 263.8 265.8 266.8 265.8 262.9 260.2 256.5 253.4 251.6 251.7 251.3 251 251.9 252.1 250.9 248.8 236.6 242.8 231.4 230.3 241.3 247.7 250 253.2 257 256.7 253.9 250.4 248.2 244.5 237.3 224.2 203 223.4 237.8 239.2 239.8 242.1 244.4 247.5 250.7 253 255.3 255 255.8 254.1 253.1 252.2 252.4
161.3 159.9 158.4 155.7 154.4 154.6 154.9 153.2 149.2 145.8 145.3 139.2 130.4 131 132.1 132.9 134.7 139.3 146.1 148.8 144.9 141.8 141.2 140.4 144.1 145 148.8 155.8 154.4 159 165.5 164.9 167.1 169 171.2 172.7 173.4 174.2 174.7 174.1 175.3 174.5 177.5 181.1 180.6 177.8 180.3 187.1 195.5 201.8 203.6 203.3 202.2 198.7 195.3 192.6 190.5 190.5 187.1 182.5 180.6 179.2 182.2 181.1 180.4 175.8 173.7 173.8 173.2 173.1 173.3 173.9 174.6 176.9 179.7 179.7 179.4 180.8 181.8 183.6 188.1 189.7 187.4 187.7 188.6 189.4 189.8 190 190.6 192 193.1 195.1 199.3 199.3 199.2 200.2 200.4 198.2 199.2 200.1 204.5 206.6 205.5 202.1 200.5 202.3 203.6 202.9 202.4 202.1 202.5 205 204.6 204.7 204.8 204.7 205.6 208.6 209.9 212.3 215.1 215.6 207.4 200.1 189.4 177.5 176.5 188.9 209 216.6 221.2 223.5 224.6 224.3 222.6 222.7 223.9 226.8 229.1 231 236.7 239.9 242.4 244.1 245 246.4 248.6 250.5 252.5 255.1 255.6 257.1 257.5 257.1 256.1 254.2 252 250.6 249.1 249.8 249 248.4 249.1 249.4 248.7 247.6 244.6 241 232.2 229.3 239.9 245.5 250.3 250.1 249.1 250.5 250.5 248.8 247 244 240.3 231.5 210.9 209.5 229.7 237.5 239.9 239.5 239.7 242.5 245.5 248.2 250.7 251.4 250.4 249.5 249.5 248.8 248 248.6
157 156.1 152.4 148.8 148.2 147.1 146.8 143.9 137.5 134.7 129.4 129.9 130.8 131.8 132.6 133.3 133.8 136.5 138 139.3 140.3 140.6 140.3 143.9 149.2 149.3 151 155.8 159.5 164.6 169.2 175.6 178.6 180.2 181.5 182.6 184.8 183.6 182.6 181.3 183.2 183.8 187.1 190.4 194.4 196.1 196.9 202.5 210.6 213.8 214.9 214.4 212.7 209.5 206.5 203.7 204.2 202.5 197.7 183.9 184.7 192.9 196.4 190.2 189 183.8 178.7 174.9 173.2 173.3 173.5 174 174.5 174.9 176.6 178.4 184 186.7 187 188 189.9 192.4 191.5 190 191 192 191.9 191.3 191.4 191.4 192 193.8 195.6 195.4 195.5 195.4 196.2 196.9 198.2 199.3 202.3 204.7 202.4 199.8 199.1 199.3 199 198.3 199.1 199.9 200.4 201.1 201.6 202.6 203.3 204.8 206.5 209.1 211.4 215.1 215.6 214.5 207.2 199.6 187.6 174.5 181.8 208.1 213.6 215.8 218.9 221 221.2 220.7 220.2 221.6 224.7 229.3 233 237.4 242 244.4 246.4 247.8 248.3 247.6 247.9 248.9 249.7 250.2 250.3 250.3 249.5 249.3 249.2 249.6 248.7 247.5 246.6 246.5 246.3 246.1 246.6 247.2 248.3 246.4 245.2 244.2 233.3 226.2 240.4 245.4 246.3 246.6 247.7 247.6 247.6 246 242.9 239.2 234.9 223.7 196.4 218.3 231.4 237.1 239.6 238.5 240 241.6 243.3 244.7 245.7 245.7 244.2 243.9 244.3 245.2 244.5 244.1
152.2 152.7 149.1 146.7 146.5 141.5 137.6 133.9 128.2 129 129.9 131 132.1 135.4 141.7 145.5 148.9 134.3 135.3 138.8 140.2 140 140.7 146.5 151.1 150.9 155.7 164 168.5 175.1 182.4 189.3 194.5 195.6 195.7 196.9 197 194.9 191.3 189.8 187.5 194.1 197.2 201.3 206.1 210.1 213.5 219.3 221.8 223.6 224.9 225.2 223.4 220.4 217.5 215.1 215.6 214 210 204.1 199.7 197.5 196.5 193 191.2 192.6 190 184.3 180.6 174.9 173.6 173.8 174.3 174.8 175.7 176.4 177.3 178.3 175.6 181.6 188.5 189.7 190.5 191.8 191.6 192.9 193.5 192.5 191.7 191.4 190.7 189.9 189.8 191 194.3 196.4 195.5 196.2 197.5 198.2 196.9 196.8 196.4 196.2 195.2 196.5 196.4 195.5 196.6 199.1 200 199.6 199.6 201.5 203.2 205.7 208.2 209.8 210.8 213.1 213.6 212.6 206 193.8 180 171.2 197.4 212.6 214 214.8 216.5 217.1 216.1 219.1 220.8 224.1 227.8 233.3 237.9 242.2 245.9 248.8 250.5 250 249.6 247.7 245.8 244.6 244.8 245.2 246.5 246.5 246.2 245.2 247.4 246.1 245.7 244.8 244.8 244.8 244.8 244.5 244.3 244.9 248.1 242.5 239.4 235.2 226.9 228.9 241.2 243.4 244.9 245.6 245.7 244.7 243.7 241.7 238.7 236.1 230.4 215.8 188.6 217.2 228.7 236.4 238.3 237 237 238.4 239.7 240.3 240.6 239.8 239.7 238.9 239.8 241.1 241.1 242.1
144 143.5 144.9 145.4 141.6 134.1 128.5 130.4 131.5 132.7 140 138.2 141.4 143.8 145.2 146.6 148.6 149.7 147.5 141.9 143 142.1 144.7 148.7 150.6 163.1 170.5 174.2 180.2 186.8 194.1 199.9 203.6 206 207.8 209.8 209.1 206.5 203.8 201.2 200.1 207.6 207.1 210.9 215.3 219.7 224.5 229.5 232.3 233.8 234.9 235.5 234 230.7 227.4 223.1 220.4 217.3 213.4 208.9 202.7 202.5 202.8 195.5 187.1 189.8 193.3 196 189.4 183 180.3 174.6 174.1 174.7 175.1 176 177 177.1 175.8 175 182.6 188.1 189.8 191 192.5 193.2 192.9 191.3 189.6 188.8 187.9 187.1 187.8 190.4 193.1 196.6 197.7 196.7 196.8 195.7 192.7 192.6 193 193.1 192 192.3 192.3 195.8 196.2 198.6 199.1 198.9 199.2 200.5 202.5 206.4 210 210.7 211.3 212.4 212 210.3 207 186.2 173 180 201.1 210.4 210.9 211.4 213 213.9 215.6 218.9 223.1 228.7 231.3 236.6 240.5 243.7 246.2 248.1 249.1 247.1 244.2 242.7 241.6 240.3 239.6 241.2 243 243.5 245 246.9 248 247.5 243.4 243.2 243.6 243.8 243.8 243.1 242.4 242.9 241.6 236.7 224.7 222.7 222.5 235.6 240.4 241.3 243.1 243.6 243 241.3 239.8 237.5 235.7 233.8 231.4 211.9 185.3 205.8 223.6 232.6 234.8 233.7 233.3 234.4 235.8 235.4 235.4 235.4 235.5 235.7 236.1 236.7 237.5 237.8
