ncols 200
nrows 86
xllcorner 270000
yllcorner 233350
cellsize 50
254.7 249.5 247.3 245.8 243.5 241.1 238.6 237.4 236.9 236.9 235.2 233.5 229.9 225.4 221.5 217.6 216 213.8 211.2 210.5 208.2 207.4 207.1 206.7 206 205.4 204.6 204.1 202.9 202.2 205.1 209.8 212.7 213.6 215.1 213.3 208 207.7 207.6 208.1 210.5 214.6 224.1 236.5 247 259.4 267 270 269.5 267.9 260.4 250.5 245.3 237.9 228.7 218.6 215.2 217.6 220 226.7 230.6 230.5 229.1 228.6 227 222.8 213.9 202.2 185.8 168.6 157.5 149.2 140.7 136.6 134.5 129.4 126.3 122.4 122.8 124.4 127 130.4 135 139.6 141.1 142.1 144.5 148.6 151.2 153.1 158.7 174.4 181.6 189.5 191.3 187.3 186.1 183.9 183.3 181.2 181.4 178.6 166.7 151.7 124.2 82.9 77.2 81.2 82.5 83.3 83.3 86.9 87.3 87.1 87.8 91.5 97.6 103.6 115.5 131.8 152.5 176.4 206.6 236.4 266.5 275.7 274.3 264.6 254.4 241.6 225.9 208.8 192.2 174.4 169.1 167.5 165.8 164.4 161.2 160.5 170.3 178.5 185.9 196 202.7 206.8 208.9 210.9 210.6 206.9 204.7 203.3 199.1 194.3 194.2 189.4 181.5 170.2 161.2 155.9 152.2 148.5 145 142.9 141.4 137.9 133.9 127.3 130.3 155.1 162 165 160.5 151.9 137.1 122.4 109.9 103.3 90 84.2 84 83.6 83.3 83.6 84.2 84.9 85.4 86 86.4 86.9 90.8 93.7 99.6 105.7 110.2 114.6 116.2 118.9 123.4 124.1
234.4 233.1 232.8 231.6 229.8 225.2 225.9 229.8 231 231.1 228.4 226.3 225.5 223.6 219.2 216.3 214.3 212.5 211 210.4 210.1 208.6 207.5 206.8 206 204.4 203.9 203.1 202.1 201.4 203.7 208.8 210 209.5 209.1 206 207.1 208.7 209.3 209.6 213.7 223.5 232.9 245.7 257.1 266.8 275.2 281.6 275.5 268.9 261.1 248.2 236.5 224.1 216.4 205.9 204 209.6 216.1 223.5 228.5 228.2 227.1 228.9 223.5 214.9 207 192 172.5 160.9 153.4 143.8 135.8 133.4 131.1 128.4 125 124.3 125 127.5 130.2 136.1 144.3 145.2 146.1 147.1 149.3 152 153.8 156.1 158.2 171.9 183.1 187.4 186.3 185.7 183.9 181.7 181.9 184 187 186.3 174.1 155.6 124.5 93.9 77.5 81.5 82.3 82.8 82.8 82.6 82.9 84.1 85.8 90 97.6 106.1 118.6 135.9 156.6 184.6 214.3 247 265.7 270.8 263.4 252.5 240.9 229.7 213.2 197.5 182.9 170.5 167.7 165.3 163.2 160.2 158.7 164.8 175 182 189.7 198.9 202.8 204.8 205.9 207.1 206.4 200.6 195.2 193.3 189.7 187.7 185.1 178.1 168.2 160.9 155.8 152.4 149.3 145 142.1 140.3 139 133.7 125.4 119.3 144.1 158 162.3 161.3 154.9 141.3 123.4 113.7 104.4 90.9 83.7 83.4 83.3 83.4 83.5 83.4 84.4 85.5 85.4 85.9 86.4 88 92 97.1 101 104.4 107.3 109.4 109.7 114.2 120.2 111.5
218.8 218.3 217.9 217.2 217.1 212.6 220.2 221.6 221.7 220.2 222.8 224.5 227.1 225.4 223 220.6 218 215.2 211.9 212 212 212.9 212.5 212 212 208.7 206.1 201.1 200.7 200.8 201.8 205.6 204.6 203.5 203.9 205.8 209.1 210.4 213.6 214.5 221.4 231.9 242.6 253.7 265.6 275 282.1 284.5 276.1 268 257.5 246.3 229.6 212.6 202.9 195.9 192.4 202.7 212.3 221 226.6 225.8 230.2 226.1 213.4 206.2 195 180.4 167 156.9 147.7 138.9 132.9 130.9 130.2 128.5 125.9 127.7 130.3 135.3 141.4 148 151.5 154.2 151.6 152.1 152.5 154.6 157 158.6 161.2 165.5 174.9 179.5 181 184.1 182.1 180.1 180.5 183.8 188.9 190.1 176.4 151 123.7 104.2 76.7 81.1 81.7 82.3 82.3 82.1 82 82.5 83.8 87.9 98.2 108.4 122.3 139 160.4 188.9 220.7 249.8 263.5 260.9 249.8 239.5 229.3 217.7 202.7 190.8 176.9 168.8 166.5 162.8 158.4 158.4 163.5 171.3 182.3 185.9 192.1 198.8 200 201.8 202.2 200.5 199.6 195.4 187.8 185.2 183.5 178.6 172.7 164.5 158.2 155 151.7 148.8 145.7 142.5 140.6 137.2 133.2 122 118.7 137.8 152.6 156.3 158.2 154.4 146.4 132.9 119.4 104.8 94 84.2 83.6 83.5 83 82.6 83.9 83.6 84.1 84.7 85.1 85.4 85.5 88.2 101.6 110.5 111.8 110.9 105 99.8 102.6 106.9 102.9 97.9
201.9 203.5 203.7 205 206.9 207.2 210.2 213.4 215.7 220.9 225.2 228 230.3 230.1 228.5 226.4 224.3 221.3 219.5 216.2 214.1 216.8 217.6 218.2 218.7 214.1 209 204.6 201.1 201.5 200.3 203 202.9 203.8 205.2 206.8 209.2 210.8 214.6 221.3 231.5 240.1 250.6 260.9 272.1 281.2 287.4 287.4 274.5 263.6 253.3 241.6 228.7 212.2 199.8 191.6 186.6 197.1 210 220.2 225.4 226.9 222 211.1 202.6 190.8 179.1 166.2 157.9 151.6 142.7 134.6 131.3 131.5 139.4 131 127.7 132.3 136.1 142.8 148.7 159.8 164.9 162.6 159.2 158.3 158.2 159 161.7 163.2 164.2 165.3 169 173.9 179.6 183.1 181.3 179.1 178.6 180.7 184.2 180 169.8 144.5 123.5 104.9 78.4 81.1 81.5 81.8 81.8 81.6 81.4 81.6 82.3 84.3 98.4 111.1 127.2 141.3 165 194.1 222.9 248.2 254.8 245.8 235.9 226.2 216.8 205.5 195.5 182.1 170 166.2 164.3 161.7 155.2 160.3 167.8 175.4 183.4 188.2 193.4 197.8 198.4 198.9 200.4 194.8 192.8 189.2 181.2 178.1 176.3 168.2 163.3 158.7 155.1 151.8 148.7 145.5 142.7 140.8 138.3 135.1 120.2 111.7 135.5 145.9 153.2 154.7 153 145 132.9 117.9 104.3 95.6 84.2 83.5 83.3 83.6 82.7 82 83.3 83.7 84.1 84.6 85.1 85.3 85.9 97.1 109.1 112.3 115.4 103.9 92.7 93.5 95.2 95.8 93.5 93.5
193.1 195.4 198.3 200.5 204.5 209.7 214.2 217.5 221.9 226.1 228.5 230.7 232 231.5 230.5 228.3 227.6 225.2 224.2 223.2 220.2 221.1 228.8 229.2 223.6 217.5 211.5 206.8 200.7 201.2 199.6 200.4 202.9 205 206.5 208.3 210 213.3 217.9 225.6 236.2 245.9 255.3 266.6 277.5 283.6 287.8 282.6 266.7 258 248.3 231.9 216.7 204.8 194.9 189.3 183.6 188.6 207.5 215 219.7 218.2 209.5 201.7 191.8 179 166.4 157.1 152.8 146.8 138.3 134 132.8 135.2 138.9 131 129.6 136.5 142.6 151.5 158.2 167.6 168.9 169.7 168 165.2 163.4 160 162.7 166.3 168.7 170.3 172.1 174.8 180.5 182 180.6 178.7 174.9 173.5 174.4 168.2 155.2 136 118.9 103.4 89.8 81.2 81.4 81.7 81.9 81.7 81.5 80.9 81.7 83.2 98 111.6 126.4 140.9 162.3 189.4 218.7 244.7 239.4 230 222.2 213 205.3 197.9 187.2 175.3 166.4 164.2 161.6 156.4 157 161.6 169.2 176.9 181.6 187.1 192.4 194.9 195.7 196.7 195.8 190.3 188.5 186.4 175.1 169 162.8 159.4 157.5 156.4 152.6 150.2 147 143.9 141.4 139.2 135.4 129.1 113.7 121.7 141.1 147 151.2 149.6 142.4 130.9 117.8 108 97.2 84.7 82.6 82.4 81.9 82.1 81.8 81.9 83 83.6 84.1 84.4 85.2 85.8 96.9 106.4 106 103.6 99 90.3 90.6 90 90.4 90.2 92.7 92.2
195.3 197.5 200.9 204.9 208.4 213.4 218.6 223.9 228.6 232.4 233.9 234.8 236.7 234.9 232.6 230.4 229.7 232.2 233.9 232.2 228.3 225.9 230.2 231 226.7 218.6 209.5 204.4 200.6 200.8 198.2 199.9 202.6 204.7 206.7 209.5 213.8 218.5 222 222.3 231 237.2 245.3 255.9 266.9 278.6 285.1 271 257.8 248.2 237.9 218.1 206.5 197.3 191.4 186.7 181.9 181.8 200.5 216.3 214.9 199.7 200.5 194.2 180.6 170.6 161.6 153.2 148.4 143.1 137.4 136.7 139.9 140.4 137.2 131.8 131.2 140.8 148.6 158.5 163.5 170.9 174.7 175.3 173.9 172.4 168.2 161.3 164 168.2 170.7 173.1 175.1 177 178.8 179.8 180.4 178.8 174.7 165.8 164.7 157.1 145 128.8 115.6 103.2 96.9 78.8 81.3 81.6 81.8 81.9 81.5 80.8 81.1 82.9 96.8 110.4 123.1 137.6 157.7 179.7 213.9 226.3 224 217.6 208.9 202.2 197.8 189.9 179 170 164.4 161.2 156.6 149.8 158.6 164.6 170.9 175.8 179.6 185 190 192 192.2 194.4 193.5 189.6 185.9 181.4 174.9 159.3 154.8 154 152.1 153.1 150.7 148.5 145.9 142.7 141.4 138.9 134.3 124.5 106.2 122.1 141.3 146.1 146.7 142.3 129.5 118.5 107.4 97.6 85.8 82.4 81.9 81.2 81.6 81.7 81.9 82.2 83.4 84.8 85.5 85.1 86.5 89.7 104.8 107.1 98.6 94.9 89.1 88.9 88.9 90.1 92.6 96.7 99.8 99.5
199.8 203.2 207.2 211.1 213.9 219 227.1 232.9 237 238.6 238.9 236.5 238.2 236.8 235.1 232.7 233.2 236.1 236 229.7 229.5 229.9 232.9 229.2 224.5 218.4 211.2 204.8 199.9 199.2 198 199.5 202 204.4 209.3 214.3 223 228.3 225 220.4 220.9 226.8 236.8 248.1 258 271.5 273.1 255.2 244.9 235 224.5 210.7 202.9 198.4 192.7 186 180.3 176.5 193.4 208.9 206.5 199.9 182.9 182.4 169 164.5 153.7 148.5 144.8 142.1 139.8 141.2 144.7 145.3 141.6 133.6 137.4 145.3 152.9 161.9 167.4 174.5 176.1 176.2 172.9 168.5 167.5 166.1 164.8 166.9 168.7 171.7 173.8 175.2 176.7 178 179.5 177.7 173.5 165.1 152.6 146.8 133.5 120.7 111.3 103.3 99 90.8 77 81.4 81.6 81.8 81.5 80.9 81 80.8 95.6 106.4 116.2 132.9 149.4 171.6 199 210 212.1 205.6 199.4 194 188.4 181.1 171 165.5 162.9 160.1 153.7 151.6 159.7 165.2 169.3 172.8 177.4 184.3 186.8 187.6 188.4 190.4 191.6 187 180.1 175.8 171.1 160.5 151.9 149.1 148.6 148.7 148.2 146.5 144.4 142.6 139.9 139 135.9 127.4 107.3 113.9 139.5 143.4 142.3 131.2 120.1 108.1 101 87.5 82.3 82 81.2 80 81.8 82.4 82.5 82.5 83 85.1 87.1 86.4 88.8 96.4 103.4 98.1 90.7 88.1 89.2 90.6 91.6 97.9 102.5 103.8 103.8 103.4
210.4 213.9 217.2 221.8 227.5 233.5 238.9 243.5 244.8 244.7 244.7 243.6 248.1 246.8 239.6 238.5 237.2 237.6 235.9 232.9 237.3 243 236.5 229.8 226 221 215 205.6 199.9 198.5 197.8 200.3 203.7 209.8 218.2 225 232.5 237.9 230 219.7 217.8 220.8 227.4 238.7 248.8 264.1 259.7 247.2 237.4 226.8 214.1 206.8 202.2 199.2 194.3 185.5 178 171.6 183.1 200.5 199.8 192.7 181.3 170 166.2 157.8 149.4 146.4 143.8 142.2 142.9 149 152.5 148.1 142 135.7 141.1 150.4 157.7 166.9 169.6 172.3 173.2 172.7 168 166.3 165.9 165 164.9 164.8 166.9 169.6 171.6 173.4 175 176.6 177.8 174.8 167.5 157.2 146.9 135.9 125 115.5 108.6 103.2 99.7 95.6 86.3 77.3 81.2 81.4 81.4 80.9 81 79.9 93.9 100.7 108.3 119.1 138.5 160.6 181.1 199.7 205.1 199.9 191.5 185.8 180.6 175.5 169.4 165.5 162.5 159.5 154.3 148.7 159 163.1 166.5 169.8 175.1 180.5 181.5 182.1 184.7 187.9 187.7 183 175 171.6 166 158.8 151.2 146.8 146.2 144.9 143.9 142.6 141.3 140.8 140.8 140.7 136.9 133.1 110.7 101.1 122.2 140.4 129.9 121 112.3 101.1 88.8 83.1 81.6 81.6 81.7 80.8 81.6 82 83 82.9 83.7 84.9 86.8 87.3 93.3 105 96.8 91.4 87.4 87.6 89.7 92.2 98.2 103 105.3 107.2 107.7 107.3
220.8 224.8 228.3 231.1 238.6 244 248.2 250 249.7 253.8 259.5 264.5 265.5 256.9 249.4 248.7 244.6 241.9 239 243.4 251.9 249.7 237.7 232.7 227.4 222.8 213.5 204.2 199.8 199 199.4 203.3 211.2 220 227.5 237.4 245.6 250.4 239.7 224 216.2 217 220.2 228.8 238.8 250.7 246.1 238.6 229.8 220 208.6 205.4 201.9 199.8 192.7 180.3 175.3 170.2 173.7 189.4 189 183.4 173.1 162.6 155.9 150.1 147.6 145.7 145.3 147.2 150.3 158.6 158.6 152.3 143.1 139.2 140 151.6 157.9 163.2 167.1 169.9 171.2 171.1 168.7 167.2 166.3 166.6 166 166.3 166.3 167.6 169.2 170.8 171.6 170.4 167.1 166.2 157.4 144 133.5 124.2 118.8 113.9 108.5 103.9 101.2 99.6 94.9 87.3 76.9 81 81 80.9 80.5 80.6 91 95.9 101.9 110.2 127.3 146 167.5 182.1 195.8 196.1 188.5 183.3 178 173 168.5 165.5 162.9 160.2 156.2 145.2 150.8 160.7 164.2 167.5 172.1 174.7 177 178.4 181 182.6 181.3 176.3 169.3 166 158.2 153.2 149.2 145.5 143.4 141.5 139.7 138.4 137.5 138.3 138.7 138.4 137 134.4 116.2 99.2 109.6 125.4 120.3 111.8 100 98 85.7 80.9 81.5 81.6 81.7 80.5 81.1 81.9 80.7 80.8 82.5 83.7 84.3 86.1 93 92.4 89.6 87.3 86.3 89.5 92.8 98.8 102.2 104.8 107.9 110.4 110.4 110.4
228.5 233.2 237.1 242.6 248.3 251.4 254.6 257 263.2 271.2 271.2 271.5 268.8 260.3 260.2 252 252.6 250.1 253.7 265 262 244.9 236.2 232.6 227.7 221.6 210 203.6 199.1 196.6 203.1 212.8 221.9 231.3 239 248 255.8 261.2 248.5 231.8 216.5 212.5 213.5 217.7 228.9 232.3 227.8 226.1 220.4 211.1 204.9 205 202.1 199.8 189.5 179 170.7 167.6 169.6 180.2 178.4 172.7 167.1 157 152 149.6 147.9 148.1 149.2 154.6 160.1 163.3 161.6 155.7 147.3 142.3 144.4 156.3 158 161.2 165 168.7 171.8 172.1 169.9 168.2 168.1 168.2 168.7 169.1 169.6 169 170.3 172.1 169.2 166.4 161.3 153.7 143.5 132 126.4 122.5 117.8 113.4 109.8 106.4 104.1 101.4 98.5 92.5 84.6 76.7 79.9 81.3 80.7 80.6 83.4 91.1 97.2 104.7 117.7 131.1 152.6 167.1 183.3 191.9 188.9 182.2 175.4 171.4 168.9 167.8 164.6 161.5 156.1 147.1 146.2 154.8 161 162.6 166.6 169.3 171.7 171.9 175.5 175.6 173 166.1 163.1 158.6 153.2 150.1 147.3 142.2 140.2 137.6 135.9 134.4 133 134.1 134.7 134.8 133.4 129.9 114.8 100.1 99.4 116.9 111.8 99.4 100.3 94.7 80.2 80.2 80.9 81.4 81.2 79.7 79.4 82.4 83.4 83.6 83.8 83.6 84 84.5 86.9 85.7 86.2 88 90 95.5 98.3 99.9 103.7 108.2 112 114 114.3 114.7
232.9 237.3 242 247.7 251.5 258.5 265.1 271.1 273.4 275.3 273.2 270.2 267.7 268.1 266.4 264.5 265.4 265.5 278.8 279 259.4 244.2 236 231.7 223.2 214.9 207.6 202.7 197.7 200 215.8 223.8 234.7 245.5 252.8 257.2 258.8 261 255.7 241.3 223.6 211 208.4 210.7 212.4 216.7 217.5 215.7 211 203.1 204.2 206.8 202.9 197.7 184.9 174.4 166.4 163.4 164.9 171.4 169.1 165.1 156.8 151.8 149 149 149.8 153.8 159.2 164.1 165.8 167 163.6 160.4 151 145.8 147 156.2 159.4 159.1 163.7 167.4 167.8 169 169.5 169.6 169.9 170.2 171.3 172.3 174 175.5 173.5 173.2 170.4 162.6 155.4 148.8 141.1 130.5 127.1 123.9 118.8 114.8 111.8 107.5 104.3 101.3 98.9 96.4 92.8 89.3 82.8 71.6 79.6 80.5 80.2 84.6 90.7 97 105.8 117.1 130.5 150 171.4 185.1 192.2 182.2 174.9 172.5 171.5 170.5 167.6 163.4 157.1 147.8 144.7 152.7 157 159.6 160.7 164 166.1 166.2 167.5 166.4 161.9 159.1 157.8 153.5 148.9 145.7 144.7 140.5 137 134.7 134.4 132.3 129.8 130.1 130.1 131.3 128.7 125.5 105.1 95.6 91.6 109.2 101 97.7 95.5 84.2 79.2 79.5 78.6 80.8 80.8 78.6 81.7 84.6 85.1 85.3 85.1 85.4 85.2 85.6 86.1 89.6 92.4 93.5 96.6 100.4 102.7 105.1 107.8 113.3 116.2 116.9 116.5 117.3
236.1 242.1 247.8 253.8 261.5 272.5 276.7 278.9 275.2 275.1 276.3 278.5 277.8 277 272.6 272.3 279.3 291.2 290.3 272.1 252.1 243.2 235.7 227.9 218.1 210.5 206.4 202 193.1 210.9 226.4 240.2 248.7 256 259.2 258.8 255.5 250.5 243.8 236.3 221.6 206 200.2 198.8 200.9 205.4 206.5 208.1 203.7 200.3 203.4 204 200.7 194.5 178.8 160.7 159.8 158.2 161.7 164.4 161.8 155.3 148.7 147 147.9 152.1 157.5 161.8 168 171.3 171.2 171 169.9 166.8 153.1 150.6 146.2 149.2 152.1 156.3 159.1 161.9 166.3 169.2 171 172.4 172.7 173.6 175.1 177 180.2 180.1 178.2 174.7 170.6 165.3 156.1 150.6 143 133.8 129.2 126.3 120.3 115.2 111.7 108.8 105.9 104 101.3 98.8 96.5 91.6 82.5 78.9 71.5 76.5 80.2 80.4 82.7 89.6 96 104 116.1 132.3 157.5 174 183.5 180.2 175.8 175.8 175.9 175 170.6 166.3 155 144.5 142.5 149.1 150.4 154.1 156.9 158.1 159.6 162.4 161.2 157.7 156.1 155 152.7 148.8 144.7 142 139.8 137 134.2 134.2 132.7 129.4 127.3 126.1 126 126.6 125.1 118 99.4 90.6 90.3 103 97.4 95.5 89.9 79.1 79.8 80.3 79.8 80.3 81 81.2 82.8 85.4 86.3 86.2 86.8 86.8 86.4 87.1 91 102.9 101.7 100.5 104.7 109.3 111.7 111.5 112.6 115.7 118.9 119.3 119.2 122.2
237 242.1 250.1 259.2 265.2 269.8 270.6 272.5 275.9 281.7 286.7 286.7 285.7 282.3 280.1 283.5 300.1 300.9 285 264.3 250.3 242.8 231.8 221.3 213.9 212 208.1 196.6 196.5 218.5 235.6 247.1 252 254.9 252.8 246.2 239.6 232.1 224.5 217.8 199.4 192 190.9 190.6 194.1 199.1 200.7 198 195.6 196.4 198 203 198.4 189.4 164.8 153.8 153.5 152.3 156.7 157.2 148 146.3 146.5 146.9 154.4 160.2 165.8 170.5 174.2 177.2 178.8 178.4 176.3 166.6 156 153.2 152.6 152.5 149.7 158.6 164.3 167.2 172.3 172.8 174.1 175.2 176.3 177.6 179.9 183.6 184.2 182.2 178.9 175.1 170.7 163.4 157 152 148 141.3 136.7 129.5 122.5 116.8 113.7 110.5 107.9 105.6 102.8 99.5 96.3 90 83.4 81.1 78.8 76.1 72.4 77.9 79.2 85.9 93 98.1 107.1 119.3 140.8 161.5 169.9 173.9 178 179.4 179.4 179.1 175.8 168.3 154.7 145.1 137.3 143.5 144.6 147.9 150 153.2 156.3 158 154.2 152.9 151.3 148.7 147.8 144.2 141.4 138.7 135.9 133.4 131.5 129 129.4 126.2 124.2 122.3 121.9 121.5 118.4 102.4 91.5 86.8 93.1 95.3 94.1 92.6 86.3 79 79.9 80.9 81.1 81.4 81.7 81.5 82.9 85 85.6 85.9 86.5 86.9 87.8 93 104.5 110.7 110.3 105.5 110.3 116.6 119.1 117.7 118.6 120.2 122.9 124.5 125.4 128.2
233.9 236.4 240.3 241.5 246.3 250 262.6 273.6 281.3 290 294.2 294.1 291.2 287.7 287.8 301.6 306 298.6 276.6 260.3 249.1 238.5 226.9 218.9 216.7 216.2 208.3 191.5 189.7 212.2 237.6 244.8 245.1 242.3 234.9 227.8 219.1 207 204.3 195.5 186 181.9 181.4 182.6 187.5 189.8 189.4 189 188.8 191.3 199.3 202.1 194.4 180.7 150 147.2 147.4 147.5 151.3 147 144.8 145.8 152.4 158 163.2 169.8 175.5 178.2 181.9 183 183.5 184.3 179.3 166.6 159.4 157.2 162.6 163.1 159.1 159.9 166.6 170.6 172.4 173.2 176.8 179.1 180.2 181.6 186.4 188 186.4 183.4 179.4 175.2 170.5 163.4 158.4 153.9 150.7 146.3 140.7 131.6 124.7 120.3 115.9 112.1 109 105.5 102.5 99.5 95.4 89.9 84.6 81.6 79.7 77.5 75.5 74.3 72.6 79.7 91.3 96.1 100.7 110.9 127.4 146.2 156.3 176.7 184 184.5 185.9 182 173.3 163.9 156.8 150.2 139.8 136 139.6 140.5 141.5 146.5 150.9 151.2 147.3 147.3 145.5 145.3 142.5 139.3 137.6 135.4 132.5 130.9 129.6 126.9 124 122.5 120.4 118.8 116.8 115.3 110.4 93.6 87.9 85.7 92.8 88.8 89.1 85.1 78.8 78.8 79.1 80.7 81 81.3 81.3 81.2 81.1 83.4 85.1 85.7 87 88.6 95.3 106.4 115.1 117 116.9 110.9 113.3 119 123.2 125.6 126.8 125.8 129 132.1 132.3 131.8
223.3 227.4 229.7 232.7 235.6 255.2 268.4 280 288.2 295.3 300 299.7 297.5 293.8 303.9 311.2 307.2 286.8 271.7 259.2 246.8 233 227.3 225.2 224.6 228.3 211.1 190.3 186.6 202.4 229.2 235.3 234.1 228.7 223.6 210 199.9 195.3 190.7 185.1 177.3 173.8 170.2 173.5 176.1 176.8 178.9 179.1 183.4 191.5 199.6 196.7 188.7 167.6 142.5 143.3 142.9 145.1 146.5 141.9 148 155.6 160.9 166.3 175 182.1 187.4 188.9 188.3 188 188.4 187.6 178.3 167.6 161.1 158.9 163 164.1 160 159.5 165.6 169.2 171.6 175.6 180.6 183.7 184.8 188.2 191.1 190.8 189.2 185.7 182.2 178.4 170.9 166.6 162.4 158.3 155.5 153 146.2 138.3 127.5 123.6 119.1 113.9 108.9 106.1 102.2 99.3 94.9 89.5 85.3 81.3 80.7 79.1 78.3 79.2 78.7 75.9 86.6 95.7 100.4 107.3 118 133.1 150 175 186.9 190.6 189.3 183.1 170.4 161.7 158 154.6 143.8 129.1 135.7 136.5 135.9 135.8 142.2 141.8 140.8 139.9 141.2 141.4 138.1 135.3 134.1 132.4 130.1 127.7 125.7 122.9 120.3 118.5 116.2 113.1 112.2 111.4 103.3 88.5 85.8 94 83.8 84.2 79.5 78.2 78.6 79 79.9 80.1 80.3 80.5 80.5 80.6 80.8 81.4 84 85.3 87.9 93.6 101.5 112.4 116.6 122.7 120.6 118.2 121.5 129.4 132.4 133.5 133.5 132.7 135.3 137.4 137.6 139.6
219.3 222.8 227.5 230.3 246.2 260.8 273.1 284.4 293.1 300.7 305.4 306 305.2 313.1 313.6 309.2 295.3 282 266.9 252.3 239.8 231.8 231.2 233 234.4 239 218.4 193.6 182.7 194.4 222.9 223.6 218.3 206.4 201.9 197.1 189.5 186.6 182 172.1 166.8 158.5 156.4 156.3 158.4 165.4 169.7 174.8 184.6 193.7 196.4 193 182.9 160.2 138.8 139.4 141 141.4 141.1 145.5 158.5 163 167.4 176 184.4 190.2 193.3 193 194.3 194.1 192.9 187.2 180.7 171.3 163.1 160.8 162.2 161.7 159.8 159.1 164.3 168.2 172.2 177.4 183.5 190.1 192.2 195.6 196.4 199.4 199.3 197.5 192.6 185.6 179.2 178.7 173.4 169.1 165.8 161.6 154.4 143.4 132.7 127.5 122.5 115.4 108.9 105.9 103.1 99.2 95.5 91.2 88 82.5 80.8 79.8 79.3 79.2 79.3 71.5 85.7 94.3 100.1 106.5 115.5 126.7 144.5 170.2 189.6 194.9 192.7 183.3 172.2 163 157.8 154.8 144.9 123.3 127.6 131.6 131.4 129.5 131.5 133.5 136.2 136.3 138.8 138.7 136.8 134.4 131.7 129.5 127.5 125.5 121.8 119.4 116.8 114 111.1 108.6 107.1 106.1 99 90.4 95.7 81.9 82.5 77.1 78 78.7 78.8 79 79.4 79.6 79.9 80.1 80.2 80.3 80.4 80.9 82.7 85.2 87.5 94 105 113.9 122.1 125.2 125.3 128.5 135.6 140.3 139.5 138.9 138.4 137.8 141.5 144 144.8 148.1
216.6 220.8 226.3 235.2 249.2 264.8 277.9 289.4 300.1 306.9 310 312.6 324 321 307.4 297.7 286.5 272.9 259.3 248 238.4 240.5 241.9 242.7 245.1 247.6 228.8 201.4 179.6 188.7 207.6 199.3 193.9 193.9 190.6 184.8 179.9 175 163.4 155.2 144.3 140.8 139 147.2 151.8 156.6 165 175.2 186.1 192.2 192.3 186.4 175.7 151.7 134.7 137.1 138.3 140 145.8 154.7 161.5 166.8 176 184.5 189.9 192.8 195.4 197.4 199.3 197.9 193.3 188.9 184.2 173.4 165.2 163 162.6 162.6 159.4 159.5 163.4 168.2 173.7 180.3 193.5 202.5 204.5 210.7 211.5 216.6 215.4 207.7 202.2 197 193.6 192.3 185.6 184.9 181.3 171.8 158.8 147.8 137.2 128.8 123.8 117.3 110.7 106.7 104.2 100.5 97.3 94.4 91.1 83.7 80.5 79.7 79.4 79.4 79.5 70.8 82.5 91.1 99.1 106.8 113.5 124.4 139.7 168 188 193.5 192.7 183.7 175.9 167 159.2 155.1 146.2 122.9 117.8 123.7 124.9 123.8 124.9 128.7 131.2 133.2 136.2 137.2 137.2 133.8 131 128.3 125.6 123.2 119.7 117.3 114.8 112.1 109.5 105.3 101.9 101.6 97.9 95.3 89 80.4 78.5 77.4 78.5 79 79.2 78.6 78.9 79.4 79.7 79.9 79.9 80 80.1 80.8 82 85 90.5 99.3 110 122.6 129.6 129.6 131.7 139.2 144 146 145.8 142.8 142 142.5 147.6 149.4 150.9 154.8
214.6 220.1 226.8 240.9 254.7 269.2 283.6 295.4 305.2 311.7 318.3 331.5 323.6 309.8 298.4 287.2 277.9 269 257.6 252.1 252.5 251.8 253.6 253.9 252.5 248.2 237.1 213.8 189.6 175.7 185.5 186.1 184.5 182 179.3 174.3 169.2 159.7 147.6 150.4 145.1 138 133.7 137.8 143 154.4 165.5 174.8 183.3 185.4 183.2 177.9 168.6 137.4 134.3 135.2 136.2 145 155.1 159.9 167.5 175.2 183.3 189.3 192.9 194.2 195.9 198.6 198.2 195.8 194.5 193.3 184.6 175.8 167.9 165.4 163.5 161.2 158 160.2 164.7 170.1 177 187.1 201.8 210.9 216.7 221.5 223.2 227.3 225.9 220.4 214.4 205.7 202.9 201.8 197.4 194.2 186.8 174.1 163.7 154.6 142.5 130.4 124.8 119.9 115.4 109 105.7 101.9 98.7 94.8 90.9 80.4 80.4 79.6 79.3 79.3 79.4 70.4 80.1 86.1 94.3 103.9 111.3 120.7 135.4 161 184.2 192.4 192.8 186.3 177.4 168.5 159.6 156.5 146.3 132.3 111.6 113.4 120.6 119.8 121.3 125.1 127.9 131.2 133.2 136.3 137 134.5 131.7 129.1 124.7 121.4 117.7 115.6 113.4 110.9 107.8 103.9 100.6 98.7 95.7 93.8 91 79.8 77 77 77.8 78.3 79.2 78.9 79 79.4 79.5 79.6 79.8 79.7 80.1 80.5 83.6 87.3 97.3 107.6 127.1 139.1 140.2 141.8 146.9 154.1 151.8 153 151 151.1 147.4 147.1 150.4 155 159.3 162.9
214.9 219.9 230.5 244.6 257.5 272.7 287.2 297.6 304.6 319.4 326.6 318.3 306.9 298.1 289.4 281.1 276.4 270.8 264.8 262.9 264.7 264.1 259.4 255.8 249.5 236.4 222.4 202.5 185.6 175.5 170.7 174.2 174.3 170.8 167.4 164.2 158.8 148.4 157.3 166.3 158.1 137.6 133.5 129.5 135.3 150 163.1 173.5 181.1 179.9 176.8 169 153.6 134.2 133 133.1 137.5 147.4 152.9 166.3 174 181.3 187.1 191 193.3 195.5 197.4 197.7 198.5 198.7 199.5 198.5 192.3 181.4 171.5 167.4 164.8 161.6 161 162.4 167.1 172.3 180.3 191.5 203 216.5 226.1 228 230.3 230.6 228 227 223.5 217.9 214.9 209.2 203.7 198 186 173.3 166.3 156.3 142.4 132.1 126.1 122.1 119.5 115.3 108.8 97.6 96.5 93.6 87 79.4 79.3 79.2 79.2 78.9 78.8 70.6 77.9 80.4 90.1 99.2 110.1 117.9 133.3 159 175.9 184.5 187.4 182.3 175.6 169.1 159.1 152.9 143.3 134.4 122.7 106.1 113.7 116.3 118.1 121.2 123.6 128.9 134.4 137.9 138.1 137.2 134.8 130.8 125.2 118.7 115.3 113.3 110 108.3 106.2 102.4 98.7 96.9 92.5 89.5 85.5 79.9 76.4 76.9 77.3 77.9 78.7 79.2 79.1 79.1 79.2 79.3 79.5 79.8 80.2 81.2 85.3 93.6 106.3 123.5 146.2 153.8 156.3 159.5 163.7 168.8 170 166.7 163.4 159.5 155.5 154.2 156.1 159.2 163.8 168.5
215.4 221.5 234.3 248.7 263.4 277.2 288.1 297.3 310.3 325.8 316.5 306.7 298.7 292.6 287 281.9 278.2 274.8 273.6 273.7 269 261.2 253 244.4 230.8 215.2 200.1 190.3 185.9 176.1 164 165.7 164.1 161.8 159.4 153.4 149.6 159.8 170.9 172.2 164.1 142.8 134 128.9 129.7 143.5 159.9 170.7 177.3 176.6 169.6 162.1 149 131.7 131.3 132.6 137.1 149.8 162.4 172.1 179.2 183.9 188.8 192.3 196 197.9 200.1 200.6 202.7 204.5 205.6 203 197.9 187.8 174.6 170.7 167.9 165.2 164.5 164.1 168.2 172.8 182.5 194.8 205.9 215.8 223 225.8 228.3 227 225.8 224.8 222 223.5 221.2 213.8 204.7 195.4 180.9 171.3 165.6 154.1 138.9 131.1 126.2 122.9 120.5 118.4 115.9 101.2 95 90.1 82.7 79.1 79.3 79.1 78.8 78.9 79.1 71.3 76.8 79.4 82.8 92.9 107 116.7 128.2 149.4 164.1 177.2 182.1 179 173.8 162.6 155.4 151.3 141.9 135.3 126.4 107.4 108 113 115.9 118 122.5 131.3 136.7 138.6 141.4 140.1 139.7 137.6 130.5 118.4 113.1 110.2 107.1 104.6 103 100.6 96.9 94.5 93.9 92.8 82.5 77 76.6 77 76.8 77.5 78.3 78.4 78.7 79.1 79.2 79.3 79.4 79.3 79.7 80.4 87.1 98.6 116.6 142 157.2 165.4 167.8 171.8 177.4 181.2 182.3 181.6 177.7 171.2 163.9 160.2 161.8 165 168.2 174.3
214.4 222.9 235.7 250.6 265.8 278 288.4 303.9 317.3 314.8 308.2 303.4 297.7 292 288.8 287.7 292.3 285 279.4 271 261.8 252 239.8 225.9 208.2 202.3 195.9 188.2 182.4 176.5 166.9 162.1 157.8 156.6 154.1 158.3 164.5 174.6 177.4 176.7 173.3 162.9 140.8 127.3 124.2 132.9 150.4 167 171.6 168.9 159.7 151.2 139.2 127.1 129.5 137.2 149.5 159 168.2 176 182.5 186.6 191.1 194 195 197.8 201.7 203.9 206.2 207 205.6 202.6 196.2 187.5 177.1 173.5 171.2 169 167 165.7 168.6 173.6 183 194.9 204.9 214.3 220.4 222.6 222.9 222.9 220.2 219 217.3 216.8 212.1 207.6 201.1 189 179.3 168.9 160.6 148.2 136 131.5 126.5 122.5 120.4 118.3 115.7 108.2 95 90.3 85.5 78.7 78.5 78.5 78.6 78.4 77.9 73.3 76 78.4 79.1 86.2 101.5 112.4 123.6 137.9 157.1 170 174.9 169.6 165.1 155.8 154 149.9 141.6 134.9 124.8 104.5 105.9 108.6 110.9 115.8 123.4 132.9 140.4 143.3 144.4 144.2 145.6 141.4 130.2 119.6 111 107.7 104.3 101.2 99.2 96.8 93.9 92.1 92 89.3 82.1 79.4 75.3 74.5 74.1 76.3 77.7 77.6 78.3 79.1 79.2 79.2 79.1 78.7 78.7 81.7 93.9 113.8 132.8 156.7 170.7 178.8 179.1 184.7 188.8 191.7 193.2 193.5 190.5 181.4 173.7 169.3 170.1 169.6 172.6 179.6
212.3 221.2 235.3 250.2 263.5 276.3 291.7 309.9 311.7 306.5 303.3 299.7 297.6 299.1 299.3 298.2 292.5 282.4 269.9 257 247 231.5 218.5 209.3 204 197.7 189.6 181.8 176.9 172.6 166 162.1 159.1 160.2 162.2 166.9 177.3 182.3 181.6 180.7 178.4 173 154.2 129.1 123.4 125 141.6 156.5 159.6 154.6 147.2 138.9 127.4 128.1 134.2 144.2 156.6 166.1 173.4 177.9 183 187.8 190.8 193.7 196.7 200.6 202.8 204.2 205.1 204 201.3 198.9 194.5 186.4 180.4 176.5 173.2 170.5 167.3 166.1 168.6 173.7 184.5 196.1 207.7 215.6 219.7 220.9 218.3 215.5 214.8 213.2 210.8 208.3 206.3 201.3 192.3 184 173.9 165 155 144.7 136.9 131.5 126.9 122.3 118 114.3 111.6 106.2 95.5 90.2 85.9 78.4 77.6 77.7 77.8 77.9 76.9 74.8 75.3 78.4 78.5 82.2 93 105.1 115.9 133.3 148.9 159.1 162.9 163.9 160.5 154.4 154.6 148.7 139.3 130.9 114.7 99.4 104.1 106.5 110.8 115 127.3 135.9 141.7 144.8 146.5 148.7 142.9 136.5 126.3 115.5 111.5 107.2 102.3 97.4 95.9 94.7 87.7 87 88.1 84.1 80.3 78.4 75.7 76.3 75.2 76 77.6 77.8 78.4 79 79 78.8 78.6 78.6 80.4 92.2 112.6 134.8 156.7 170 177 183.6 187.7 193.6 197.5 200.1 200.6 200.3 195.6 188.1 182 179.5 178.6 177.5 179.8 184.2
207.4 217.8 231.7 245.4 257.4 273.2 295.3 304.4 305.6 305.5 305.8 306.7 308.6 308.5 305.7 292.4 279.8 265.1 252.9 242 226.6 220.3 213.4 209.1 205.2 193.9 184.7 177.6 173.4 169.4 165.3 164 166.3 169.5 173.2 176.9 182.6 183.4 184.6 184.7 182.4 177.8 154.5 130 120.2 122.8 135 146.8 147.2 142.1 132.7 126.3 127.1 133.2 143.3 152.9 163.8 172.4 177.8 181.6 186.6 189.3 190.8 194.9 198.6 201.1 203 203 202.3 200.6 198.5 195.9 191.6 187.2 183.6 180.6 178.3 176 173.4 167 170.3 179.3 190.6 201.4 210.5 216.4 218 215.1 211.5 210.6 208.4 205.2 202.3 200.7 198.1 191.2 185.7 177.8 168.1 160.3 152.7 143.2 136.4 131.3 127.8 120.7 114.1 110.1 107.7 104 98.3 91.2 85.7 79.1 77.2 77.4 77.5 77.5 76.6 75.2 74.7 77.2 77.9 79.2 86.6 96.5 110.1 125.9 141.2 151.8 161.4 163.8 159.7 156.6 152.7 142.2 134.6 122.4 107.5 98.4 102.6 106.7 110.1 117.4 128.5 136 141.6 146 148.7 146.2 139.5 130.5 121.2 112.3 109.3 104.8 100.7 95.6 93.6 92.6 84.8 82 82.2 79.4 78.7 76.9 76 75.6 74.8 75.9 77.6 78.1 78.7 78.8 78.6 78.4 78.2 78.8 89.4 110.7 133.5 157.4 169.2 178.1 183.3 186.9 192.3 197.5 205.3 207.9 206.6 204.7 196.6 189.5 185.7 184.6 183 181.7 182.8 186
204.5 214 225.3 237.3 252.6 274.7 299.1 304.2 311.4 314.6 316.2 314.6 316.3 310.3 296.4 275.4 263 251.5 233.9 226.7 221.3 216.2 211.2 206.2 200.9 194.1 186.7 177.7 172.8 168.1 169.8 170.5 173.9 176.2 175.5 168.7 174 182 185.6 186.7 184.2 178.3 156.6 129.7 120 121.3 127.7 136.4 136.5 128.9 123.5 126.9 133.5 143.6 153.4 162 172.2 177.1 181 185.2 187.4 188.6 190.4 193.6 197.9 200.7 199.4 198.8 197 197.3 197.9 197.9 194.5 189.1 184.9 182.9 181.5 179.6 176.4 169.6 174.4 184.7 194.4 204.5 210.9 212.4 213 211.3 206.8 202 198 194.6 191.5 190.4 187.5 184.7 177.9 169.7 161.6 156.2 149.7 143.3 137.8 131.9 125.9 118.8 110 106.3 105 102.8 98.2 90.1 83.9 79 77.3 77.1 77.2 77.1 76.3 75.1 70 75.9 77.5 78.9 83.8 94.2 105.1 116.1 134 151.4 160.4 161 158.4 155.2 148.9 138.6 129.1 118.7 106.5 95.8 100.6 104.4 108.6 120.5 129.2 136.3 142.2 147.2 148 141.5 134.3 125 115 110.3 105.8 101.3 98 94.9 92.3 90.5 86.7 79.8 78.8 78.6 77.3 76.4 75.8 75.6 75.6 75.3 77.4 78.2 77.9 78.2 78.3 78.1 78.7 85 105.9 131.2 153.4 168.5 177 185.7 189.7 191.7 197 207.2 214.3 214.2 212.5 208.5 198.5 187.5 185.2 183.8 182.8 182.8 182.6 183.1
202.4 212.6 225.8 239 251.8 271.7 297.7 315.5 321.1 322.8 320.2 318.1 312.6 301.8 284.2 266.8 249.7 235.6 229.4 224.5 219.4 214.5 209.7 205.4 200.8 194.7 186.2 179.4 172.7 177.1 178.2 178.6 180.1 182.4 176.2 168.3 166.1 171.7 179.5 184.6 182.5 177.4 162 135.3 121.7 118.9 123.1 126.9 125.8 122.4 126.8 133.9 145.5 153 164.6 171 174.4 178.8 182 181.6 183.4 185.6 189.8 194.6 197.5 195.7 194.1 193.2 194.3 198 199 198.6 194.8 190.1 187 185.6 182.9 179.4 172 172.2 176.9 188.2 196.8 204.2 207.8 207.7 207.5 204.8 197.6 187.6 184.3 179.5 178.4 180.1 178.6 174.2 168.4 162.1 155.5 150 145.8 141.3 135.7 127.2 120.4 114.5 106.2 103.1 100.1 98.7 95.3 87.4 81.7 79.7 78.1 77.1 77.1 77.2 76.3 74.8 74.1 73.9 76.6 77.7 78.2 98 112.7 126 134.5 146.4 155.8 158.7 157.1 152 143.8 132 123.6 116.3 106.5 93.1 99.4 104.6 114.6 124.4 132.3 139.1 142.7 145.3 144.4 138.1 126.5 116.8 109.2 106.8 104.4 101.2 95.5 92.7 89.9 87 85.9 81.1 78.7 77.9 77.1 76.4 75.7 75.1 74.6 75.7 77.6 76.5 77 77.4 77.8 78.5 79 98.8 124.4 150.3 166.4 175.5 184.2 189.5 192.8 196.9 204.9 215.8 219.4 217.3 214.4 208.4 198.7 188 181.1 180.8 179.7 179.9 180.4 180.4
200.9 215.2 228 242.5 254.1 268.5 286.2 301.6 311.7 319.6 316.3 314.2 306.7 293.4 276 252.9 240.3 235.3 230.8 225.4 219.2 214.4 209.9 205.9 201.6 194.6 186.5 180.5 183.3 182.7 181.7 185.8 186.8 179.5 175.6 169.1 162.8 160.3 167 174 175.8 171.5 160.6 144.8 123.7 118.1 119.6 120.2 121.5 127.4 138.5 144.3 153.7 162.7 167.4 171.4 174.4 177.2 177.1 175.7 180.5 185.8 191.6 192.4 190.2 188.8 187.7 188.1 194.5 196.7 198 196.7 194.9 192.4 188.9 184.4 181.5 175.9 172.6 176.7 185.5 189.4 196.1 201.6 203.8 201.4 200.4 195.9 187.4 175 169.4 164.1 164.8 168.9 168.5 164.6 160.1 156.3 151.4 148.6 143.6 135.5 127.8 121.3 114.5 109.8 103.6 98.5 92.6 90 87.8 85 80.2 79.7 79.9 77.1 76.3 76.1 75.1 74 73.5 70.3 74.9 77 78.7 92.9 112.8 127 139.2 149.4 156.6 157 154.8 147 140 124.7 116.8 111.2 98.9 90.5 98.5 107.3 117.8 124.7 133.7 139.7 139.2 137.2 133.6 130 119.6 109.5 104.8 102.4 101 98.2 94 91 87.6 84.8 83.6 80.6 79.1 77.5 75.5 75 74.3 73.9 75.3 77.2 76.9 76.7 77.3 77.4 78 79.1 91 117.8 145.2 157.6 171 180.2 188 191.7 195 202.3 210.8 217.8 219.3 217.8 214.4 207.4 197.1 184.7 177.2 176.3 176.1 176.5 177 177.7
204 216.4 230.3 244.4 256.9 266.5 277.7 283.9 286.6 290.9 300.3 299.7 298.7 279.5 257 245.6 239 234 230 224.8 220.1 215.7 210.8 206.7 202.1 196.2 187 190.4 190 189.1 191.6 193.9 188.3 180.9 176 168.1 160.7 156.7 154.8 161.1 161.1 161 154.2 142.2 122.6 116.9 119.5 122.5 127.4 137.6 147.4 157.2 164.2 166.7 167.4 168.2 171.9 171.8 169.4 171.5 178.5 182.6 182.9 182.2 179.1 178.5 180.4 186.5 191.6 192.2 194.6 196.3 196.5 192.7 184.8 179.8 177.6 169.9 174.1 181.9 185.6 192.8 194.4 199.7 197.8 193.2 190.6 185.8 176.4 166.5 160.3 157.5 156.6 158.7 159.3 159.5 155.3 151 147 142.2 135.3 127 120.9 114.2 110.1 105.7 99.3 90.1 85.3 84.5 84.6 82 80.9 80.4 79.5 78.4 78.4 76.3 74.4 73.4 73.1 73.1 69.1 76.5 77.9 79.8 109 122.1 132.6 142.7 148.8 151 148.9 142.5 135.1 121.1 109 104.5 92.4 89.2 103 111 117.4 123.9 135.9 135.9 132.2 129.1 125.4 118.9 112.9 106.2 102.4 99.6 97 95 92.2 89 86.3 83.6 82.9 79.6 78 77 76.1 73.8 73.9 75.2 76.5 76.6 76.4 77 77.6 77.8 80.5 90.4 111.5 135.4 150.7 163.5 172.7 182.2 189.1 191.5 197.1 205.4 211.8 215.9 218 216.4 212.7 203.4 195 179.1 173.1 170.6 171.3 172.9 171.2 173.8
204.7 216.3 230 244.3 256.4 263.2 272.4 274.9 273.6 278 285.6 297.7 283.4 258.3 248.2 242.2 237.9 233.2 228.3 223.4 218.8 215.3 211.1 207.3 202.4 194.8 197.6 200.6 199.9 201.4 205.8 196.6 190 185.6 178.5 166.1 157.9 153.2 153 152.6 152.6 153.9 147.7 135.2 119.4 118.4 125.2 127.2 135.6 147.8 156.3 160.6 165.8 166.2 163.4 162.2 163.9 163.1 165 167.7 166.7 166.3 168.6 169.1 166.8 171.6 177.2 182 184.5 184.8 186.3 189.3 189.9 180.7 171.5 169.5 167.8 171.3 175.7 182.5 194.9 204.8 198.7 196.2 189.6 184.5 183 178.3 170.5 164.5 158.4 154.2 151.2 152.2 154.1 153.3 150.4 145.2 138.8 132.7 124 118.1 113.7 109.6 105.6 101.7 93.1 86.1 84.8 85.8 86.8 85.3 83.5 82.7 78.4 83.6 85.3 76.5 74.6 73.8 73.6 73.3 72.5 73.8 76.9 78.2 94.3 110.3 121.8 131.9 138.6 143.8 143 137.2 128.4 110.9 101.2 95.7 89 90.3 107.4 114 119.1 125.1 131.6 131.2 129.5 123.8 116.5 113 108.2 103.4 100.6 97.8 95.3 93 89.7 87.1 84.4 81.9 79.4 77.5 76.4 76.4 76.2 73.5 74.7 74.4 75.3 76 76.2 76.9 77.6 80.5 89.9 105.7 125.6 147.7 155 164.6 171.6 178.3 183.6 188.8 195.5 204 210.2 214.7 214 212.9 209 200.1 189.9 175.7 169.4 167.9 169.1 168.5 168.9 170.3
204.7 216.7 230.3 244 253.1 260.4 268.4 272.6 272.7 277.2 295.4 283.8 262.8 250.1 244.2 239.6 234 229.6 226.2 222.3 217.8 213.7 210.7 206.6 205 205.1 206 209.7 215.3 217.6 208.2 200.4 192.9 182.5 169.1 160.9 155.3 152.7 151.3 150.5 148.2 147.1 140.9 133.3 116.3 120.3 126.3 131.1 142.9 152.5 161 166 168.4 165 154.8 153.1 153.2 152.4 155.1 153.5 152.7 151.2 154.3 157.1 162.8 167.2 171 173.2 172.1 173.2 176 175.9 169.8 165.1 166 166.7 168.7 175.7 185.4 199.8 204.9 199.9 194.4 190.8 186 178.4 175.5 170.7 166.4 163.9 157.9 153.5 148.6 149.5 149 146.4 141.9 136.8 129.7 124.3 119 112.4 107.9 104.7 102.3 97.4 89.5 87.1 89.5 90.5 90.8 90.1 88.1 84.9 81.7 88.1 90.5 76.9 74.5 74.1 73.8 73.2 72.6 69.5 75.3 76.8 83.4 99.1 112.3 123 129.8 133.4 132.9 129.7 117.2 100.7 89.4 86.9 85.7 102.9 109.4 113.4 117.2 124.8 130.1 130.3 126.9 116.1 111.3 109.2 104.8 101.7 98.9 96 93.6 90.7 87.8 85.1 82.9 81 77.3 76 76.3 76.2 76.4 77 73 74.8 74.9 75.5 75.6 76.6 79.7 88.9 102.4 117.2 140.8 149.9 158.1 167.5 173.5 176.8 180.8 187.1 193.7 199.8 207.7 208.5 207.8 206.5 201.7 193.6 183.4 172.1 166.2 165.1 165.5 166.2 167.1 170.4
210.3 217.8 225.7 240.5 252.1 258.6 263.2 269.8 273.7 292 285.1 265.5 255 249.5 242.7 236.3 232.6 228.2 224.7 221.5 216.8 213.4 212.8 212.4 212.2 211.6 216.8 222.6 225 217.3 209.4 198.4 182.6 167.9 159.8 156.5 153.5 150.8 149.6 146.9 143.7 141.8 135.8 126.7 118.5 116.1 123.5 135.1 148 159.5 166.7 166.6 167.3 156.6 140.9 142.2 141.2 142.2 140.7 141 141.1 143.4 146.2 150.3 155.3 159.2 160.9 160.3 160.8 162.2 164.6 161.7 161.1 162.1 164 167.1 173.6 184.9 198.6 202.9 199.6 192.7 189.9 185.2 176.8 171.6 169.1 167.9 164.4 162.3 158.6 154.1 148.5 146.4 144.3 141.3 136.9 129.6 123.5 117.4 113.2 109.3 103.9 100.9 98.7 92.1 87.6 90.9 93.6 95 94.6 94 91.4 85.7 86.7 90.5 92.3 85.1 74.6 74 73.4 72.8 72.7 70.8 73.5 75.9 80.6 96.5 106.7 116.5 123.8 126.3 125.3 116.1 98.7 88 82.8 86 96.7 101.2 100.5 109.9 117.7 127.6 129 125.3 117.3 110.6 107.9 105.2 102 99.3 97.1 94.3 91.5 88.6 86 84.4 82.1 80 77.2 75.5 75.8 76 76.4 72.8 72.8 73.6 74.3 75.1 75.2 76.9 84.3 100.3 111.4 129 143.2 152.9 162.7 170.4 175.1 178.3 180.2 185 191.7 198.1 200.7 200.1 198.8 197.6 195.2 189.7 180.4 167.6 163.2 162.9 163 163.6 166.1 171.7
218 227.6 239 251.3 260.1 265.2 270.3 276.2 290.9 286.9 273 260.8 254.1 246.9 240.1 236.1 232.3 226.9 224.5 220.3 220.7 219.3 217.7 216.9 217.8 224.8 226.6 228.3 224.6 214.4 202.1 181.6 169.5 164.1 159.8 157.8 155.4 152.1 148.8 145.4 141.7 134.2 129.7 124.6 119.5 113.8 117.3 132.3 150.3 160.8 163.5 163.1 153.9 136.8 131 131 132.3 133.7 134.6 135.6 137.2 139.9 142.6 145.8 147.7 149.5 151.8 153.3 153.6 155.4 155.8 158.4 161 163.8 166.8 174.1 185.1 195.8 200.2 198.6 194.3 186.5 182.5 179 170 166.1 164.8 164.7 162.4 160 156.9 154.1 150 146.1 141.3 136.2 130.6 124.3 120 115 110.5 107.6 102.4 98.3 94.9 90.7 90 93.7 95.7 96.8 96.3 92.9 88.1 82.5 87 89.6 90.7 86.7 78 73.8 73.1 73.1 73 72.4 72.6 74.3 76.8 89.8 101.4 110.1 116.4 115.4 104.7 94.9 88.9 81.2 82.6 88.7 92 95.6 105.3 113.6 122.5 124.4 123.4 119.2 114.3 110.1 106.5 102.8 99 96.5 94 92.1 89.2 86.9 84.2 82.7 81.6 79.1 76.2 75.8 75.7 75.8 72.4 72.9 73.6 73.9 74.2 74.9 75.2 77.2 90.9 106.5 123.7 135.7 146.7 156.2 164.2 170.7 176 178.2 180.2 183.2 189.1 192 191.4 191.2 188.5 189.4 186.2 181.7 173.2 164.8 160.7 159.9 159.8 160.7 165.5 172.4
222.7 234.8 246.6 256.1 264.4 267.1 273.7 289.1 292.2 280.9 268.7 260.4 252.7 244.2 240 236.2 232.7 229.1 228 226.2 225.1 222.9 224.6 226.2 229.6 230 230.4 228.4 220.3 204.8 186.7 173 168.4 166.3 162.9 160.3 157.8 154.5 151.1 147.8 142.5 137.3 132.8 127.9 122.3 118.7 111.5 112.3 137.7 153.9 155.7 147.7 135.3 124.4 124.7 125.8 127.4 129.2 131.2 133.2 136.4 138.4 139.8 141.4 143.2 145.1 148.3 151.2 154.1 155.5 157.3 158.8 163.5 169.8 175.1 186.3 194.4 198.3 197.6 194.5 188.2 180.8 176.5 170 165.2 163 161.2 161.3 158.7 156.2 152.4 150.7 147.8 141.7 137.2 131.5 127.3 122.5 116.6 113.5 110.2 107.2 104 100.7 98.6 93.5 93 95.1 96.6 95.5 91.1 86.7 84.5 84.9 85 86.4 86.3 82 80.8 76.8 73.7 73 72.9 72.9 71.4 74 73.9 78.9 90 95.7 96.5 88.8 86.8 86 81.6 79.8 81.8 87.4 89.9 100.9 112 118.6 122.4 123.1 123 121.6 120.7 117.5 111.3 103.5 97 94.3 91.8 89.5 87.4 85 82.9 81.9 80.8 78.8 75.3 75 75.7 71.9 72.6 73.4 73.9 74.2 74.5 74.8 75.3 76.9 90.6 112.4 130.5 147.8 156 161.7 167.5 171.6 176 178.2 180.9 183.8 188.2 183.1 179.3 181.5 182 183.6 179.9 174.9 170.9 164.8 157.5 155.7 155.5 158.3 163.3 172.1
224.6 237.4 248.3 257.9 263.6 267.9 274.6 291.1 291.1 279.5 269.3 261.4 252.2 245.6 241.7 238.1 234.7 232 232.2 229.3 232.9 236.8 232.4 233.3 235.5 236 232.9 225.5 205.9 186.9 175.8 171.7 170 167.5 164.3 161.4 159.8 160.3 164.2 158.6 151.3 145.5 137.9 131.2 126.1 124.1 118.7 111.4 120.4 143.2 138.8 128.6 119 117.5 119.4 121 123.6 126.2 129 131.7 135.5 137.6 139.5 140.8 143.4 146.5 150.3 153.3 156.2 158.1 162.1 168.4 177 181.7 188.8 193.2 197.4 197.9 193.4 186.9 179.8 174.7 169.3 164.6 162.8 161.2 159.1 156.3 153.7 150.7 148.1 145.4 141.7 138.6 132.9 127.8 124.7 121.3 115 111.9 109.4 107.4 105.1 102.9 99.9 96.4 96.2 96 91.3 88.8 96.1 92.4 87.1 86.2 85 83.9 83.4 84.6 88.3 86.6 75.3 72.8 72.4 72.8 69 73.2 73.3 73.3 71.9 74.4 73.6 73.5 74.8 77.9 77.3 80.6 84.5 88.5 94.6 103.8 112 117.5 120.6 123.5 126.4 127.3 127.6 123.5 116.2 107 95.5 92.3 89.7 87.5 85.8 83.6 82.4 81.5 80.2 75.7 75.2 75.4 74.2 72 72.6 73.4 73.8 74.1 74.5 74.8 75.5 77.3 98.8 120.8 145.1 158.3 163.7 167 169.8 172.9 176.4 179.7 183 184.8 186.2 171 167.8 172.3 176.9 176.8 170.8 166.8 168.5 163.8 155.9 151.9 152.5 154.3 160.7 168.6
222.1 235.6 246.7 257.3 263.4 272.3 282.3 295.7 289 276.8 270.2 262.9 255.7 250.9 246.5 242.5 239.6 239.7 241.6 243.3 238.5 236.3 239.9 242.3 241.6 239.6 228.7 205.5 191.5 181.1 177 173.2 171.1 168.8 165.7 163.7 169.8 177.2 179.4 176.1 170.9 160.5 148 133.2 128.8 125.9 120 112.1 111 126.7 121.6 113.9 114.6 117.4 119.6 122.3 123.3 127.3 130.3 133.6 136.9 139.3 141.8 143.2 145.6 148.9 153.2 158.2 161.4 165.8 172.2 178.4 185.9 192 195.4 196.7 197.4 195.1 187.1 181.6 173.2 168.4 164.5 160.8 160.1 159.1 157.1 153.8 150.9 147.6 144.6 141.4 135.3 130.8 128 124 120.7 117.8 114.5 112.1 109.8 107.5 105.2 102.1 99.7 98 96.7 90.1 96.4 98.1 96.9 93.8 89.1 88.7 88.1 86.8 86.1 88.6 88.5 82.9 76.2 73.5 72.9 72.8 68.2 72.5 73 73.4 73.4 72.6 72.2 72.6 73.1 74.1 74.9 82.1 86.5 91.6 99.3 105.4 111.6 116.2 122.3 129.5 133.6 130.4 127.1 122 113.8 102.5 93.6 90.3 88 85.9 83.3 82.5 80.8 79 76 74.9 74.9 73.9 71.5 72.1 72.6 73.3 73.7 74 74.3 74.6 75 78.4 102.8 130.6 151.7 161 165.4 171.1 174.8 175.9 177.5 181.1 182.4 183.5 167.7 157.9 159.2 164.8 169.9 168 163.1 163.3 165.3 161.8 154.7 149 149 152.1 155.5 165.3
221.6 235.5 247.9 257.4 267.7 279.4 293.5 289.2 279.7 275 271 265.4 258.9 255.7 251.9 250.1 253.4 251.8 247.6 243.8 244.4 244.4 246.7 248.3 248 237.1 212.3 192.1 184.9 180.8 178.2 175.5 173.7 171.1 172.2 181 188.4 192.1 192.6 187.9 184.7 174.1 154.1 133.4 126.4 123.8 117.9 109.9 115 113.5 110.1 111.8 116 118.2 120 123.3 126.2 129.1 132.6 136.4 139.6 143.2 147.1 149.8 151.8 160.2 168.2 171.6 173.1 175.5 181.5 187.2 193.3 197.9 199 198.6 196.4 191.4 182.5 176.9 169.8 164.3 160.9 158.3 156.6 155.3 154 151.1 148.3 145.7 140.2 137.8 133 126.9 123.7 121.1 118.8 115.6 113.7 111.6 109.1 106.9 105.5 103.5 99 97.6 93.5 95.4 98.3 99.7 98 95 92.2 92.5 91.6 89.9 88 88.6 85.7 78.3 75.3 72.2 72.3 72.4 67.4 71.5 72.3 72.7 72.3 71.8 71.8 72.2 72.7 73.3 75 82.9 88.2 93.5 101.5 109.2 116.1 123.7 129.2 132.5 130.6 126.2 122 115.3 106.2 96.6 91.1 88.6 86.4 83.6 80.4 79.3 77.5 74.2 74.3 74.5 73.9 73.3 70.8 72.1 72.7 73.2 73.6 73.9 74.2 74.6 75.3 82.7 106.5 130.6 145.1 157.3 165.3 171.4 174.8 175.7 178.8 181.5 181.6 171.7 155.9 146.4 150.5 160 163.4 161.9 159.2 159.6 161.5 159.5 154.6 144.7 142.2 146.3 149.2 160.1
222.3 236.3 248.4 258.1 271 289.7 295.1 289.2 283.5 277.4 270.3 266.1 263.9 263.7 263.8 265.3 261.7 254.4 254.9 253.6 251.4 251.2 253.8 253.5 243.8 222.9 199.6 189.5 184.5 183.3 181.9 178.5 178.1 184.5 192.2 198.8 203.2 204.4 200.9 199.6 194.3 182.3 156.4 134 122.5 120.3 114.2 107.5 109.3 107.6 107.9 112.9 116 118.8 120.5 123.9 127.7 130.8 134.8 139 145.4 151.8 154.9 162.5 169 179.2 183.3 184.2 184.1 188.1 192.1 193.4 197.8 199.9 200.5 199.7 195.6 185.9 179.2 173.8 170 163.6 159 156 154 152 150.1 147 144 141.8 136.3 133.6 131.1 124.4 121.4 119.3 117.4 114.8 112.5 109.8 108 105.8 104.3 101.6 96.5 93.3 95.7 98.1 100.2 101 99.1 96.6 95.7 96.1 95 93.1 90.7 87.7 82 76 75.1 71.9 72 72.1 66.9 70.9 72 72.1 71.8 71.7 71.5 72 72.5 72.7 76.9 84.7 94.2 101.4 109.3 116.7 124.7 129 129.2 127.8 124.4 118.8 115 108.4 99.6 92 89.6 85.6 85 81.1 78.5 75.6 73.9 73.6 73.8 73.6 72.9 71.5 70.9 71.6 72.5 73.3 73.4 73.6 73.7 73.1 76.4 95.7 117.1 134 144.7 150.3 156.7 164.6 171.4 176 179.1 180.3 174.3 159.9 144 140.9 146.1 155.7 157.4 156 154.6 154.7 154 152.5 148.5 131.2 135.4 140.1 144.9 154.3
222.2 234.6 246.5 257.8 271 290.7 298.4 293.3 289 284.6 280.5 279 277 273.4 268.8 266.9 265 263.4 260.3 258.1 257.3 258.3 258.8 253.4 238.6 210.9 193.7 188.8 189 185.7 183.5 189.9 197.3 202.6 205.9 211.1 211.1 208.9 209.4 205.2 192.1 172.6 150.9 135 124.5 119.1 113.1 107.1 105 103.9 107 112.2 115.9 118.8 121.7 125.5 128.6 132.9 138 148.2 159.5 164 165.4 175.3 185.7 190.8 192.2 190.7 192 193.8 195.7 196.5 199.4 202.2 203 202.2 194 183.7 177.5 172.3 168.5 163.6 158.1 154.4 152.1 149.6 147.7 143.9 141.2 138.3 132.7 129.5 127.4 123 120 117.6 115.2 113.1 110.1 108 106.3 104.5 100.7 97.5 94.1 95.8 97.3 99.2 100.6 100.4 99.4 99.9 100.4 100 98.7 96 91.7 86.3 78.9 75 71.2 71.2 71.3 71.5 69.8 70.8 71.7 71.8 71.7 71.5 71.4 71.6 72.2 72.7 75.2 85.5 97.4 107.6 116.6 124.9 126.4 124.9 122 119.4 114.9 110.8 106.5 100.1 92.8 90.5 88.3 85.6 82.7 78.9 76.8 74.5 73.2 73 72.3 71.8 71.6 71.1 71.3 72 72.7 73.1 73.3 73.3 73.3 75.1 84 112.2 135.4 153.8 163.1 165.4 168 170.8 170.8 176.1 180.7 177.5 159.8 147.1 136.9 137.9 142.4 149.4 149.6 147.4 145.5 145.4 145.4 143.9 130.5 127 129.2 134.2 140.5 151.5
217 229.5 242.9 258.9 270.5 280.7 288.4 295.9 294.4 289.9 285.7 279.4 274.5 270.3 265.8 263.5 262.9 262.6 261.7 264.3 262 261.3 259.5 248.9 227.1 204.9 193.4 192.7 192.2 191.6 197.5 205.2 210.9 215.3 217.9 217.3 219.4 216.4 210.1 193.8 177 159.4 143.8 133.9 126 119.6 114.3 109.2 106.8 104 103.3 110.7 115.6 118.7 123.1 127.7 134.4 139 149 160.9 169.6 176.7 178.2 184.2 193.5 199 198.5 196.8 199.4 201.1 200 200.6 206 208.6 208.6 203.5 194.5 184.7 177.2 172 166.9 160.9 154.9 152.8 150.2 147.7 145.9 141.6 136.9 133.9 130.6 128.4 124.8 122.7 119.7 116.7 114.5 112.5 109.9 107.8 106.3 104.7 101.4 96.1 93.8 95.5 97.1 99.2 101 101.9 103.2 104.6 102.7 101.2 99.4 95.8 92 87.1 79.5 74.2 70.7 70.6 70.5 69.7 69.7 70.5 71.3 71.6 71.5 71.4 71.2 71.2 71.8 76.8 86.5 96.5 105.4 116.8 123.3 122.2 120.8 118 114.6 111.5 107 102.4 98.9 94.2 90 88.1 85.5 83.1 80.1 76.9 74.2 72.7 72.6 72 70.9 70.5 71 71.4 71.8 72.2 72.6 73 73.3 73.2 73.3 78.5 96.8 124.8 155.2 171.6 181.5 186.9 184.8 182.1 179.5 180.9 180.6 165.5 143.5 134.5 131.4 130.9 143.1 142.9 139.5 136.1 136.5 138.7 137.8 128.7 116.7 119 123.4 128.9 138.8 148.8
204.6 219.3 236 257.6 268.3 277.9 282.7 284.8 284 280.2 277.2 273.5 268 260.4 255.4 257.1 260.2 260.6 262.7 261.7 256.9 253.7 247.3 236.2 219.7 199.5 196.1 196.6 196.9 206.2 211.3 219.8 224.5 225.9 225.6 226.7 223 212.8 196.4 178.6 161.4 148.2 140 133.8 129.2 123 117.6 111.9 107.8 104.6 101.7 109.5 114.7 120 126 132.1 140.2 149.1 158.1 169.1 178.2 187.3 194.3 196 201.1 203.9 205 203.9 203.9 207.7 209.6 212.2 215.4 214.9 210.5 205.3 197.7 185.1 180.3 179.7 173.6 160.9 153.5 150.8 149.4 146.8 144.1 140.4 133.8 130.8 129.6 126.2 124.1 122 120 117 113.9 112 110.3 108 106.4 104 100.4 97.8 95.9 96.7 96.8 100.1 102.1 104.8 106.5 107 104.4 101.7 98.2 94.6 90.9 87.3 79.3 70.9 70.8 71.1 71 65.7 69.6 70.4 71.1 71.3 71.2 71.1 71 70.9 72.3 82.7 96.6 102.9 110.3 116.7 117.2 113.9 111.7 109.7 105.8 103.7 100.3 97.1 94.1 90.5 87.8 85.2 82.3 80.7 78 74.7 73 72.2 71.6 71.3 70.6 70.7 71.1 71.5 71.9 71.9 72.4 72.8 73.2 73.5 74.8 88.9 114.8 145.3 169.5 185 193.4 192.6 191.1 184.7 185.9 182.2 171.5 151.6 134.2 125.4 125.1 125.1 133.8 130.5 129 125.9 127.2 130.1 126.4 117.8 109.5 114.2 118.1 124.1 133.7 142.2
187.5 200.6 217.3 235.7 254.2 268 274.3 276.2 274.5 269 261.8 256.7 251.3 245.4 245.5 248.5 249.5 253.3 253.5 249.7 243.6 242.3 238.5 231.7 216.9 206.4 213.6 215.8 215.7 223 230.2 233.9 234.4 235.4 234.9 231.3 212.6 196.7 180 162.5 150.2 144.1 139.3 134.9 131.3 126.4 120.7 115.1 107.9 104.5 100.5 107.9 114 119.1 126.3 134.4 146 156.3 165.4 174.9 187.5 197.8 204 203.8 204.1 210.3 211.8 211 210.6 218.4 220.6 221.1 220.8 218.8 212.8 207.4 202.6 200.7 195.7 192.1 177.9 164.7 153.8 149.8 147.9 146 141.8 136.9 131.7 128.9 126.6 125.1 123.2 120.6 119.1 116.9 114.4 112.2 110 108 105.3 102.1 99.5 99.8 101.1 100.3 99 100.4 103.4 104.5 104.6 105.4 104 101.2 97.8 94.2 90.2 86.3 76.4 70.8 70.7 70.9 70.5 64.9 70 70.3 70.8 71.5 71.1 70.9 70.7 70.4 74.9 90.8 98.7 105.5 109.8 111 107.6 105 102.2 102.4 100.9 98.4 95.6 93.1 90.7 88.8 86.1 81.5 82 79.8 74.8 72.4 71.5 71.3 70.6 70.5 70.5 70.8 71.2 71.6 71.8 71.7 72.1 72.7 73 73.6 79 105.3 132 160.1 183.9 191.2 193.8 195.7 190.8 186.4 186 176.3 160.8 142.9 128.4 118.1 116.2 116.4 116.9 116 117.7 116.2 116.9 116.9 116.1 107.6 105.6 109.3 112.8 117.4 124.3 132.5
166.4 181.7 196.4 211.1 226.7 249.3 262.8 260.3 254.3 247.9 239.5 233 230.3 227.3 230.8 231.7 234.5 238.1 237.6 236.7 236.1 237.4 237 233.6 226.7 224.1 232.9 232.3 234.1 241.3 243.7 244.5 244.6 242 238.8 217 197.4 180.4 165.5 154.5 146.9 142.7 139.2 135.7 131.4 126.2 120.5 113.7 108 104.4 100.4 107.5 114.5 119.7 125.3 135.5 149.4 164.2 175.1 185.8 194.9 201.5 206.4 207.9 209.7 214.6 214.3 215 219.8 225.2 224.8 224.4 223.1 220.7 217.4 214.3 216.8 211.5 198.9 189.7 176.3 166.1 155 149.4 146.8 145 140.8 137.1 132.9 128.2 125.8 123.6 120.7 119.3 118.2 116 113.4 112.2 110.5 107.8 103.6 103.4 103 105.5 105.8 104.9 102.9 101.6 101.9 101.2 101.3 101.8 102.6 100.5 97.2 93.6 89.8 86 74.5 70.3 70.5 70.6 69.6 64.7 69.9 70.1 70.4 71 70.7 70.4 70.1 70 78.2 95.5 99.7 102.6 105.1 102.7 101.1 100.3 99.2 97.8 96.5 93.8 92.1 90.2 88.4 86.2 80.8 82.2 80.2 77.1 72.7 71.7 70.7 69.8 69.8 70 70.5 70.9 71.3 71.7 71.7 71.6 71.7 72.3 72.8 74.2 91.6 122.4 146 173.6 188 192 196.2 193.8 185.2 182.6 178.7 166.1 150.6 135.6 122.2 112.5 105.3 103.7 103 102 103.1 104.4 103.1 104.4 106.5 96.9 99.1 104.7 107 109.7 114.9 118.2
155.4 166.7 177 190.1 205.4 227.9 239.9 235.9 228.3 223 216.5 215.3 208.1 208.2 213.6 216.5 221.7 223.2 224 224.6 228.8 233.6 237.3 239.9 239.2 237.1 248.1 252.3 253.3 257.4 255.9 254.1 251.7 244.1 223 203.1 180.7 166.7 156.4 152 147.7 143.5 140 135.6 131.3 125.4 117.5 110 106.1 103.2 99.2 105.8 114.9 119.5 126.3 138.5 157 177.7 193.5 199.4 207.4 209.5 210.8 212.8 218.3 219.8 219.6 222.3 226.4 226 224.3 223.7 223 221.8 219 218.6 220 213.6 204 191 178.4 168.2 155.1 150.4 148.8 146.7 143.9 140.3 138.9 126.9 124.3 123.1 121.2 117 115.5 114.6 112.4 110.9 109.3 104.7 101.9 105.9 108.5 110 110.1 109 106.8 103.7 100.4 98.3 97.7 98.2 99.7 99 96.1 91.3 88 85.2 75.4 70.6 69.5 69.2 68.6 69.2 69.8 69.8 69.8 69.8 69.4 69.3 69.3 69.6 82.4 92 94.2 97.4 99.3 99.6 96.8 96.4 94.3 93 92.2 92.6 90.2 88.2 86.4 80.5 82.2 81.1 77.5 73.7 71.2 70.8 69.6 68.5 68.8 71.1 70.7 71 71.4 71.7 71.6 71.5 71.3 71.9 73.9 79.4 104 130.6 156.3 180.9 192.1 196.2 196.5 186 179.3 175.6 166.9 154.8 140.7 126.5 112.6 105 98.9 94.2 92 93 96 97.8 97.1 97.5 94.3 92.7 97.1 99.6 100.8 105.2 108.3 111.4
154.2 161.4 168.8 174.5 185.9 205.5 213.8 211.6 202.5 200.9 196.3 192.9 188.9 193.6 198.2 203.6 208.5 212.3 212.8 217 224.5 234.3 241 244.4 249.2 254.6 261.9 266.2 266.7 265 262.2 258.2 249.5 226.6 205.4 183.6 168.8 160 155 150.1 146.6 143.1 139.1 133.9 128.3 119.8 112.7 112.5 107.3 103.9 98.8 107.3 115.9 120.7 128.9 142.2 165.9 192.4 206 210.8 214.4 217.4 219.8 223.6 224.6 222.5 221.9 227.2 225 221.4 220.9 221 221.1 220.7 217.6 217.5 217.2 209.6 199.5 192.6 184.5 171.2 158.1 156 157.5 155.3 152.1 148.6 142.1 126.3 120.2 120.2 117.1 114.8 113.3 111.9 110.2 109 106 105 107 109.6 112.7 114.2 113.1 111 108.7 106 102.5 98.7 95.2 94.5 97.4 97.5 93.4 89.7 86.7 84 77 70.8 69.8 68.7 66.9 69.4 69.6 69.5 69.5 69.4 69.3 68.4 68.5 68.7 78.4 83.5 88 92.1 90.7 92.2 91.3 90.8 88.7 87.5 88.5 88.9 89.7 82.2 85.7 82.4 79.4 78.2 75.4 72.5 70.8 70.4 70 68.6 69.9 70.5 71.1 71 71.5 71.6 71.5 71.3 71.2 71.5 76 91.4 114.6 138.2 165.5 188.4 196.1 195.7 190.4 180 173.5 162.6 152 140.7 129 116.8 104.4 98.3 92.7 88.4 87 86.1 87.6 90.2 89.5 88.7 88.3 89.2 89.5 91.8 96.7 101.5 103.7 105
153.7 158.9 160.9 163.5 171 184.6 189.5 183.7 181.1 177.6 175.8 177.3 179.7 183.7 187.9 191.5 196.3 200.9 207.4 217.4 230 240.8 250.3 256.6 261.5 265.8 270.6 270.6 268.6 269.7 264.2 250.1 229.7 207.1 185.3 169 162 155.6 150.2 146.8 143.4 139.4 135.4 130.9 122.6 118.6 120.1 117.1 110 103.6 98.8 106.6 117.3 123 131.7 147.2 173.2 197.6 209.3 214.6 219.3 224 225.4 227.5 222.2 221 223.1 221.5 216.3 213.7 214 215.4 218.3 217.5 211.4 211.1 207.1 201.2 196.1 191.7 182.8 171.2 166.8 167.4 164.5 161.6 157.4 149 141.3 126.8 117.8 115.2 114 111.3 110.2 109.7 109 108 106 107.3 110.4 113.5 116.1 116.4 114.5 112.1 109.2 106.3 103.3 100.4 97.4 94.8 95.3 94.6 90.6 87 83.1 80.8 77.8 70.3 69.6 69 64.7 69.2 69.3 69.3 69.1 68.7 68.9 69.1 69.3 69.1 70.5 73.7 80.1 85.5 85.5 85.4 84.2 83.2 81.3 84.3 85 78.7 85.4 84.5 82.3 79.9 77.9 75.9 72.8 71 70.5 70.1 68.5 69.3 69.9 70.3 70.7 71.1 71.6 71.5 71.3 71.3 71.4 72.9 81.4 103.2 122.8 148.6 174.8 188.5 191 186.1 175.1 164 155.9 147.4 135.9 126.9 115.2 102.9 93.9 89.2 86.6 85.1 85.1 85 85.2 86 85.9 86.1 86.8 87.3 86 87.7 88.5 94.1 95.5 95.3
149.4 151.4 155.5 157.1 160.5 166.7 167.6 165.8 165.6 164.8 168 170.8 174.7 179 182.5 187.4 191.3 196.6 208.5 222.8 238.4 251.2 259.2 266.6 270.7 272.5 271.3 269.8 269.6 262.5 246.7 229.1 211.3 187.8 171.6 163.3 156.9 152.2 147.1 142.8 138.9 134.4 130.4 125.5 124.8 125.8 125.8 123.1 113.5 104.9 99.4 101.2 115.9 124.4 132.2 149.6 170.4 195.9 212.1 220.6 226.7 229.2 230.9 225.6 219.6 215.5 212.9 208.7 205.8 204 203 209.1 212.4 208.9 202.7 201.3 199.6 197.5 193.7 187.5 179.1 175.9 172.5 169 166.5 166.2 158 149.4 139.5 127.3 118.2 113.5 112.3 109.7 108.8 108.7 108.4 108.4 108.9 109.8 112.1 115 117.5 117.6 114.4 111.9 109 106.1 103.3 100.5 98.3 95.8 92 90.1 84.6 83.4 82.2 78 76.7 72.4 69.6 68.9 64.9 69 68.5 68.7 68.3 68.3 68.9 69.5 69.5 69.6 68.6 69.3 71.9 77 78.4 77.6 78.1 77.4 77.6 81.8 83.5 84.5 84 83 80.6 77.7 75.8 74.2 71.2 70.1 68.2 68.9 69.8 70.1 70.5 70.9 71.1 71.3 71.5 71.9 71.8 71.7 71.7 75.3 93.4 113 137.9 159.5 176 182.4 180.3 168.5 158.3 146.6 139.5 130.7 122 112.6 101.3 91 87 84.1 83.8 84.5 84.7 85 84.9 84.7 85 85.1 85.7 85.3 85.6 85.6 85.8 85.8 88.3 88.3
139.9 141.4 145.3 152.7 156 158.6 157.5 157.2 158.2 164.6 169.7 173.8 177.1 180 183.4 188.1 195.4 204.9 216.4 233.2 247.8 259.7 268.7 272.9 272.1 269.8 268.9 263.6 254.5 243.2 223.3 208.1 191.5 174.1 165.2 159.7 156.6 153.4 146.4 138.8 136.1 134.6 132.5 132.6 131.5 130.4 130.3 125.1 116.9 110.9 102.7 99.5 117.1 125.3 134.1 148.2 175.2 198.4 214.6 227 230.3 230 226.8 219.4 212.6 205 198 196.1 196.5 195.3 196.6 203 203.8 197.8 195.3 195.8 195.3 193.1 188.6 181.5 177.5 175.5 171.3 168.5 166.7 161.4 155.3 146.8 135.8 124.1 116.5 111.9 110.3 109.5 109.6 110.1 109.6 110.5 111.5 112.6 113.2 114.9 116.9 116.6 114.2 111.8 108.8 105.9 102.9 100.7 98.4 94.7 91.8 92.2 91.7 89.9 85.7 82.9 79.1 75.9 73.9 72.4 67.1 64.4 68.3 68.5 68.8 68.7 68.9 69 69 69.1 68.5 68.8 68.3 70 71.6 73.4 73.8 76 79.7 81.3 83.6 84.2 83.4 82.5 78.3 73.5 72.6 72 70.4 68.7 70.3 70.2 70.2 70.4 70.6 70.8 71 71.2 71.4 71.8 72.2 72.3 72.2 83.2 104.9 125.9 154.5 168.3 171.1 172.9 164.1 149.6 140.8 131.8 125.2 116.9 106.7 100 93 86.2 83.2 82.9 83.3 84.2 84.6 84.7 83.8 85.5 85.5 84.3 83.9 86.7 89.4 90 90.6 90.1 86.3 88.3
135.8 134 135.7 147.6 151.2 152.9 151.2 152.6 159.1 165.1 170.3 174.3 177.4 184.9 189.9 200.1 214.4 226.1 236 245.6 259.9 268.9 269.7 269.5 267.9 268 263.1 254.3 235.7 218.1 203.8 185.5 174.6 167.7 162.5 159.8 155.2 149.8 147.6 146.5 143.6 141.1 138.6 139.1 139 137.4 133.6 123.4 116.8 112.6 107.9 98.6 114.9 123.7 140.9 158.3 180 200.4 218.8 227 227.2 224.9 219.8 210.7 197.8 189.2 186.6 187.1 187.4 188 192 195.1 193.6 189 189.9 190.7 189.4 186.5 179.1 173.2 172.4 170.1 167.2 164.7 160.4 156.4 151.4 142.6 131.3 119.7 114.6 112.2 110.9 109.6 110.7 111.6 111.9 112.7 113.5 113.8 113.9 115.1 116.2 116.1 113.8 111.5 109.3 105.5 102.9 100.8 99 97.2 96.9 96.7 96.5 94.3 91.1 88 83.9 77.7 74.9 73.1 68.2 64.6 68.5 68.6 69 69 68.7 68.6 68.6 68.6 68.6 68.9 69.1 69.2 73.4 71.3 72.7 75.3 80.9 83.6 84.6 83.1 81.5 77 72.3 71.1 70.7 69.7 68.8 70.2 70.3 70.2 70.2 70.4 70.6 70.7 70.9 71.1 71.3 71.7 72.1 72.5 73.7 95.9 119.9 144.8 157.2 164 164.8 155.2 148 142.5 133.5 125.4 113.9 106.5 100.1 95.4 87.2 83.5 83.3 83.4 83.5 83.6 82.8 83.5 88.7 93 94 94.4 95.3 96.4 96.5 98.2 98.7 98.6 97 89.9
152.1 136 132 136.2 147.9 148.9 150.1 156.4 160 165.3 176.2 184 192.4 203.2 214.3 221.1 237.7 245.1 253.3 257.9 261.2 263.5 264.6 266.9 270.1 265.5 256.2 238.8 214.3 195 182.9 175.3 169.6 165.4 162.8 160.2 159.2 153.7 154.2 151.7 148.9 147 149.7 150.2 150.7 146.7 132.6 121 115.5 110.3 106.1 97.3 114.2 127.7 151.5 165.6 188.8 207.5 218.9 221.9 218.5 214.6 209.3 198.2 181.4 174.7 175.5 177.6 179.9 179 184.5 187.5 186 184.6 185.7 184.9 181.8 176 168.4 164.9 167.2 166.4 163.3 159.6 156.1 153 146.8 137.9 124.6 120.4 116.1 114 111.7 111.1 113.3 114.9 114.6 115.7 116 116 116 116.4 116.8 116.1 113.4 110.8 108.5 106.5 104.2 102.3 99.8 98 97.3 96.5 96.4 96 94.2 89.5 84.2 78.3 76.4 74.4 69.7 63.9 68.1 68.5 69 69.2 68.7 68.3 68.3 68.5 68.7 68.4 68.6 73.2 70.1 71.7 74.7 79.7 83.7 85.8 82.9 80.7 77.2 70.3 69.4 70.1 68.9 67.3 69.4 70.1 70.3 70.3 70.2 70.4 70.5 70.7 70.8 71 71.2 71.6 72.1 72.5 88.9 110.4 133 149.5 158.5 161.5 158 148.5 139.5 134.3 126.5 116.8 105.6 101.3 96.6 89.8 82.6 81.7 81.9 83.5 83.5 84.2 84.7 92.3 94.4 96.9 98.3 99.3 100.2 100.1 100.8 103.2 107.3 108.8 103.6 101.9
160.7 137.8 131 138.1 151.2 153.6 158.1 163.3 173.4 187.5 202.7 214.4 222.2 233.7 247.5 252.7 253.6 259.2 263.6 266.4 266.7 266 266.5 270.2 266.1 258.4 245.1 218.5 194.2 184 178 172.1 168.4 165.7 163.9 162.2 160.3 160.1 160.1 157.5 156.2 160.4 160.1 160.1 156.8 143.5 129.3 118.9 112.1 107.7 101.2 98 121.2 146.7 163.6 179.6 197 207 214.6 215.1 209.2 204.9 197.2 183.1 167.7 163.8 167.7 171.3 173.6 177.5 178.9 179.9 179.7 179.8 179.1 176.5 170.8 163.8 160.1 158.5 163.8 163.9 161.8 153.8 150.8 147.8 141.7 129.8 124 120.2 117 115 115.1 115.1 117.9 118.5 118.7 120.9 119.7 119.2 119.1 118.8 117.6 116.3 113.6 111 109.1 107.1 105.7 103 100.7 99 96.2 93.8 92.1 91 89.4 86.7 81.9 79 79.6 74.8 69.6 63.7 67.3 68.1 68.6 68.6 68.4 68.1 68.2 69 68.7 68.2 72.6 67.2 68.6 73.1 78.9 85.8 87.4 82 78.7 76.8 69.1 67.9 68.3 67.2 68.3 68.6 68.8 69.7 70.3 70.3 70.3 70.3 70.5 70.7 70.8 71 71.5 71.7 72.1 74.1 99.9 122.7 141.8 156.2 164.8 159.2 148.8 138.2 130.4 121.8 115.5 107.2 99 94.9 91 85.7 81.3 81.7 81.7 81.9 83 84.6 91.9 95.2 97.7 101.2 102.5 104.1 105 105.8 110.5 113.3 116 115.5 113.7 113
158.7 133.6 128.3 149.1 159.7 166 171.4 183.9 199.4 214.6 227.3 236.7 243.8 250.5 256.6 261.2 265.4 268.8 271.8 272.7 268.9 267.3 267.3 266.5 258.2 249.2 221.6 195.5 187 180.3 176 171.8 169.2 167.7 166.1 163.9 162.2 163.5 164.7 166.4 167.7 167.5 166.8 159.1 151.5 137.9 126.6 117 109.1 100.1 94 112.9 133.1 151.6 173.2 191.4 197.3 204.8 207.2 202.4 197.4 194.2 183.9 170.4 158.2 155.1 161.2 164.2 167.2 169.8 171.3 172.4 171.6 172.3 170.4 166 160.3 154.5 154.1 158.5 161.2 159.3 154.5 149.2 145.5 141.7 135.1 125.7 121.7 120 117.8 116.7 117.4 118 122 128.5 131.1 130.9 128.7 124.7 123 121 119 116.5 114.2 112.2 110.6 108.4 106.4 104.4 102 99.5 96.9 94.9 93.3 91.3 88.5 85.8 81.5 78.9 79.4 75 69.1 63.3 67.6 67.9 68.2 68.5 68.5 68.6 68.8 69.3 68.7 69.3 67.4 67.3 67.6 77.6 86.7 91.3 88.3 78.1 76.3 71.6 67.8 68.4 68.4 68.8 68.9 69 69.1 69.4 70.2 70.3 70.3 70.3 70.5 70.6 70.8 71.3 71.6 71.5 71.5 84.7 104.9 127.7 148.1 160.3 162.8 157.9 145.4 130.9 122.7 112.8 108.6 101.7 96.2 92.9 87.6 81.1 79.5 80.4 81.4 81.7 84 91.2 95.2 98.8 101 104.8 107.4 109.4 115.8 121 125 128 128.5 128.7 127.6 127.8
161.9 136.5 132 149.6 165.9 182.5 190.5 204 216.1 226.8 236 244.3 251.1 257 263.1 268.3 271.8 274.5 278.4 277.6 273.7 270.9 268.6 263.6 251.7 229.7 201.5 191.9 185.3 179 175.5 173.1 171.3 169.7 168.1 163.5 166.1 170.2 174.9 175.8 177.1 173.4 164.6 154.7 147.8 137.7 125.5 114.7 108.3 98.7 108.2 123.7 139.4 159.3 179.8 189.5 193.6 196.8 195.7 190.5 188.3 180.4 168.9 157.3 147.4 148.7 151.6 156.1 159.3 161.4 163.8 164.7 164.9 163.3 161 156 149.7 150.9 153.4 159.5 160 158.4 152.4 146.3 139.1 138.9 130.8 125.7 123.2 120.4 118.2 119.5 120.7 124.9 131.2 138.7 144.3 144 141.7 137.9 129.1 124.3 120.7 118.4 116 113.7 112.1 109.6 107.6 106 105.1 103 100.5 98.1 94.9 93.5 91.3 85.9 80.1 78.2 76.8 72.4 69 63 67.2 67.7 68.1 68.2 68.3 68.6 68.8 68.5 68.2 67.6 67.3 67.4 70.3 87.1 92.3 90.6 86.2 73.7 70.5 68.7 67.4 68.1 68.4 67.5 69.2 69.4 69.5 69.6 70.1 70.2 70.3 70.3 70.4 70.6 71.1 71.2 71.3 71.3 73.2 93 114.1 133.5 147.6 158.4 161.8 157.5 144.6 127.6 113.6 106.5 102.5 97.5 93.4 90.8 85.1 79.5 79.3 80.4 81.1 80.4 87.4 94.3 98.5 101.8 109.1 114.3 119.1 125.8 133.9 141.8 146.2 151.4 146.8 145.9 142.5 146.6
156.6 134 132.1 150.7 162.5 175 191.2 200.4 211.9 226.9 238.2 247.2 254.1 262.1 266.7 273.5 276.1 277.4 279.2 280.2 276.1 275.4 270.3 265.4 249.1 221.5 196.7 190.1 184 181.4 178.2 175.5 173.9 172.1 170.9 170.9 178 186.4 185.3 186 178.1 168.4 157.1 148.9 142.1 133.6 125.5 115.7 104.4 90.7 115.1 134.5 144.9 167 173.7 177.8 184.2 185.6 184.5 181.6 175.2 162.7 152 145.1 138.8 139.2 143.5 150.8 154.1 155.3 156.3 157.4 157.9 156 152.8 147.4 147.5 151.1 155.4 159 160.7 159.1 156 151.3 149.3 142.1 130.2 126.3 123.4 120.7 120 122.4 126.6 132.3 139.1 147.4 153.8 154.4 155.3 151.2 140.2 130.6 126.7 121.6 119 116.7 113.7 111 108.7 107.2 105.9 104.2 103.2 99.5 96.1 94.6 90.6 84.6 80.8 78.1 74.9 68.8 67.8 62.8 67.1 67.6 67.9 68 68.1 68.1 68.4 68.4 72.6 67.5 67.3 67.2 71.8 87.8 87.7 85.1 75.6 72 68.3 68.2 67.5 67.9 69.1 69.5 69.3 69.4 69.6 69.8 69.9 70.1 70.2 70.3 70.4 70.7 70.8 70.9 71 71.4 76.4 100.7 123.8 138.5 156.6 164.7 160.8 152.6 137.2 121.6 108.5 102.4 97.5 92.9 89.8 87.8 83.5 78.6 79.6 80.9 80.1 84.3 90.3 97.3 106.6 114.3 120.8 128.2 133.1 141.8 149.6 156.1 166.1 159.7 155.9 154.8 162.6 168.8
148.9 126.7 133.8 148 155.4 165.4 181.8 191 204.6 218.7 232.4 244.1 256.2 264.4 273.5 277.8 278.9 279.4 279.9 277 275.9 275.3 268.3 257.5 240.6 215.7 195.5 190.5 186.6 184.1 181.3 178.8 177.1 177 181.2 188.7 193.8 197 197.5 188.4 174.2 158.1 149.9 146.6 139 130.7 122.7 110.4 105.5 91.7 115.9 133.1 141.3 148 150.4 161.1 173 174.6 174.1 169.2 159.2 146.8 139.5 132.5 129.6 133.2 140.6 146.2 150.6 150.9 149.5 149.7 151 147.9 145.6 143.8 147.1 151.8 155.5 160.4 161.2 160.5 158.8 155.9 150.2 140.7 131.1 125.9 123.6 121.1 121.9 123.5 129.9 139.9 147.6 154.7 163.4 167.4 169.1 168.5 158.4 147.9 137.3 130.9 124.2 118.8 113.8 109.7 106.4 104.3 103.8 104 104.3 100.7 96.8 95.2 90.5 85.3 82.6 79.9 73.4 68.9 67.5 63 67.1 67.5 67.7 67.8 67.9 67.9 68 67.9 67.4 67.5 67.3 69 77.3 85.9 78.3 72.8 70.7 69.5 67.6 68.3 68.2 68.4 69 69.3 69.4 69.4 69.6 69.7 69.9 70 70.1 70.3 70.4 70.5 70.6 70.7 70.9 72.8 83.2 102.5 127.1 146.5 161.3 163.3 156.5 143.6 128 113.7 104.3 98.9 93.5 87.6 84.2 81.6 80.4 79.7 80.3 81.3 82.1 86.9 92.1 103.4 115.8 124.6 130.1 137.1 146.8 156.5 164.6 178.2 169.1 163.8 163.3 173.4 179.5 184.6
143.9 125.4 129.3 143 153.2 162.4 172.1 182.9 196.8 211.8 226.2 240.8 252.9 263.4 271.9 277.6 281.6 282.4 277.2 274.5 272.9 268.9 261.9 251.2 234.8 210.9 197.4 192.5 189.2 186.3 182.5 184 187.1 192.9 198.6 202.3 208.9 205.2 196.2 174.4 161.8 154.8 149.3 146.4 142.5 134.4 124.3 117.6 109.3 91.7 103.6 119.3 125.4 127.4 130.3 139 151.3 156.3 159.5 152.9 143.1 132.5 125.2 122.7 126.2 131.5 138.4 144.3 147.8 146.2 143.7 143.3 143.3 142.4 141.7 141.8 146.4 152.1 158.6 163.1 162.4 161.2 158.8 155 148.7 138.5 129.8 125.4 123.3 124.1 126.2 127.8 135.8 148.4 158.3 169.2 176.6 182.2 188 186.1 181 172.9 163.5 152.5 139.9 127.9 116.6 108.4 104.7 102.6 102.7 103.5 103.9 101 97.5 93.8 90.2 86.1 82.8 79.3 76.1 70.1 70.5 63.1 66.6 67.5 67.5 67.6 67.7 67.8 67.9 71 67.5 67.3 68.1 69.3 77.9 73.6 70 69.5 68.2 68.4 68.4 68.2 68.3 68.7 69 69.2 69.2 69.4 69.6 69.7 69.8 69.9 70.1 70.2 70.3 70.3 70.4 70.5 70.7 75.1 93.6 111.7 131.3 145.7 157.4 158.6 151.2 134.4 119.5 107.9 100.7 94.1 86.2 81.8 79.8 79.2 79.2 79.3 81 81.4 84.6 91.7 102.9 113.7 124 132.4 139.6 146.8 155.1 167 174.9 172 166.3 169.4 175.7 186.7 191.3 196
144.2 126 125.4 139.5 153.1 160.2 166.9 177.6 190 206.3 222.3 235.6 248.8 259.8 267.3 273.1 278.7 275.9 271.2 267.4 267.6 263.2 257.5 247.2 232.2 214.3 202.3 197.3 190.9 191.2 190 201.7 207.6 210.2 213 215.7 211.8 203.5 183.3 169.3 161.4 155.9 152.4 149.3 145 136.4 131.2 124.3 113.7 99 89.6 97.3 105.2 114.7 118.7 121.8 131.9 137.5 139.4 135.7 127.5 120.4 116.2 117.9 124.5 129.9 136.7 141 141 138 137.7 136.9 137.5 138.2 137.6 141.9 148 155.3 162.4 162.7 162.3 159.8 157 152.7 146.2 136.6 131.2 126.1 124.8 127.2 129.3 132.1 140.5 155.3 171.1 183 191.1 198.2 206.2 206.2 198.1 187.5 180.5 171.7 157.9 144.4 124.3 109.1 104 101.3 101.5 102.6 102.6 99.1 97.5 94.4 91.3 86.6 83 80.7 78 72.6 69.2 63.2 66.4 67.4 67.5 67.6 67.7 67.8 67.6 67.4 67.9 67.8 68.7 69.2 70.5 70 69.8 69.2 68.2 68.4 68.4 66.8 68.1 68.5 68.8 68.9 69.2 69.4 69.5 69.6 69.8 69.9 70 70.1 70.2 70.2 70.3 70.3 71 84.6 103.4 117.3 133.6 145 155.3 155 141.8 128.2 115 105.1 95.7 85.7 79.3 79 77.6 78 76.4 80.8 82.3 86.5 91.1 101.8 117.5 127.2 132.1 137.9 143 149.5 158 165.1 168.6 162.4 169.1 176.2 187.7 196.2 201.2 205.9
140.7 122.5 124 136.8 150.2 157.5 161.7 171.6 186.8 200.7 217.2 232.4 244.7 255.2 262.3 265.9 264.3 263.5 261.3 261.5 261.1 260.1 254.7 245.5 233 219.8 210.1 201.4 204.9 211.6 219.3 223.6 225.7 223.5 225.7 218.9 206.9 189.8 174 167.1 162.5 158.2 155.8 153.5 149.9 146.7 143.8 135.4 124.7 113.1 103.2 89.3 87.1 90.9 107.8 108.6 116.9 123.2 120.9 116.1 112.6 109.3 109.4 114.9 123.4 130.9 135.7 138.7 134 130.7 131.2 132.5 130.3 134 136.4 141.8 152.2 158 160.2 159.8 158.9 157.5 156.8 152.7 146.6 139 133.2 133 129.3 131 134 139.3 151.9 166.8 179.5 192 201.7 206.6 205.8 200.4 193.4 186 176.6 171.6 157.7 143 121.9 110.8 104.5 100.9 100.8 101.7 100.7 97.7 95.2 93.6 90.7 87.1 83.4 81.3 78.9 73.9 67.6 63.1 66.7 67.5 67.6 67.6 67.7 67.8 67.8 67.5 67.9 68 68 68.4 68 68.4 69.7 69.3 68.3 68.1 68 67.1 67.6 68 68.6 68.9 69.1 69.4 69.5 69.6 69.7 69.8 70 70.1 70.2 70.5 71 71.1 77.7 96.6 110.5 121.2 134.9 145.5 151.5 143 133.8 120.8 111.4 101.7 89.6 78.4 78.1 76.5 79 80.5 82.5 88.5 85.9 90.4 101.6 115.9 131.1 128.3 133.1 138.5 142.2 149.4 154.3 157.2 158.5 160.1 170.3 181.7 192.4 200.7 204 205.3
138.8 124.7 122.6 133 143.4 151.4 157.2 169.4 184.1 199.2 215.4 228.3 239.6 250.5 257.2 257.8 254 255.2 252.8 257 258.4 256.5 254.3 247.4 235.6 227.4 217.6 214.7 224.2 233.6 238.6 240 236.7 234.5 227.6 213.2 192 178.8 171.8 167.7 164.5 162 159.2 158 161.5 167.3 162 151.1 136.6 124 115.7 105.8 95.4 85.6 88.3 98.3 100.8 100.8 101.1 100.6 101.3 102.2 106.4 113.1 121.7 129.8 137.4 139.3 127.9 126.8 125.1 124.7 128 129.6 133.1 140.1 148.1 153.9 154.1 152.9 153.7 156.8 157.6 153.3 149.1 143.2 137.7 136 134.6 135.8 142.2 146.8 162 171.8 183 195 206.5 205.1 199.8 187.9 184.9 176.9 168.4 163.3 151 129.9 120.2 111.6 104.5 101 100.4 100.7 99.4 98.1 95.4 92.4 89.2 86.2 83.7 80.8 77.9 74.8 68.5 63.2 67.2 67.5 67.5 67.6 67.7 67.8 67.4 67.5 67.8 67.9 67.8 67.7 67.6 67.6 68.7 69.1 68.7 68.5 68.1 67.4 67.4 67.9 68.5 68.8 69.1 69.3 69.5 69.6 69.7 69.8 70 70.2 70.3 70.3 70.6 71.7 90.1 107 113 123.5 134.6 139.3 134.2 126.8 122.6 115.4 104.6 94 85.1 77.1 79.1 80.8 84.3 86 88.3 93.3 92.1 100.6 118.3 124.4 123.4 125.7 131.8 134.7 138.7 144.7 149.7 153.7 156.5 159.2 169.4 181.2 192.5 201.6 202.6 195.8
139.4 124.2 120 124.8 135.1 146.3 154.8 167.9 182.4 195.6 210.4 223.5 234.7 241.7 245.6 245.1 242.4 244.9 246.9 251.6 254.3 254.4 254.7 251.2 243.7 236.8 233.9 237.7 244.7 248.9 249.2 246 242.6 235.3 219.4 201.3 182.2 176.9 173.3 170.2 168.3 166.2 167.6 174.8 189.7 189 181.7 169.3 153.6 137.5 124.5 113.8 101.7 91.3 84.7 89.5 88.3 88.1 91.4 95.3 96.6 99.8 105.2 114.1 127.5 136.8 139.9 131.1 123.8 124.1 122.2 120.7 124.1 125.5 132.8 138.7 140.4 146.1 148.3 149.2 148.6 151.3 150.4 149.2 147.6 142.1 136.5 136 137.7 142.2 151.8 161.8 172.5 178.6 186.9 195.8 204.8 203.3 196.8 185.2 174.2 168.1 163 157.2 147.9 136.7 125.7 110 102.2 98.8 98.7 99 98.3 97 94.9 91.7 89.5 86.3 82.1 80.1 76.5 71.1 65.4 67 67.4 67.4 67.4 67.6 67.8 67.8 67.4 67.5 67.6 67.8 67.7 67.7 67.7 67.8 68 69.2 69 68.8 68 67 67.8 67.9 68.5 68.8 69 69.3 69.5 69.6 69.7 69.9 70 70.2 70.3 70.4 70.4 77.2 105.9 111.5 117.6 121.5 129.5 126.3 117.5 113.1 111 104.9 93.1 83.6 77.7 79 79.9 84.7 87.1 88.7 92.1 96.6 98.3 104.8 115.9 117.8 121.4 126.1 133.5 137.7 140.9 147.3 152 153.8 157.3 160.2 168.8 180.5 189.4 199.7 195.7 186.5
142.6 131.1 118.8 119.7 124.4 139.2 150.7 160.8 175 189.9 204.6 216.4 226.4 232.3 233.5 234.7 233.7 237.4 243.4 246.8 249.9 252.8 253.6 252.8 251.4 250.6 250.4 254.1 255.3 253.9 250.9 247.6 248.4 242.2 220.9 191.5 182.5 176.7 175.5 174.7 174.2 176.2 185.6 203.3 210 207 198.5 189 169 148 132.7 118.7 106.1 89.9 84.4 82.7 82.2 83 88.7 90.4 93.2 100.1 110.3 127.4 139.5 143.9 135.8 123.1 120.2 120.8 120.6 119.2 119.8 123.6 129.9 134.8 136.5 141 142 143.4 142.7 145.8 145.7 145.5 143.2 137 137.5 140.5 144 149.8 163.4 171.8 178.5 184.5 187.6 194.3 197.3 190.1 186.5 178.3 167.4 162.7 156.8 148.8 141 134.6 115.1 107.7 101.1 97.6 96 95.8 96 94.6 92.4 90.4 88.4 85.8 82.8 78.3 73.9 69.4 63 66.3 67.6 67.2 67.4 67.7 67.9 68.3 67.6 67.6 67.6 67.7 67.7 67.7 67.7 67.8 68.1 68.8 68.8 67.9 65.7 67.7 68 68.2 68.4 68.7 69 69.3 69.4 69.6 69.9 69.8 70.1 70.3 70.4 70.5 70.9 90.3 108.6 115.4 118.3 118.3 121.2 115.8 109.1 102.3 99.3 91.3 79.4 77.3 76.7 77.6 80.2 84 86.5 88.4 95.3 99.6 103.9 107.3 114.3 121 127.8 133 137.2 141.2 145.5 153 158.9 159.9 161 164.4 168 176.6 189.9 192.4 186 176.7
146.2 136.8 125.8 117.2 123.6 140.7 148.2 156.4 167.4 184.6 200.6 210.2 218.2 220.6 222.3 224.6 230.2 234 237.9 241.6 245.4 250.5 253.6 255 257.4 258.3 260.4 262.1 257 252.3 252.4 258.8 254 244 216.9 194.2 186.2 183 184.5 187.2 190.3 198.1 213.3 227 228.9 223.2 216.6 202 177.2 152.9 136.6 123.6 105.8 95.8 86.6 83 80.6 80.3 84.5 88.6 94.4 104.7 122.7 139.7 148.5 143.7 129.4 116.4 115.7 116.8 118.4 114.3 115.6 119.5 119.7 123.1 128.8 132.2 133.4 138 139.9 139 141.9 140.3 136.3 137.9 142.8 145.9 150.6 156.5 172.7 178.6 181 180.8 180.5 184.8 182.9 179.2 174.5 164.6 158.8 152.9 146.7 137.8 126.9 117.3 110.7 104.8 99.6 96.7 94.1 92.9 93.1 91.6 89.8 87.7 84.6 83.1 81 77.8 73.7 66.2 64.9 66 66.4 66.7 66.8 66.9 67 67.4 67.5 67.5 67.6 67.6 67.7 67.7 67.8 67.8 68.3 68.9 68.4 67.4 67.4 67.5 67.8 68.1 68.4 68.7 69 69.3 69.7 69.9 70.2 70.2 70 70.3 70.6 71.2 76.3 90.3 102.6 110.9 114.1 110.1 106.5 102.6 95.1 92.6 86.8 78 76.6 74.8 76.1 77.6 80.4 83.4 86.1 89.5 93.7 101.9 108.2 113.5 118.2 121.2 126.8 132.1 136.9 146.2 155.6 171.7 173.1 172.2 170.3 175.6 184.4 190.9 193.2 185.6 177.8 168.5
146.8 141.7 132.1 117.8 130.5 145.8 151.7 158.7 167.4 178.5 196.2 204.8 209.7 211.8 212.7 220.2 226.6 229.6 232 237.1 243.7 249.1 253.3 258.6 261.8 263.9 266.7 263.5 253.5 255.2 263.1 260.3 254.8 245.6 215.6 198.3 194.2 197.2 204.7 209.9 212.9 227.9 244.2 245.6 244.7 238.2 227.4 207 182.3 159.8 142 125.3 109.1 98.2 90.4 84.3 81 79.1 80.7 87 95.6 109 134 153.2 153.4 144 128 109.7 110.3 110.9 114.8 110.2 117.5 111.6 112.1 118.2 120.6 123.6 127.1 131.4 131.4 131.4 131.2 130.9 133.5 142.7 147.1 148.3 151.9 161.2 172.4 179.2 178.6 176.1 175.8 174.8 173.8 170.2 161.8 155.4 150.5 141.2 133.8 128 118.9 111.9 107.3 102.2 98.6 95.4 91.8 91.2 89.8 88.3 87 84.1 81.7 80.3 78.7 76 69.6 62.5 66 66 66.4 66.5 66.2 66.2 66.6 67.2 67.3 67 66.9 67.4 67.6 67.7 67.8 67.8 68.4 68.7 68 67.3 66.9 67.7 67.9 68.2 68.5 68.7 69 69.5 69.9 70.2 70.4 70.5 70.2 70.2 70.9 73.9 88.8 97.3 101.9 107.9 114.7 100.5 96.3 89.9 85.6 86.1 76.8 75.9 75.2 75.3 78.1 78.6 83.1 85.4 89.6 95.2 100.4 111 117.6 119.4 120.4 125.3 131.9 138.2 145.5 159.6 177 184.9 183.9 183.7 187 192.1 200.5 201.9 193.2 176.5 171.3 165.9
147.7 144.4 138.1 126.3 120.7 149.8 152.9 159.5 167.8 178.8 192.6 199 202.5 203.1 209.3 217.1 222.6 225 229.8 235.9 241.8 246.5 254.2 260.9 265.1 267.6 266.9 257.2 260 267.8 267.1 261.4 257 245 222.9 210.2 215.2 225.5 232.8 233.5 246.6 260.9 263.9 257.4 256.4 245.7 229.8 210 182.6 163.6 147.7 132.4 115.8 103 96.1 87 82.1 78.9 79.2 90.5 99 111.4 139 158.6 152.1 139.5 123.2 108.1 104.1 105 107.7 106.8 108 105.5 109.5 115.4 116.1 116.2 123 125.2 122.8 119.5 127.2 134.8 136.1 138.9 140.2 143.9 157.9 166.1 172.3 175.9 175.5 172.8 170.8 171.4 167.4 158.7 151.4 147.8 141.4 135.8 130.1 122.5 116 109.1 105 101.3 97.3 93.4 91.8 88.3 87 85.4 84.4 82.1 79.8 78.2 76.6 73.9 63.8 66.1 65.6 65.3 66.4 66.3 65.6 65.9 66.5 66.8 66.4 66.1 66.7 67.2 67.4 67.5 67.7 67.9 68.4 68.4 67.7 67.1 67.4 67.8 68 68.2 68.5 68.8 69.2 69.6 70.1 70.4 70.7 70.8 70.6 70.3 70.6 78.1 93 101.1 104.2 112 99.4 93.7 86.7 78.1 79.5 76.5 75 73.8 74.9 75.4 78.9 81.9 87.1 90.7 95.9 104.6 111.3 118.6 124 126.6 127.4 132.3 139.8 145.9 159.8 176.1 187.1 191.2 191.4 196.6 205.6 216.1 218.4 209.5 193 177.2 170.7 165.1
150.2 147.6 143.4 130.9 116.6 124.9 147.5 158.4 166.7 178.8 187 190.1 191.4 197.1 207.4 215.1 219.8 223.5 228.1 233.8 241.7 248.8 257 263.1 267.7 266.1 263.4 265.8 274.5 275 269.4 260.7 254.7 240.5 229.9 229.2 242.2 247.2 246.7 254.3 266 271.4 271 265.3 256.5 246.9 233.4 214.9 191 172.4 157.8 142 121.9 109.5 106.9 96.8 87.8 78.6 79.4 92.1 100.6 114.7 141.6 152 143.9 128.6 108.3 99.1 96.8 97 97 98.6 97.9 101.9 106.6 113.1 110.4 112.6 116.1 116.9 120.2 127.3 128.8 130.1 133.1 141.8 147.2 153.3 162.2 170.2 172.7 173.5 173.4 169.2 163.1 159.8 156.2 148.6 144.2 142.1 138.8 132.7 123.9 116.8 112.3 106.7 102.9 98.8 95.9 93.2 91.9 89.4 86.3 82.1 80.7 79.2 78.5 76.2 74.6 69.4 64.6 65.8 66.1 66.2 66 65.9 65.4 65.9 66.1 65.9 65.6 65.9 66.5 67 67.2 67.4 67.5 67.1 68.3 68.3 68 67.6 67.7 67.9 68.2 68.4 68.4 68.9 69.4 69.8 70.2 70.6 70.9 71.1 70.9 70.8 71.5 73.9 91.3 104.3 108.8 96.2 89.1 77.1 74 73.3 72.7 74.7 74.9 78.2 79 80.7 86.7 89.8 93.3 98.6 105.1 111.9 118.8 125.9 133.9 134.9 135 140.7 146.9 159.3 173.3 184.7 192.9 196.7 202.2 209.6 219.6 228 225 213.9 197.9 185.6 180.6 174.8
152.3 151.8 152.2 151.8 119.1 116.6 130.3 155.2 163.2 174.7 179.4 182.2 187.1 197.5 206.8 212.6 217.3 221.6 227.5 234.3 243.1 251.8 259.1 262.8 267.3 265.5 269.2 276 277.8 273.1 265.2 256.8 249.6 243.4 244.6 250.9 251.3 251.7 256.6 263.9 272.3 277.8 273.8 268.1 257.6 251 238.2 223.9 200.1 187.6 169.8 150.7 129.3 119.7 117.9 103.2 92 77.6 85.8 93.1 101.3 117.2 138 143.4 129.6 110.2 98.5 94.8 94.1 93.1 96 89.7 90.6 93.5 95.9 96.3 99.6 104.9 107.1 109.4 115 123.3 122 125 138.7 146.6 152.9 159.6 168 173.1 173.9 173.6 171 165.6 158.4 152.7 146 142.9 140.1 138.3 133.2 124.8 119.5 114.2 108.2 104.1 100.8 97.8 95.1 93.2 91.1 87.7 85.7 81.7 77.5 77 76.4 74.4 72.1 62.7 65.1 65.7 66.3 66.7 66.1 65.3 66.6 66 65.4 65 65.2 65.7 66.3 66.8 67 67.2 67.3 67.3 67.5 67.8 67.5 67.2 68 67.9 68.1 67.6 68.2 68.7 69.3 69.9 70.4 70.8 71 71.2 71 71.5 71.5 73.7 95 107.9 96.5 85.4 75.3 73.9 73.6 73.9 75.4 78.1 79.8 87.5 89 89.9 91.5 94.2 99 106.1 112.7 119.2 125.8 133.8 141.8 145 148.2 152.2 158.4 168.2 182.3 193.3 199.5 204.7 212 219.7 230.2 232.4 228 219.2 209.1 201.7 194.1 186.6
151.6 151.2 152.2 154.2 149.8 121 118.1 152.3 160.4 166.5 172 177.1 186.3 196.2 204.6 209.4 213.5 218.8 227 236.7 245.7 253 258.8 266.9 266.5 267 275.6 274 271.2 264.1 255.7 253.2 251.4 252.1 253.7 253.8 253.2 255.5 259.2 268.8 277 275.3 272.6 268.4 261.6 254.1 240.9 226.2 211.2 195.8 178.5 157 140.2 133 118.5 105.5 95.3 78.1 87.1 92.7 100.3 114.1 134 129.3 116.8 100.8 91.4 90.5 91.4 89.9 87.8 87.2 88.6 88.9 90.6 96.7 99.5 101.4 104.3 108.9 113.3 117.1 126.6 137.7 146 151.7 159.8 167.3 171.8 173.4 173.2 171.9 168.2 160.4 153 145.7 141 138.2 135.8 131.6 127.3 120.8 116.3 111.6 104.8 99.7 97.5 94.7 93.8 92.1 89.1 85.5 83.3 80 76.1 74.7 74 72.5 67.2 64 64.8 65.4 66 66.7 65.7 65.3 65.7 65.3 64.8 64.9 65.1 65.6 66.1 66.6 66.9 67 67.1 67.1 67.2 67 67 67.1 67 67.8 66.8 67.4 68 68.5 69.1 69.7 70.2 70.4 70.5 71 71.4 72.3 71.7 74.8 93.3 93.9 77.4 72.5 72.5 73.1 72.7 80.7 82.7 86.2 88.4 90.9 93.2 94 94.9 98.4 105 111.9 118.1 126.1 134.9 140.5 149.5 155.8 159.1 163.5 171.5 181.3 196.9 205.6 209.2 213.6 220.6 227.7 232 230.9 225.5 217.5 212.6 209.9 205.2 198.5
149.6 148 147.6 148.4 130.3 112.8 117.4 145.4 155.9 161.7 167.4 175.1 185.1 196 201.5 206.7 210.1 215.7 225.4 235.6 245 255.1 261.7 264.6 261.9 270.2 269.7 266.6 259.6 249.1 249.7 250.9 250.6 250 248.9 249.1 251.7 255.9 261 270.8 273.5 272.4 273 267.9 258.8 250.8 237.1 221 213.3 199.7 184 163.7 147.5 130.3 114.6 104.5 95.7 77 86.4 91.3 97.3 110.7 125.3 119.5 102.2 89.9 87 86.2 88.7 88.2 87 87.9 98.7 107.4 117.2 120 123.3 122.8 124.1 124.7 128.4 137.8 144.8 149 154.1 160.3 166.9 170 172.4 172 170.8 169 164.1 156.1 147.9 142.1 138 133.3 130.6 126.8 122.6 117.5 114.8 108.3 102.4 95.4 94.1 93.6 92.5 90.4 87 85.6 81.9 78.5 72.8 72.6 71.7 69.5 62.2 64.9 64.9 64.9 65.2 65.5 65.7 65.4 65.1 64.8 65 65.2 65.3 65.4 66.2 66.6 66.7 66.8 66.9 66.9 67.3 67.1 66.9 66.4 65.4 67.2 67.1 67.5 67.9 68.4 69.1 69.7 69.7 69.9 69.9 70.6 71.4 72.2 72.4 76.9 86.1 72.3 71.7 71.6 72 72.7 75.5 79.2 83.5 88.5 92.6 95.5 96.9 98.2 100.4 104.2 110.9 117.2 125.7 132.9 139.3 146.9 155.5 162 168 173.7 183.2 198.2 207.6 211 214 218.7 225.8 232.1 235 230.9 222.9 219.3 218.4 213.9 208.3 204.9
147.6 145.6 143.7 141.9 119.6 111.3 126.7 146.3 153 160.5 167.8 176.7 188.5 197.6 204.1 209.3 206.8 210 221.3 234.2 246.8 252.4 254.2 255.7 260.7 262.6 260.4 252.9 245.2 245.7 245.2 244.2 241.4 239.6 237.8 243.2 247.7 253.1 262.6 269.9 270.7 272.5 270.4 262.7 255.7 242.5 231.9 221.9 211.9 200.4 186.5 165.7 148.3 128 111.3 103.3 91.8 75.6 83.9 88.7 93 105.1 115.5 106.4 91.7 85.7 83.9 83.4 84.1 85.3 87.8 101.2 124.4 137.4 144.2 144 142.1 140.8 139.5 137.3 139.4 141.2 147.4 152.8 161.3 165.3 169.1 171.2 168.7 166.1 166.4 162.9 156.5 149.5 143.6 138 133.2 130.2 123.1 120.4 116.9 114.1 108 103 98 90.6 90.3 91.7 90.8 89.1 86.5 84.1 80.4 76.9 71.5 70.4 69.7 66.8 60.7 64.6 64.8 65 65.1 65.3 65.7 65.5 65.2 65.1 65.3 65.4 65.5 65.5 66.3 66.3 66.4 66.7 66.8 66.7 66.9 67.2 66.4 66.1 64.5 66.8 66.1 66.6 67 67.8 68.2 68.7 69.2 69.2 69.3 69.7 70.5 71.2 72 72.3 71.8 71.4 70.6 71.3 73.2 76.4 81.1 85.9 87 90.6 94.8 98.8 99.8 102.9 105 109.4 115.9 123.3 131.1 138.2 145.1 152.6 158.6 165.9 174.6 184.2 194.3 209.1 212.9 216.1 218.8 225.5 232.8 236.1 232.9 226.4 220.8 219.5 217.8 212.4 208 205.6
145.5 142.4 140.5 139.2 109.1 120.1 138.7 145.5 152.9 162.7 172.8 182 191.5 203.4 212.8 211.5 200.2 198.7 215.9 230.3 240.1 242.8 244 249.1 253.4 251.6 245.3 240.3 240.1 238.8 235.3 230.8 227.9 224.8 229.7 233.3 238.7 248.7 260.9 264.6 268.8 268.8 264.8 256.3 250.4 237.3 228.1 220.9 212.1 200.9 182.3 163.4 141.3 124.7 111 95.7 83.6 74.8 79.9 83.8 88.2 97.1 100.8 97 87.3 82.6 81.2 81.1 82.2 87.1 96.6 126.3 146 159.5 167.2 169.3 165 158.6 154.2 147.7 146.7 148.6 153.2 160.6 168.2 172 173.4 171.9 166.8 163.7 160.6 155.3 148.9 143.5 138.8 133.7 127 123.3 118.1 113.8 111.1 106.7 100.8 97.2 92.4 88.2 88.2 89.9 90.3 88.3 86.1 83.3 79.6 75.1 71.6 68 64.4 64.4 61.2 64.2 64.7 64.6 64.7 65.2 65.7 65.6 65.4 65.3 65.5 65.5 65.5 65.5 65.9 65.9 66.2 66.3 66.5 66.1 65.3 67.5 66.1 63.4 63.8 65.4 65.2 65.4 66.2 66.3 67 67 67.1 69.1 69.3 68.7 68.5 70 70.5 70.9 70.5 72 74.4 77.2 77.6 80.2 84.6 88.5 92 93.8 98.6 99.7 101.2 105.3 108.7 115.7 123 128.9 138 144.6 149.5 157.3 163.7 172.3 183.9 194 206.2 213.7 217.2 220.1 224.4 230.2 233.4 229.9 223.6 219.6 218.9 217 212.7 207.8 204.7 204.6
145.1 141.1 131.1 129.4 109 121.9 136.8 145.1 153.7 164.6 176.9 187.7 200 210.2 211.6 202.4 190.4 190 203.1 217.7 225.5 231.1 234.8 239.1 240.9 236 232.8 231.4 230.2 224.6 221 217.9 214.9 216.8 222 224.1 228.8 243.1 250.7 256 259.3 261.8 258.4 252 246.4 235.5 225.3 219.2 210.2 197.6 179.7 162.4 138.2 119 106.3 93.2 81.4 74.4 75.1 81.5 83.3 87.3 91.2 90 83.1 80.5 79.1 78.9 83.4 94.1 117.6 144.6 170.7 184.5 188.5 186.8 183.9 180.2 175.1 165.2 156.8 160.9 165.1 173 175.9 177.1 174.9 170.3 164.5 161.3 153.8 148.7 143 138.2 134.9 129.5 124.5 119 112.2 108.9 105.1 100.9 97.7 93.5 90.3 87.1 86.4 89.8 89.6 87.8 84.6 81.1 76.4 72.5 68.2 64.2 64.4 63.5 64.2 64.8 65 65.1 64.6 65.2 65.7 65.7 65.6 65.5 65.5 65.5 65.5 65.5 65.5 66 66.7 72.6 66.7 63.8 63.8 65.2 66.2 65.7 66.4 66.1 66.3 67.1 66 64.9 65.8 67.2 68.3 69.2 69.3 69.7 69.6 68.8 71 69.8 73.6 76.2 77.3 80.9 82.1 84.3 89.4 91.1 98.5 99.1 101.7 102.3 102.4 107.1 113.4 122.7 130.6 137.2 142.7 148.5 157.2 165.1 173.4 183.3 191.5 203.2 210.6 215.5 219.5 222.2 226.6 229.7 226.9 221.5 211.6 207.5 210.2 206.9 202.4 202 198.3 193.3
143.1 139.6 133.3 118.4 108.2 122.1 136.6 147.1 156.9 168.7 179.3 194 203.2 206 196.5 188.4 182.1 179.2 189.8 203.4 211.8 219.3 223.6 226.9 227.5 228 224.2 211.1 210.5 205.6 204.3 204.3 206.8 212 215.8 214 224.2 235.6 245.4 254.9 257.5 259.1 256.5 251.4 242.2 231.2 224.8 215.6 208.3 195.2 175.9 155.8 130.6 115.6 101.1 88.4 80.5 75.4 72.6 76 78.5 81.6 85.7 83.6 79.8 78.5 78.6 78.9 95.1 113.1 140.8 169 190.2 202 203.9 205.9 204.7 200.9 195.4 187.4 178.8 174.2 182.9 182.8 179.5 175 171.6 166 160.5 153.2 147 144.2 139.8 134.7 131.4 128 122.7 117.7 110.9 105.9 103.2 98.9 95.2 92.9 90 85.6 84.9 88.6 88.9 86.8 83.2 78.1 72.3 69.5 65.1 64.1 64.8 60.1 64 65.2 64.9 64.3 64.8 65.1 65.4 65.6 65 65.3 65.3 65.3 65.3 65.3 65.3 65.1 65.4 64.5 64.2 65.1 64 64.6 65.9 65.6 66.2 67.3 67.1 67.4 68 68.7 67.6 69.1 71.4 76.4 78.5 79.2 79 80 78.9 80.6 81.8 80.5 80.1 85.2 87.9 85.4 94.3 98.1 101.9 104.1 105.5 106.9 109.2 114.3 118.5 130 137.7 143.1 147.6 154.8 164.3 173.3 182.1 191.4 198.9 204.9 211.2 215.3 217.9 222.7 229.1 229 225.7 217.4 203 197.4 196 194.2 189.1 187.1 183.3 177.7
139.2 138.1 129.9 120.9 107.1 122 136.6 147.9 158.1 169.9 183.5 193.9 198.3 196 183.7 176.6 172.5 170.4 174.8 193.6 200.8 204.2 209.2 216.6 220.7 220.5 212.3 198.5 193.6 193.5 195.6 197 202.6 210.4 209.7 202.5 212.7 228.2 240.6 250.5 256.7 256 252.7 245.8 234.4 227.3 221.5 212.8 202.6 190.1 172.5 145.9 122.5 114.1 99.9 88 81.3 75.7 73.1 72.7 75.7 77.2 78.4 78.8 78.3 79.8 85.8 93.9 112.3 137.8 168 189.9 207.9 215.2 218.6 222.8 223 220.6 213.9 206.3 199.4 192.6 190.9 185.2 176 169.7 162.1 158 151.8 145.8 143.7 139.6 136.8 134.6 131.7 127.8 120.9 116.2 111.6 107.7 101.6 97.4 93.8 91.6 86.7 84.4 81.9 83.2 86 84.2 81.1 75.3 69.5 65.1 63.4 64.1 63.9 60 64.2 64.9 64.5 64.8 64.6 64.9 65.2 65.5 65.3 65.1 65.1 65.1 65.1 65.1 65.1 64.9 65.5 64.5 64.5 65.1 65.1 65 65.4 65.5 66.4 68.2 69.4 70.2 71.1 69.8 71.9 71.2 73.7 77.8 80.6 81.6 82.5 84.5 84.3 84.4 85.7 86.7 82.7 86.7 91.9 88.9 95.3 102 105 107.8 110 113.1 117.4 122.6 128.3 133.5 142 147.4 152.1 160.9 169.8 177.7 187.4 196.8 202 205.7 209.5 213.7 217 225.3 232 229.2 226.2 220.4 206 194.3 190.6 189.2 181.8 173.8 167.1 161.9
133 126.5 123.5 116.6 105.6 111.6 132.9 146.4 155.9 166.4 177.4 187.4 185.5 174 169.5 166.8 165.9 164.8 167.8 179.5 187.1 193.1 201.3 210.2 208.5 204.9 199.3 191.8 189.3 188.5 189.9 195.4 203.9 212 204.7 194.6 206.7 223.4 237.1 249 248.6 249.2 244 237.4 230.5 227.6 220.7 210.2 197.7 179.9 159.3 135.1 120.4 109.5 96.4 85.6 79.3 75.2 72.4 70.8 72.7 74.1 75.2 76.4 79.5 85.2 94.8 109.5 129.5 153.1 179.6 203.3 217.2 225 231.7 235 235.8 235.8 229.6 222.9 214.4 202.8 193.4 182.1 172.7 160 155.5 151.4 148.2 143.8 140.8 137.5 134.7 132.5 130.4 125.5 122.6 118.5 113.5 108.3 100.8 96.4 93.1 90.8 86.2 83.9 80.9 79.5 81.3 79.8 77.9 69.6 65.6 62.9 63.3 63 62.4 64.2 64.5 64.6 64.2 64.4 64.5 64.6 64.9 65.1 64.7 64.8 64.8 64.8 64.8 64.8 64.8 64.8 65 63.3 64 64.6 64.8 64.8 64.8 65.7 68.3 70.3 71.8 73.1 73.7 73.8 72.5 74 78.7 80.5 82 83.4 84.3 86.6 88.1 87.9 88.3 89 87.5 87.6 93.3 93.4 96.7 103.3 107.1 109.8 113.4 116.8 124.3 129.5 134.1 140 145.4 151.1 159 166.9 174 180.6 189.4 195.7 198.7 202.7 206.9 212.1 220.2 229.2 230.3 229.2 227.5 223.1 212.6 197 189 182.8 176.5 169.8 162.6 156.3
138.1 129 119.4 108.8 105.5 103.1 120.1 138.6 148.7 157.5 167.6 170.9 166.6 167.1 163.2 162.5 163 161.3 163 169.1 177.1 186.3 198.8 205.1 201.8 195 190.8 188.1 185.7 183.9 185.6 193 203.7 206.9 193.4 188.6 198 214.5 230.8 240.4 240.7 240.2 237.9 233.6 230.4 226 222 207.3 195.7 177.9 149.1 131.3 116.4 105.4 93.9 86.2 81.6 77.6 73.4 71.5 71.3 72.5 74.2 76.6 84.3 93.3 106.5 122 142.3 162.5 188.7 212 223.4 231.2 237.7 242.3 243.8 242.5 239.8 235.1 219.5 201.4 189.1 178.2 164.5 156.3 152 148.8 145.4 142 139.1 136.4 133.7 131.4 128.9 125.1 121.2 115.8 112.2 107.1 100.6 95.9 92.3 89.6 87.2 85.3 83.7 79.1 77.3 74.8 69.8 63.4 63 63.2 63.3 62.6 59.9 63.6 63.8 64.1 64.6 65.1 65.1 64.7 64.5 64.7 64.4 64.5 64.6 64.6 64.6 64.6 64.6 64.6 64 63.3 63.7 64.1 64.6 64.5 64.5 69.4 70.9 72.8 74.2 75.6 76.4 76.9 75.7 74.4 78.1 82 84.1 84.9 85.7 87.7 90.2 91.7 91.1 92.9 92.2 90.5 94.4 97.9 100.6 104.2 107.5 112.1 116.3 122 127.7 134 139.4 143.1 146.9 152 159.5 167.7 175.7 184.8 190.6 193.5 196.7 200.9 207.8 215.7 224.1 227.4 229.4 228.8 227.3 223.9 217.1 209 193.4 186.2 179.9 170.4 163.1 155.4
149.6 135.1 126 110.3 101.4 101.9 115.3 126.3 138 147.2 154.2 156.5 159 160.7 158.8 159.1 159.7 158.5 159.5 163.3 171.7 186.7 197.2 200.9 198 192.8 187.4 184.3 182.8 179.7 181 185.6 193.9 192 190.2 184.7 191.7 206.3 222.2 233.6 235.9 236.2 233.2 229.4 224.3 220.8 216.1 207.5 193.8 169.5 143.2 129 117.2 106.8 96.2 89.3 85.3 80.5 77 72.3 70.2 70.9 75.1 81.7 90.9 101.5 118.2 139.5 155.7 174.5 195.5 214.6 224.9 234.3 239.5 239.4 239.9 242 238.9 224.5 208 196.4 188 176 158.6 153.1 149.7 147.7 144.6 141.3 138.9 135.9 133.4 131.6 129.2 125.8 121.3 116 110.7 105.5 100.2 95.3 91.8 88 84.8 85.9 83.5 79.3 71.5 70.8 64.8 62.6 62.7 63 62.8 60.5 63.8 63.6 63.8 63.9 64.4 64.6 64.9 64.5 64.1 64.1 64.2 64.3 64.4 64.4 64.4 64.4 64.4 64.4 63.8 63.3 64.4 64.4 66.6 68.7 70.9 77.1 77.1 77.5 79.3 80.4 79.7 79.6 78.5 77 79.3 83.4 85.8 87.1 87.7 89.3 91.5 94.4 95.1 97.3 98 95.4 94.8 101.4 104.7 107.2 109.7 113.5 118 122.8 128.9 136.1 142.2 148.5 151.1 156.2 160.6 166.7 172.8 184.3 186.8 185.9 193.3 199.7 208.1 215.2 220.7 224.3 227.5 227.8 226.8 223.4 220.6 216.9 213.4 205.2 188.5 180.9 170.8 159.9
170.7 155.7 142.3 118.4 98.3 107.1 114.3 122.7 130.3 137.3 145.4 150.8 153.1 154.5 153.9 154.1 154.9 155.6 158 163.2 175.5 188.8 196 198.7 197.5 192.3 185.1 181.4 179.5 177 176.6 178.7 182 185.3 183.8 180.4 185.7 199.1 216 227.6 230.9 229.7 226.5 222.4 218.6 217.3 213.5 204.5 191.3 162.1 140.2 127.6 118.3 106.5 97.1 90.4 85.8 81.8 78.8 74.1 69.5 70.6 78.6 84.6 95.3 112.1 130.3 147 163.8 181.2 202.1 214.8 229.7 238.8 241.1 241.1 236.3 228.4 220.2 212.3 205.8 194.9 182.4 170 155.6 150.6 147.5 145.2 142.3 140 138.8 135.2 133.9 131.7 129.7 127.8 122.3 117.5 111 105 99.2 91.7 90.4 88.1 81 80.7 80.6 70.8 68.8 67 62.2 62.2 62.4 62.4 61.9 62.2 63.8 63.9 63.7 63.8 63.6 63.9 64.4 64.1 63.8 63.8 63.9 64 64.1 64.1 64.1 64.1 64.2 64.1 63.5 63.4 63.7 64.4 72.3 81.3 85.3 87 89.4 92.5 87.1 84.8 84 82.9 82.3 81.1 79.8 84.1 87.3 88.9 89.7 90.7 93.8 98 100.1 101.6 102.7 102.4 102 104 107.2 110.1 114.8 118.1 121.6 124.2 130.2 138.2 144.3 151 155.2 159.4 164.6 168.1 173.1 179.1 184.9 188.4 190.8 197.3 205.6 211.9 217.3 222 225.1 225.9 225.5 224.2 223.5 223.2 219.4 215.2 210.2 194.6 185.7 173.6
193.1 170.9 147.2 120.2 98.2 101.3 110.5 120.7 125.6 133.7 140.5 146.1 147 148 149.6 150.4 151.5 154.1 157.6 166.1 178.8 187.5 193.7 197.6 199 194.5 182.7 178.3 176.4 173.5 171.5 173.6 176.4 178.4 177.5 176.6 179.8 193.2 208.4 222.3 227 222.3 219.5 217.1 216 214.2 207.7 199.2 184.9 155.3 136.8 125.4 117.1 104.3 96.7 90.9 87.8 84 80.1 75.1 69.6 71.4 76.6 85.4 102.4 119.2 138.9 154.5 171.6 188.2 203 216.5 236.6 241.2 241.1 235.8 227.5 220.3 213.7 207.2 200.8 189 171.7 160.7 153.8 149.6 144.7 143.1 141.8 140.1 137.2 133.7 131.4 129.5 124 121.4 119.4 118.9 111.7 106.2 100.1 92.3 89.1 84.2 84 79.1 70.2 69.6 67.7 64.1 61.6 61.7 61.8 62.2 60.4 63.5 63.8 63.5 63.4 63.5 63.1 63.2 63.7 63.5 63.4 63.5 63.6 63.7 63.9 63.9 63.9 64 64.1 63.8 63.4 63 62.8 72.2 86.3 95.4 103.3 104.7 109.2 108.8 107.8 100.5 93.2 86.7 86.5 86.1 83.4 83.9 89.2 91.4 92.7 94.7 96.7 99.2 101.5 103 105.4 107.2 107.7 110.9 111.3 114.6 119.2 122.7 128 129.9 130.7 136.2 144.4 151.9 158.3 164.8 169.5 173.2 180.8 183.6 187.6 190.5 193.2 197 200.7 207.4 213.5 219.4 221.6 223.8 224.5 225.3 226.1 225.4 222.7 218.9 213 207.7 194.7 177.8
204.1 189.2 156.2 120.8 96.1 98.6 102.6 115.8 122 129 135.3 139.1 140.4 142.4 145.6 148.1 149.5 151.2 156.5 167.9 174.7 182.4 193 198.7 200.3 194 183.3 175.1 172 169 167 168.2 171.2 172.1 171.9 170.1 174.2 187 202 213.2 219.2 214.5 213.6 211.2 211.7 208.7 201.2 196.2 178.8 147.7 134.7 124.5 116.5 105.6 98.1 94.6 89.2 84.6 79.9 75.2 69.8 70.5 76 84.5 99.6 119.7 144.3 158.1 174.7 187.6 204.3 219.4 237.5 243.8 236.1 228.4 223.7 215.7 209.1 203.5 198.9 178.9 166 157.2 152.3 149.7 146.7 145.3 143.2 139.5 136.9 134.3 130.2 133 128 126.6 123.4 119.5 114.6 109.9 104.8 98.3 87.5 79.2 80.2 74.2 72.7 70.3 67.2 61.4 61.3 61.3 61.7 59.6 63 63.5 63.5 63.6 63.2 63 63.1 63.4 63.4 63.3 63.2 63.2 63.3 63.5 63.6 63.6 63.7 63.8 63.9 63.2 64 62.5 72.4 92 109.9 116.7 119.4 120.4 122.6 124.7 122 116 105.3 94.6 90.3 88.8 87.7 84.8 90.8 94.6 97.3 99.1 100.7 101.1 102.5 105.9 109.3 111 111.3 115.3 116.7 119.4 124.1 128.4 131.3 134.6 138.7 141.4 143.3 149.2 154 161.9 167.8 177.3 185.4 189.3 192.9 194 193 195.2 198.2 203 211.4 215.5 219 223 225 227.5 227 224.7 221.4 216.6 213.2 209.3 189.2 172.8
209.1 194.2 164.2 122.8 95.7 97.1 100.8 112.2 118.1 124.2 129.2 132.7 134.3 136.7 137.8 143 146 148.7 153.2 159 167.6 179.3 190.8 198.8 196.3 191.2 181.5 170.9 165.4 164.3 161.4 163.4 165.7 167.2 168 164.9 170.2 184.3 194.6 203.5 205.9 208.8 213.4 208.2 207.8 204.6 198.7 189.8 167.1 143.9 132.7 125.3 117.1 111.3 104.2 101.8 91.1 83.7 78.9 74.2 70.5 68.8 74.7 81.5 92.1 112.4 140.7 161.9 173 184.5 203 214 231.3 237.3 225.8 223.1 215.1 208.3 204.1 202.4 193.5 175.1 164 156.8 152.7 151.3 149.9 147.4 144.9 140.6 137.8 135.6 133.5 133.5 131.1 128.2 124.9 119.8 113.5 109.8 103.5 96.6 90.3 85.5 84.5 76.4 71.6 69.4 66.6 61.4 61.1 60.6 59.3 62.7 63.1 63.2 63.5 63.8 63.6 63.4 63.4 63.3 63.2 63 62.9 62.9 63.1 63.2 63.3 63.4 63.5 63.6 62.9 62 71.3 89 104.2 116.9 123.4 127.1 127.8 130.2 135.4 131.6 129.8 126.4 111.8 97.6 94 92.4 90.8 89.1 91.8 97.1 100.1 101.9 103 104.2 104.6 108.6 112 113.7 115.5 119.2 122.5 124.9 133.1 138.3 141.5 146.4 152.2 160.3 163 161.6 158.5 159.5 167.7 178.5 188.6 194.5 198.1 197 196.7 197.3 198.1 200.2 205.1 210.8 217.7 222.7 225.3 226.8 224.8 219.5 216.3 212.1 206.5 191.6 176.1 159.3
200.6 181.2 163.3 132.5 93.8 95.6 96.8 105 114 119.2 122.6 127 130.7 130.2 133 138.8 142.1 144.8 147.2 154.1 166.7 179.8 189.5 194.7 191.6 183.4 168.2 160.8 157.1 157.7 157.4 159.4 161.2 163.3 163.8 161.7 170.5 179.9 186.9 192.5 196.2 200.2 204.4 202.5 202.5 198.4 191.8 179.7 166.3 144.9 130.5 126 121.5 116.5 113.8 109.9 101.9 83.8 78.9 72.9 66.9 67.7 71.8 77.7 86 105.9 135.4 160 170.4 180.8 198.7 214.7 229.1 230.1 220.6 214.3 209.4 205.1 203.5 205 195.7 178 165.2 157.2 154.5 153.7 150.9 148.2 146.6 143.4 140.4 139.2 136.7 134.6 132 128.5 126.5 116.7 110.7 107.4 100.1 97.6 94.1 91.8 86.7 77.5 74.6 68.7 66.4 61.2 59.8 60.1 62.5 62.9 62.9 63.1 63.3 63.2 62.9 63 63.2 63.1 63 62.8 62.6 62.6 62.8 62.9 62.7 62.5 62.7 63.4 65.4 81.4 101 108.8 117.8 126.7 130.6 134.8 138.6 142.3 144.5 138.8 136 129.8 116.3 102.7 99.8 96.2 94.8 93.4 90.4 97.5 102.3 104 105.6 107.2 108.1 112.6 115.5 118.2 120.4 123.2 127.2 133 140.5 145.6 151.4 159.6 167.4 173.5 178.5 181.1 179.4 175.2 176 184.5 193.4 200.7 204.7 205.8 204.6 204.6 202.6 202.7 205.3 211.4 218.6 223.4 225.3 225.3 219.2 211.8 207.4 201.6 191.9 177.6 164.9 157.2
183.3 167 153.8 140.7 121.7 93.8 95.5 100.1 110.4 114.5 118.2 123.7 124.5 127.9 130.5 134.9 138.9 140.3 146.6 156.9 170 180.9 188.8 187.5 179.6 168.8 156 149.9 149.5 152.5 154.3 156 157.8 159.4 159.2 160.3 168.8 175.4 179.4 184 188.6 192.1 193.9 196.3 195.4 189.9 182.8 170.7 160.2 147 133.5 127.7 126.8 128.3 131 130 111.3 91.7 79.6 75.2 68.8 67.5 68.4 74.5 84.7 99.5 133.8 156.8 168.5 175 196.6 217.2 224.6 220.9 215.4 207.9 205 204.1 205.1 206.1 191.7 177.2 165.6 159.1 155.9 154.9 152.5 150.9 149.6 145.1 143.1 140.3 138 136.1 132.5 126.5 120.9 112.6 109.8 110.2 105.8 101.4 96.1 90.3 85.7 83.4 78.4 69.2 61.1 59.1 61.6 61 62.4 62.8 61.6 62.4 63 62.7 62.4 62.5 62.9 62.9 62.8 62.6 62.4 62.2 62 61.9 61.7 61.4 61.5 63.1 73 91.8 104.4 117.9 127.4 132.8 137.9 142.9 147.2 148.5 148.5 145.1 137.7 128.4 121 113.5 109.9 102.9 99.2 97.7 94.1 98.6 104.3 106.5 108.5 111 112.8 116.4 119.5 122.4 125 127.6 132.3 140.6 147 154.1 162.6 171.2 180 186.8 191.4 197.1 198 185 186 192.5 200.2 206.8 210.7 212.7 213.7 213.8 213 215.6 216.2 215.9 221.5 224.7 225.6 221.3 214.9 207.4 198.2 191.6 181.9 173.6 171.3 154.4
165.1 155.9 146.6 133.1 124.6 112.9 92.5 97.8 107.9 111.7 114.9 119.7 119 124.3 128.6 131.9 135.5 139.5 149.7 160.1 172.9 181.1 183.3 177.8 167.9 157.8 146.2 145.2 145.7 147.1 150.4 152.4 154.3 153.8 153.8 159.9 167.3 169.3 172.9 176.9 181.3 183.5 185.4 187.6 186.7 179.9 173.2 168.8 159.5 148.8 140.6 140.1 144.5 148.7 146.6 136.3 122.1 95.4 84.4 78.1 71.8 66.6 66.6 70.3 82.1 104.8 132.9 147.4 163.7 171.5 191.1 203.8 210.3 210.9 208.7 206.5 204.8 206.7 205.7 200.1 188.8 177.9 169.6 164.9 158.9 157 155.5 153.9 152.7 147.3 143.5 141.8 140.5 135.4 129.4 123.3 116.6 113.7 115 116.5 107.6 104.3 97.4 92 86.5 82.5 75.9 65.8 58.8 60.9 58.7 60.3 62.2 62.2 62.4 62.6 62.6 62.5 62.3 62.3 62.5 62.7 62.6 62.4 62.3 62.2 61.3 61.2 61.1 61.4 63 69.3 87.9 101.9 113.9 125.3 133.2 138.1 142 147.3 150.3 152 152 148.8 142 133.9 127.8 121.2 117.2 109.7 104.5 101.7 99 99.7 105.4 109.1 111.5 113.6 116.4 119.7 122.9 126.1 129.3 132.7 137.4 144.9 154.5 162.3 171.6 180.9 190.7 197.3 203.5 212.9 207 192.6 193.6 201.5 209.6 212.8 215.4 218.7 220.1 220.5 219.6 221.3 222.4 223 224.3 225.6 222.9 218.5 220.1 219.4 216.4 210.9 199.6 184.5 162.7 149
152.3 147 137.9 127.7 118.8 106.3 93.2 90.9 103.4 109.4 111.7 114 114.8 119.8 125.8 130 135 143.8 153.7 162.3 173.2 179.2 181.6 177.8 155.1 140.8 139.3 140.5 141 142.3 145.3 148.6 148.4 148.3 152.8 158.7 163.6 166.2 166.8 171.6 177.8 179.9 179.5 178.1 179.3 172.3 169.2 163.9 157.1 151.2 150.6 152.3 155.6 156.9 151.7 139.8 119.6 100 90.4 82.8 76.8 70.5 64 72 83.3 97.6 108.6 127 151.2 180.8 192.8 204.4 209.7 216.9 212.9 209.4 207 205.5 201.1 195 190.7 182.7 178 172.7 167.1 165.1 162.5 159 154.7 148.6 145.9 142.8 140.2 133.6 128.4 123.4 116.2 117.3 117.2 112.8 106.4 104.4 99 93.7 87.4 77 69.2 58.2 60.9 59.2 60.1 62 61.9 62 62.2 62.3 62.3 62.3 62.1 62.1 62.3 62.4 62.5 62.4 62.3 62.1 62.6 61.1 60.9 63.3 69.9 91.1 103.4 110.6 121.9 130.9 138.7 143 146.3 149.9 152.7 155.1 156.1 154.5 147.2 138.4 132.3 126.5 121.9 114.5 108 105.5 104.2 99.2 106.7 111.3 114.4 115.8 117.9 121 125.7 128.9 132 135.6 139.8 147.9 159.3 170.2 180.1 190.2 200.1 206.7 217.4 221 211.9 201.8 205 211.1 216.9 219.8 221.5 223.5 224.3 223.9 223 224.4 224.9 223.7 224.6 223.9 221.3 222.8 223.3 220.5 218.7 216 195.9 172.1 150 155.1
141.9 138.9 134.7 127.2 118.8 107.8 93.1 90.1 96.9 106.9 108.8 108.4 112 118.4 124.5 127.6 134.8 144.1 155 163.3 172 179 183.1 178.9 153.8 135.4 135.4 135.2 137.8 139.8 141.9 145 146.1 148.5 152 156.1 158.2 156.6 159.4 166.3 173.2 174.5 173.8 172.5 170.6 166.4 163 157.9 154.8 154.1 154.9 158.6 161.7 160.8 152.6 134.3 116.7 107.6 101.8 93.6 81 73.8 66.9 70.9 83.1 90.8 99.6 122.1 153.5 179.7 194 205 214.2 218.7 216.6 209.6 205.9 201.9 198 194.2 191.1 188.4 181.5 178.9 173.8 171.6 169.6 167 160.1 152.3 147.7 144.2 140.2 134.5 125.8 119.1 114.3 116.2 113.4 106.3 106.3 106.6 95.4 88.6 77.2 68.2 61.1 58.6 60.6 58.7 61.7 61.7 61.7 61.9 61.9 61.9 61.9 62 61.9 61.9 62 62.2 62.3 62.3 62.2 62.1 61.1 62.2 70 82 90.2 100.9 110.1 119.1 128.8 137.6 143.5 146.9 150 153.4 155.8 160 162 159 150.7 142.2 136.9 129.9 124.8 118.4 112.9 110.2 107.6 105.4 113 117.2 116.4 117.7 119.5 122.7 130 134.3 135.6 137.6 143.1 150.9 161.8 175.2 187.5 196.7 207.1 218.9 229.3 226.1 217.6 214.1 216 218.7 223.7 225.7 226.1 225.9 225.6 224.3 223 223.8 224 223.8 222.9 221.2 222.5 224.8 224.6 219.8 217.4 207.5 183.9 159.5 152.3 160
137.1 135.6 132.9 125.5 117.8 106.4 92.5 88.8 100.9 104.8 103.9 109.2 113.6 116.8 119.6 123.9 132.8 143.8 153.2 162.5 171.5 178.2 181.1 172.6 147.4 134 132 130.9 135.4 137.3 138.3 141.5 144.2 146.7 148.8 150.8 150.6 150.1 155.9 162.2 168.1 168.7 168.4 168.2 165 162.8 156.1 150.5 150.1 152.9 157.6 164.6 165.9 159.9 147 131.5 119.1 113.4 108.4 100.7 89.7 79.6 69.4 69.6 78.6 88.7 99.2 117.7 145.6 172.3 187.9 199.9 208 209.9 208.4 201.5 197.9 192.7 191.5 188.5 189 188.7 183.3 179.1 176.2 174.9 172 171.4 163.8 157.4 152 147.9 140 133 118.1 108.8 108.9 107.4 99.2 97.1 104.5 98.6 84.1 74.5 62.9 61.7 60.2 58.7 60.1 61.4 61.2 61.4 61.5 61.6 61.6 61.6 61.6 61.6 61.6 61.7 61.8 61.9 62 62.1 62.1 62.4 62.3 62.3 79.5 89.1 98.3 106.5 115.4 125.8 135.8 143 145.9 149.6 153 156.8 161.8 165.2 165.5 161.5 153.5 147 140.8 133.2 125.4 118.9 115.7 113.2 109.8 107.9 115.4 117.6 116.7 120.8 126.3 132.6 141.8 146.2 145.3 144.9 147.1 152.7 165.3 178.3 192.3 204.9 218.2 227.7 231.8 225.1 221.1 220.2 223 225.7 228.3 227.7 227.7 226.4 225.2 222 221.5 221.3 221.4 221.1 220.6 222.2 223.1 223.5 220.3 216.9 212.7 191.3 168.5 153.7 159.3 163.8
131.6 130.1 127.8 123.7 114.4 105.6 92.9 88.2 94.7 100 103.8 107.4 111.4 112.7 114.1 120.1 129.8 140.2 151.7 162.6 168.9 173.3 172.5 166.2 137.7 129.5 126.8 130.3 132.8 133.9 134.6 138.4 139.7 142.4 143.2 143.9 143.3 146.5 152.6 159.7 163.6 164.8 166.7 165.7 162.3 155.7 149.8 145.2 146.3 152.1 162.8 164 159.2 150 139.8 128.9 121.9 116.5 112.5 104.1 94.9 84.7 70.8 67.5 74.8 86.6 98.4 111.2 132.2 160.7 178.5 190.8 195.6 196 192.4 190.5 183.6 176 175.9 178 181.2 181.4 180.8 181.9 178.9 179.7 176.6 175.8 171.4 161.3 154.2 143.1 134.1 122.2 113.7 97.3 95.5 92.9 83.9 92.5 94.4 81.5 64.7 61.8 61.7 61.7 60.2 58.4 58.2 60.2 60.8 61 61.3 61.4 61.4 61.4 61.5 61.5 61.5 61.6 61.6 61.8 62 62.1 62.1 62.3 62.1 62.1 84.4 94.1 102.7 111.6 121.1 129.3 138.8 144 146.8 151.6 156.7 162.2 166.9 168.8 168.2 163.4 154.5 149.7 142.3 131.6 123 119 117.2 115.2 111.3 109.2 111 115.2 118.2 126.9 136.5 146.7 154.1 157.7 160.8 160.2 160.8 164.4 169.4 181.9 198.6 212.4 225.8 230.3 227.6 223.4 221.8 221.4 224 227.9 227.1 226.4 225.2 223.9 220 218.8 217.1 217.2 218.1 218.7 220.1 221.6 220.4 219.2 217.2 214.7 200.1 180 159.7 157.6 162.7 174.5
128 126 125 119.2 113.5 105.3 93.7 85.6 87.8 94.1 100.6 104.1 107.7 110.1 108.7 117.6 126.8 140 150.6 158 163.2 166.1 164.5 157.2 132.4 127.2 123 125.6 130.1 130.3 131.7 133.3 135.5 138.2 139 139.7 140.2 142.6 149.5 156.3 159.1 161.7 164.9 163.1 154.4 147.3 144.5 142.3 143.3 150.3 154.7 153.4 148.5 142.1 135 130.1 122.7 120 115.2 107.6 99.1 89.5 78.3 65.9 67.8 80.7 94.4 102.1 120.5 144.9 162.6 172.2 182.1 180.4 174.1 167.5 160.4 161 165.1 172 173.6 171.7 175.5 179.6 181.7 181.6 181.1 181.4 162.8 155.3 141.9 131.2 120.7 109.7 102.7 93.8 78.2 75.1 74.6 76.7 71.2 61.3 60.7 60.4 60.5 62 61.8 60.7 58 60 60.5 60.9 61.2 61.1 61.2 61.3 61.3 61.3 61.4 61.6 61.6 61.6 62.2 62.3 61 62.2 61.7 72.4 86.8 101.6 109.9 116.1 123.9 131.1 138.3 144.2 148.8 155.8 161.5 164.9 168.3 170.8 170.8 163.9 155.4 145.8 134.7 127.3 121.7 120.2 118.1 116.5 110.7 112.5 114.1 116.9 122.3 133.5 145.5 154 160 165.4 168.7 171.8 174.2 176.3 179.9 189.8 206.4 220.6 229.7 226.1 222.1 220.4 221.8 223.8 224.6 224.7 224.2 222.7 221.2 217.3 215 214.5 213.5 215 216.4 216.3 217.3 217.4 217 216.7 214 210.8 190.9 168.2 160 162.6 175.8 189.8
