ncols 200
nrows 82
xllcorner 270000
yllcorner 240550
cellsize 50
185.3 182.4 185.9 192.1 197.7 205.1 213.6 222.8 233.1 241.7 245.8 250.7 261.7 271.3 288.1 297.8 306.4 316.4 324.5 328 331.7 334.6 336 336.1 336.3 336.9 337.6 339.1 339.6 343.8 349.8 357.6 373.5 389.6 402.4 414.8 424 430.4 436.1 439.3 442.5 442.4 441.6 439 436.6 433.4 431.3 429.7 429 429.7 431.4 436.1 439.8 440.9 441 436.4 430 424.2 417.1 412.9 410.2 412.1 416.8 423.7 430.6 433.8 437.3 439.3 439.3 439.3 439.3 438.8 438.3 437.5 435.5 432.7 428.2 423.6 418.9 415 410.7 405.6 404 403 401.2 400.1 400.8 400.7 399 399.6 399.7 399.5 396.8 393.6 392.1 392.5 392.9 393.1 392.1 391.1 398.6 399.6 400.6 403 404.5 405.4 405.5 401.8 400.1 398.7 396.7 392.4 390.3 389.1 384 381.4 376.4 371.6 366.7 362.8 359.3 354.7 342.3 310.3 291.2 280.6 274.4 258.5 244.2 217.3 205.4 198.1 183.4 163.8 147.5 130.6 121.1 115.9 114.5 115.1 115.2 115.4 119.4 123.7 128.3 131.3 135.1 136.8 137.8 138.6 139.9 135.8 139 148 152.8 160.6 167.9 176.9 182.2 187.2 187.8 188.3 186.6 187.5 187.9 183 188.1 189.1 196.9 204.2 214.8 220.9 227.7 235 241 249 259.4 276.6 300 323.3 341.3 355.8 381.1 405.9 410.8 412.2 415 423.1 434.2 441.6 442.6 440.4 438.4 434 431.5 428.5 423.4 416.9 406 394.6
182.6 186.3 192.3 198.7 207.3 217.8 224.7 241.4 252.6 264.8 273 279.5 289.4 298 305.8 312.1 316.6 320.9 324.1 326.7 325.8 325.2 324.6 323.9 323.6 324.4 325.3 324.8 329.2 334.5 347 362.9 379.9 394.9 404.5 416.2 425.1 431 436.3 440.4 440.7 439.8 438.8 437.9 435.5 432.1 428.2 426 427.6 429.2 432.4 436.2 440.2 440.7 439.6 433.9 426.9 419.2 413.1 409.2 409.2 411.1 416.6 423.2 430.7 434.3 438 439.1 438.7 438.6 437.9 436.9 436 434.2 432 429.1 424.8 420.3 415.4 410.4 405.9 401.8 398.6 396.8 395.8 399.1 400.1 399.3 396.6 397.7 397.6 397.2 394.9 392.3 391.8 392.2 392.3 392 392.1 391.1 398.5 399.5 400.5 401.4 401.6 401.8 401.7 400 398.2 396.9 394.6 392.1 390.2 389.5 387.4 384.9 380.4 375.7 370.9 367.1 363.5 357.2 352.2 345 330.7 316.2 299.8 269.4 244.2 217.4 200.8 186.7 173.2 161.1 152.5 133 127.5 122.5 120.2 118.4 117.6 116.5 114.4 118.4 119.2 125.3 128.2 130.3 135.5 136.2 136.3 132.2 144.9 152.8 161.1 171.7 182.3 197 207.5 212.9 213.7 212.3 209.3 208.3 205 198 194.7 198.3 207.1 215.5 225.5 227.5 231.2 238.6 246.5 254.3 268.3 285.3 307.1 327.4 344.8 362.3 392.6 406.9 409.7 408.5 413.8 424.2 434.1 440.6 437 434.2 431.4 427.5 425.1 422.5 416.3 403.1 393 390.1
188.6 195.5 201.7 208.9 219 226.5 239.5 257 269.4 280 290.1 295.7 301.7 307.3 311.4 313.9 316.7 317.9 317.9 316.7 314.7 313.1 312.9 313.2 313.2 313.5 311.7 318.8 324.3 335.6 355.6 371.9 387.1 398.5 408.1 416.2 424.2 432 434.6 437.9 439 438.1 437.1 435.9 433.9 430.1 424.9 422.1 425.5 429.9 433.6 437.4 438.9 439.4 434.7 429.7 423.2 415.6 410 408.8 409 410.3 416.6 425.3 430.8 434.5 438 439.3 438.1 437.5 436.8 435.7 433.9 431.8 428.6 425.6 421.6 417.5 413.5 409.7 402.3 399 396 392.1 390.6 392.2 393.2 391.9 391 392.6 390.8 390.9 391.3 390.1 389.6 390.7 390.8 390.5 390.5 390.8 398.5 399.5 400.3 401.1 401.2 400.2 399 397.8 396.4 394.4 392.1 389.8 389.2 389.5 389.1 387.8 384.6 379.9 375.1 371 364.3 358.7 356.5 354.4 350 337.4 302.8 270.6 240.6 213.7 191.6 170.5 153.9 144.6 139.8 131.6 127.1 123.6 122 119.6 118.8 117.3 115 116.1 117.1 118.4 120 128.6 129.2 130.4 130.8 138.4 147.8 159.6 171.8 185.5 199.3 210.6 225.8 238 240.5 237.5 233 230 227.5 221.9 217.1 217.1 219.6 228.7 235.9 240.2 242.9 246.5 254.8 259.8 277.5 295.2 315.5 337.3 355.7 375.8 400.2 401.7 400.8 404.7 415.2 425.9 433.7 434.9 431.1 427.9 425.2 419.6 415.2 412.5 407 387.3 379.8 389.2
197 205.9 212.4 219 227.7 242.7 258.8 267.5 278.8 288.6 297.3 302.8 306.5 309.3 311.7 311.4 311.2 308.4 306.6 304.6 303.2 303.7 303.3 302.9 308.1 310.1 318.4 329.1 338.7 352.4 361.6 378.4 392.7 402.2 409 418.3 425.8 428.7 431.5 435 437.4 437 436.2 434.2 431.4 428 422.4 419.5 424.5 430.4 433 435.7 435.6 433 428.2 423.2 416.9 410 407.2 408.7 409.2 412 419.6 427.9 431.6 434.6 437.1 439.1 437 436.5 435.4 433.6 431.8 429.8 426.4 423 419.3 416.3 413.7 410 404.6 400.9 396.2 392.3 389.4 388.9 389.5 386.1 384.9 384.9 384.3 384.3 384.1 383.7 384 385.2 386.9 389 389.2 390.8 398.4 399.2 399.8 399.3 398.6 397.6 396.4 395 393.3 391.6 390 388.6 389.2 390.5 390.1 388.8 385.8 381.9 377.9 372.9 367.9 362.2 358.8 357.3 351.3 333.7 300.1 268.4 235.3 208.9 183.9 164.8 157 150.6 142.6 136 130.3 125.1 121.3 121 120 118.3 114.7 113.3 116.5 117.5 118.9 119.7 123.9 123.9 132.1 141.6 151.5 166.3 181.6 197.7 211.6 224.1 238.6 255.5 265.7 270.4 263.3 258.7 256.9 247.9 240.6 238.9 243 246.5 252.1 255.6 260 258.9 261.6 268.2 285.9 303.9 324 341.8 358.8 389 401 396.2 395.5 404.3 416 425 430.4 427 424.2 421.6 418.9 413.4 407.6 402.7 390.6 379.1 379.6 389.6
204.8 214 223.1 233.1 245.4 260.3 265.7 273.6 283.1 292.5 299.4 302.8 305.1 307.9 308.2 304.8 301.4 296.6 294 291.6 291 294.2 300.9 304 314 322.4 334.3 346.4 355 364.5 375.8 391.5 397.8 405.4 409.9 418.8 421.5 424.3 429.3 433.1 437.3 436.8 434.1 431.6 428.9 425 419.7 417.9 422.9 427.5 430.6 432.1 429.3 425.9 421.6 416.7 410.8 404.6 400.8 409.2 411.5 416.5 422.7 429 432.3 434.3 435.8 437.4 436.1 434.5 433.6 431.7 429.8 427.7 424.2 420.7 418.4 415.7 413 410.3 406.6 401.8 397 393.8 390.1 387.8 384.1 380.8 380.1 379.2 379.5 376.7 376.3 376.9 378 379.2 381.9 384.4 388.8 391 397 397.1 396.8 395.8 395.4 394.8 393.4 392 389.6 387.3 386.4 384.6 385.3 387.4 387.9 386.8 383.5 380.9 377.1 372.2 366.8 362.5 358.1 353.3 345.2 329 293.8 258.5 226.9 206.5 182.7 176.7 165.4 152 144.7 139 132.7 126.3 119.7 118.8 120 119.5 116.7 113.3 115.7 116.9 118 118.8 121.6 124.2 131.3 142.1 152.5 171.9 190.2 206.3 221.1 233.4 246.9 265.1 279.8 289.5 294.8 290.4 280.6 276.2 269.4 262.9 267.6 271.9 278.6 281.7 281.1 277.3 276.8 283.8 297 312.6 331.7 350 367.7 395.3 391.4 387.2 393.7 405.7 416.7 424.2 423.4 418.8 416.7 414.3 409.8 404.5 398.9 389.3 377.2 377.2 380.6 390.4
213.8 224.4 235.9 245.7 254.4 263.8 269.5 278.6 287.8 293.6 296.4 299.6 301.8 304.9 302.7 298 290.4 283 284.1 289.6 293.1 301.5 309.3 317.5 327 338.3 352.3 365.8 376.8 386.1 391.2 395.1 398.5 405.9 411.5 415.2 417.8 421 429.2 434.6 438.3 437 431.6 428.9 426.4 422 415.6 409.9 415.7 423.3 425.3 424.3 421.7 417.4 414.3 409.2 401.8 400.4 403.6 409.1 414.1 419.7 425 430 431.9 433 433.7 434.5 434.9 433.4 431.7 429.9 427.3 424.5 421.3 418.8 416.8 415 412.9 410.2 406.8 402.5 397.8 394.6 391.1 388.3 385 381.2 380.8 380.1 377.9 370.3 370.3 371.2 372.6 375.3 379 380.4 385.3 389.2 393.2 394.2 393.6 392.4 392 391.6 390.4 388.3 385.9 383.5 382.1 381.2 381.7 383.1 383.9 383.8 381 380.9 376.5 372 366.5 359.3 355.3 343.3 332.5 325.8 292.7 252 219.6 201.8 194.5 188.2 169.7 154.9 145.1 138.8 132.5 128.1 118.8 117.2 118.7 120.4 118.4 112.9 115.4 116.6 117.8 119.1 120.9 122.7 129.3 141.1 153.2 173 193.9 210.5 225.9 237.9 254.3 271.9 288.9 299.5 313.3 316.7 304.6 301 294.7 286.7 290.1 293.7 299.8 303.9 299.7 291.9 291.4 297.3 304.4 317.8 337.8 353.9 380.8 388.5 378.6 383 393.9 406.3 415.5 420.4 416.4 412.3 410 407.4 402 393.4 383.8 376.2 371.1 374 383.4 391.4
217.9 228.9 239.9 246.6 255 265.3 272.9 281 284.9 287.7 291.2 295.8 299.7 301.2 298.3 287.8 280.9 281.6 291 299 306.8 316.3 325.9 336.4 347.4 359.7 374.5 386.9 395.8 395.5 395 397.8 401.1 407.3 411.3 411.8 415.5 420.4 428.6 433.1 435.3 432.9 430.1 426.6 423.7 419.3 415 410.6 409.8 417.7 417.8 415.3 412 408 404.5 402.3 399.9 401.9 405.3 410.6 415.5 421.1 427.4 430.8 430.8 431.6 432.4 432.9 432.5 431.3 429.6 427.2 424.3 421.5 419.2 417.3 415.3 413.5 411.7 410 406.3 402.6 398.6 395.4 392.6 389.4 386.3 383.2 382 380.3 376.9 370.6 369.4 370 369.8 369.4 372.6 377.3 381.2 385.3 389.3 391.2 390.1 389 388.6 388.2 386.8 384.5 382.2 379.8 377.5 377.4 378.6 379.6 380.4 380.5 379.6 378.6 374 369.7 365 358.7 352 327.9 304.3 285.8 273.8 241.5 216.4 211 211.4 193.6 174.8 155.8 144.1 137.1 133.1 130.8 120.4 117.7 118.3 119.5 119.1 112.6 114.1 116 116.6 117.5 118.7 123.1 130.7 139.8 151.7 173.7 189.5 207.8 225.1 242.7 261 279.1 294.8 307.4 313.3 310.4 296.6 298.9 304.8 308.8 308.8 312.8 311.2 311 302.3 296.1 298.1 302.7 308.9 322.6 337 355.1 376.6 371.9 372.1 381.7 393.9 406.2 411.8 413.3 409 406.1 403.2 399.2 391.8 380 375.3 370.4 369.2 375.2 383.6 390.7
222 231.1 240.3 247.3 256 262.7 268.4 272.3 277.5 281.5 288.2 294.2 300.3 300.5 291.1 280.5 278.2 288.6 301 312.8 324.1 334.9 346.2 356.7 365.4 379.1 390.2 396.4 401.1 400.2 399.3 401.1 403 406.1 408 409.1 412.8 419.3 425.1 430.4 431.9 428.1 423.2 422.5 421.6 417.2 412.7 407.9 401.3 407.9 406.5 404.2 401 397.6 393.9 394.4 400.4 403.8 407.2 411.3 416.9 422.2 428 430.8 430.8 430.8 431.2 430.8 429.7 428.1 426.4 424.3 421.7 418.9 417 415.4 413.7 412 410.4 408.7 406.7 403.7 400.8 397.8 395.1 391.5 387.9 384.7 381 379.3 376.5 372.5 370.4 369.1 368.5 368.5 368.7 373.1 376.7 381.2 385 385.2 385.2 386.1 386 385.8 384.2 380.5 377.2 375.1 373 373.9 375.6 376.8 378.5 379.3 377.8 375.4 370.7 366 362.1 354.8 344.6 310.1 280.1 257.8 240.3 228.3 221.3 226.3 219.8 195 179.8 159.4 146.1 139.9 133.8 131.8 125.6 118.2 117.5 118.8 119.1 112.4 113.3 114.6 115.9 117.2 118.6 122.2 127.2 136.5 148.5 166.3 184.8 203.3 219.8 238.7 256.3 276.7 292.8 298 296.7 290 284.4 286.3 296.6 302.6 306.5 311.7 310.6 305.5 296.6 292.4 295.4 300.1 308.2 320.2 333.8 353.1 353.7 356.6 366.5 380.7 393.4 404.5 408.7 405.5 402.3 398.7 395.1 388.3 380 372.1 368.7 366 368.6 375.6 383.8 388.7
219.2 226.1 236.1 244.7 249.2 254.5 259.6 263.6 269.7 276.5 286.1 292.4 294.8 294.6 283.8 272.3 284.7 298.7 313.4 328.2 340.8 353.2 363.5 373.2 378.6 390.1 396.4 402.1 402.7 403 403.9 404.9 404.5 405.4 406.3 407.5 410.5 415.6 420.3 424.9 422.9 419.9 419.5 420.2 420.6 416.9 410.1 402.4 392 397.3 396.3 392.1 388.6 385.1 388.9 396.5 401.8 405.6 409.1 412.4 417.4 422.8 428.5 430.8 430.8 430.8 428.7 426.9 425.7 423.3 421.3 419.6 417.8 415.2 414.2 413.1 413.4 412.8 411.1 409.7 408.6 406.3 403.5 400.8 397.7 394.5 389.8 385.9 384.7 382.6 381 380.2 379.1 375.7 371 369 360.5 365.2 370.5 375 378.3 379.8 382.1 383.5 383.7 383.1 381.7 378.2 374.4 370.8 369.1 369.8 371.6 374.4 376.1 377.7 376.1 373.3 369.6 365.9 359.8 354.4 350.6 333.5 306.4 289.9 266.7 246.7 242.1 244.1 237.7 215.3 198.6 182.3 160 146.3 138.1 133 128.6 119.1 117.6 118.3 118.8 118.2 112.2 114.1 115.6 117 118.5 119.2 123.2 129.5 141.3 154.2 174.4 193.1 209.3 224.6 243.8 265.6 276.7 279.6 274.4 269.7 263.7 268.3 274.1 281.7 292.6 296.9 296.8 295 290.4 284.9 287.6 296.6 305.6 314.9 326.2 334 341.1 350.8 364.3 378 393.9 401.5 402.3 400 396.9 392.3 384.8 377.8 371.6 367.2 363.9 361.3 366.8 376.1 382.5 385.6
215.7 221.9 226.9 232.7 239.3 245.9 250.9 257.9 268.4 277.6 285 288.7 290.7 287.6 275.6 271 291.1 307.8 324.7 340.8 354.9 367.1 375.3 384.5 391.1 395.1 400.8 404.3 404.5 406.3 406.4 406.3 405.2 405.2 406.1 407 408.2 408.5 411.6 415 414 415 417.6 419.9 418.4 413.1 406 397.6 389.6 388.5 386.7 382.6 379.6 382.4 391 396.9 401.9 405.3 407.7 412 417.6 423 427.9 430.2 430.4 430.4 426.5 422.9 421.3 418.5 416.4 414.5 412.4 410.7 412.4 411.6 413.5 413.8 412.6 411.4 410.3 409 406.2 403.6 400.7 393.6 390.3 391.2 391.2 391.1 389.9 389.1 386.7 384.4 381.9 378.2 362.6 360.4 361 368 371.5 374.3 377.7 380.6 381.3 380.2 378.8 375.9 372.7 369.5 363.7 367.7 370.3 372.4 374.1 376 375.1 371.5 369.5 364.5 358.4 355.6 347.9 339.3 325.8 316.4 299.2 276.9 272.3 272.1 261.3 243.6 222.2 201.1 181.2 154.8 142.6 136.5 131 123.2 118.3 119 118.7 117.8 114.8 111.3 115 116.3 116.8 117.4 118 121.1 131.6 146.8 161.2 180.6 194.3 208.8 226.5 243.7 250.7 251.1 243 235.2 236.9 242.7 249.4 258 267.6 279.2 282.5 282.4 280.5 271.3 279.5 288.1 297.1 303.8 312 319 328.3 345.9 360.6 378.7 395 400.3 399.6 398.4 394.1 386.7 377 369.7 366.4 363.8 360.9 359.1 365.9 375 380 378.6
212.2 217 222.9 228.9 235.7 242.9 249.4 258.4 267.5 275.3 281.2 284.7 286.9 279.6 264.4 275.2 295.8 316.1 333 350 364.8 374.4 383.3 390.6 395.7 399.4 403.1 404.8 406.3 408.2 407.6 407.7 407.6 406.2 404.6 402.8 402.5 402.2 403.3 406 409.4 412 414.6 416.5 415.2 408.9 401.3 392.6 383.7 374.5 375.7 378.5 380.2 384.6 391.4 396.9 402 404.5 406.8 409.2 415.8 422.2 425.9 428.7 429.1 428.8 424.8 420.7 416.5 413.8 411.5 409.4 409.7 410.2 410.5 412.4 415.2 415.9 414.6 413.3 412.1 410.8 408.8 404.9 400.8 397.8 398.6 398.6 398.5 398.4 398.2 397 393.4 390.8 389 382.9 370.4 355.8 352.7 362.1 364.7 367.1 370.4 373.3 375.6 376.4 375.2 373.5 370.5 365 361 364.5 370.2 371.1 372.3 374.4 374.8 371.3 369.3 362.1 360.4 357.3 348.9 342.3 332.5 324 315 311.8 303.9 293 285.4 269.6 246.6 225.7 203.9 178.7 162.1 146.4 136 127.8 122.2 120.5 120.7 117.8 114.7 112.8 111.7 115 115.8 116.6 117 117.8 123.7 137.4 152.4 166.3 177.6 191.8 202.9 217.4 224.5 220.7 212.5 205.9 211.1 217.4 224.9 235.9 245.8 261.3 271 271.5 266.9 260.2 270.7 279.5 284 288.4 295.9 306.3 323.6 340.3 359.1 378.2 390.4 397.4 399.3 398.4 393.5 385.7 375.5 366.5 362.6 359.8 356.9 357.9 363.9 371.1 374.3 372.3
210.6 215 220.4 225.8 232.5 241.4 249.9 257.2 266.5 273.4 278.8 280.2 279.1 266.4 266.7 281.9 303.8 323.1 340 355.1 370.4 379.9 388.3 394.1 398.9 402.2 405.4 405.9 408.7 409.9 408.9 409 409.1 408 405.3 402.6 401.3 398.1 398.2 402.5 406.7 409.6 411.9 412.8 410.7 404.2 394.7 386.1 376 369.3 370 376.2 382.5 387.2 391.4 396.8 400.9 403.5 406.1 408.6 413.9 419 423.1 426.5 428 427 423.2 418.8 411.1 406 407.4 409.8 410.3 410.9 411.8 414.6 417.3 418.1 417.5 416.2 414.9 413.5 411 406.5 403.5 404.8 405 405.2 405.4 405.6 405.5 402.9 401.3 398.4 392 383.8 375.7 364.2 352.2 352.8 356.2 358.1 360.6 363.8 368.5 371.5 370.6 369.2 366.7 361.8 350.6 361.2 369.2 371.9 369.9 371.8 372.3 371.2 363.6 357.2 355.4 352.6 346.9 340.4 329 324.6 320.2 319.4 309.7 298.6 291.5 281.2 266.4 241.2 222.5 200.3 180.5 158.7 148.1 134.8 127.1 123.1 122.5 119.9 116.8 112.8 111.6 114.2 114.9 115.6 116 116.7 117.6 125.6 143.5 155 165.2 175.2 186.1 200.2 202.7 192.5 182.2 182 186.1 193.6 202.6 214.4 229.5 247.5 255.9 256.4 250.8 250.9 259.1 265.1 267.5 275.4 281 297 314.9 338.3 360.4 377.5 387.3 395.1 399.3 399.6 396.6 390.1 375.4 361.8 357.6 353.8 350.6 353.8 359.4 364.3 365.7 366.6
209.7 212.6 217.8 224.3 233.5 242.6 249.7 255.1 263.6 269.3 274.3 273.5 269.5 258.8 268.4 288.1 309.9 329.9 347 361.3 374.2 383.5 391.6 396.9 401.1 405.2 406.7 407.4 409 411 410.3 410.9 410.4 408.7 405.3 402.4 400.2 396.7 394.4 399.4 403.7 406.6 409.3 407.5 403.1 397.5 388 376.9 362.3 370 373.7 377.8 383.3 388.7 392.1 395.7 398.7 401.5 404.1 407.6 412.8 417.5 420.9 424.3 424.7 423.7 421.6 415.4 400 400.5 409.4 410.5 411 411.9 414.1 416.8 419.5 419.6 419.6 419.2 417.9 415.4 412.9 411 412.1 411.7 411.2 411.6 411.8 412 411 409.3 405.8 400.2 393.2 385.4 378.4 369.8 360.4 345 345.1 349.3 354.3 356.9 360.9 364.2 365.2 364.9 361.1 352.5 340.2 360.2 369.4 372 370.3 370 368.3 364.1 357.3 352.3 352.6 347.5 341.9 335.7 327.5 322 319.5 318.1 310.6 301.9 290.8 282.9 270 248.8 245.6 235.9 205.1 180.6 157.3 144.7 133.1 126.3 124.9 125 119.9 112.9 111.3 113.9 114.2 114.7 115 115.3 115.8 119.9 133.9 144.5 152.9 160.4 169.2 176.2 171.6 166.1 159.8 163.6 169.4 175 184.7 199 217.8 232.5 239.7 240.9 234.2 238.1 244.2 248.3 252.4 260.2 271.7 291.4 314.5 339.2 360.6 378.4 384.9 391.1 397.6 398.6 398 393.5 379.5 362.2 355.5 350.3 348.2 352.6 353.9 355 357.2 360
209.1 209.3 215 221.1 229.4 238.9 247.2 253.1 258.3 262.7 265.5 263.3 254.7 257.8 269.1 292.5 315.9 335.2 351.8 364.2 376.9 386.4 393.7 399.5 403.8 407.4 408.8 409.4 410.7 413.4 414.3 412.3 411.3 409.4 406.2 402.8 398.1 393.5 390.2 395.9 400.6 403.1 402.9 399.9 395.3 389.4 381.8 371.2 362.4 373.4 378 382.1 386.1 390.3 392.3 394 397.6 399.5 402.6 407.7 412.7 417.7 421.3 422.8 420.6 419 414.6 405.2 397.4 404.7 410.2 411.2 413.1 415.2 417.2 419.5 421.1 421.2 421.2 421.2 421.1 420.2 418.5 417.4 417.6 417.5 417.5 417.5 417.6 416.3 415.1 412.1 406.3 401.4 394.4 387.3 380.3 368.5 357.6 345.5 339.1 342.2 348.8 351.3 353.1 355.2 357 357.6 353.8 336.4 343.2 360.8 369.3 370.9 368.6 365.4 361.6 356.7 350 347.9 348.2 339.9 332.9 326.2 320.1 319.4 317.9 314 306.2 296 288.9 281.5 272.9 257.2 259.9 247.6 223.1 195.9 176.8 154.7 139.3 129.8 128.1 128.8 123.9 111.6 114.2 114.1 114.2 114.2 114.4 114.4 114.4 115.6 125.7 136.1 139.5 145.1 150.2 151.8 147.5 145.5 146.4 150.7 156.3 161.7 172.4 187.2 204.7 216 223.6 223.7 221.1 225.5 231.2 235.5 237.3 250.5 268.8 290.2 314.1 340 359.6 374.3 381.9 389.7 395.1 396.7 395.5 393.4 385.3 370.4 357.8 351.7 345.1 346.7 346.7 347.2 349.3 355
208.9 211.5 213.1 219.5 224.1 233.4 242.6 247 249.8 254.2 254.7 249.9 249.7 262 279.9 304.2 323.7 340.1 354.9 366.7 377.7 385.1 392.6 399.9 405.5 409.6 411 412.1 412.9 416.1 417.1 415.2 412.3 409.7 406 401.9 396.7 391.6 388.9 390.7 393.4 395.1 395 392 387.6 381.7 375 365.2 365.5 376.8 382.4 386.4 389.7 391 391.8 392.5 394.9 399.5 402.2 407.2 413.1 418 420.6 420.8 419 415.3 406.4 391.9 396.3 408.3 413.6 414.9 416.5 418.4 420.3 420.9 421.5 422.4 423 422.8 422.9 422.7 422.5 422.9 423.1 423 422.9 422.3 421.5 420.7 418.6 413.5 407.5 400.3 394 386.6 379.4 368.7 356.7 345.2 339.5 338.4 335.3 337.7 341.8 345.4 347.5 347.4 343.8 328.6 344.5 359.6 365.7 367.4 362.3 360.5 353.7 346.2 340.1 340.3 335.2 329 322.4 316.5 313.8 313.6 313.6 312.9 301.9 292.5 287.8 283.1 274.5 260.9 260.9 248.1 229.4 198.9 181.3 161.1 143.5 134.6 132.4 130.5 129.1 117.9 113.4 113.8 113.7 114.2 114.3 114.1 113.3 113.5 119.6 126.2 128.9 132.5 135.6 134.2 136.9 133.9 135.8 141.6 147.6 152.1 163.4 176.4 192.3 203.2 209.9 210 210.1 215.5 221.9 222.3 226.9 245.9 267.6 290.5 316.7 341.9 358 369.2 378.1 388.2 392.6 393.6 392.8 391.6 384.7 376.5 366.1 353 344 343 343.9 342.7 343.1 349.9
221.1 222.5 221.4 219.6 221.7 227.2 233.1 239.3 240.4 244.7 243.1 247.5 256.3 273.7 293.1 311.6 328.2 343.6 356.6 367.9 376 383.6 391.1 398.5 406.6 410.5 410.9 411.9 414 415.3 416.2 413.1 410.6 408.1 405.1 400.8 395.4 390.6 385.8 381.9 383.9 386.9 385.5 382.9 380.4 374.4 365.5 359.3 372.2 378 386.2 389.7 391 390.8 389.1 389.4 393.1 399.4 402.2 406.5 411.7 414.8 415.6 416.3 417.7 409.3 390.5 383.7 398.3 411 415.8 418.4 418.8 419.9 420.9 420.9 421.8 422.8 424.5 424.8 424.7 424.5 424.7 426.3 426.3 426.5 427.1 425.3 423.8 423 420 415.4 409.2 401.7 393.6 386.4 378.3 364.8 360.3 355 351.3 344.7 334.2 329.9 325.6 331.4 335.6 334.5 325.2 325.6 341 355 359 358.9 352.8 347.1 341.2 333.6 331 328.6 322.8 317.8 313 307.6 306.5 307.5 308.4 303.8 295.2 290.6 285.4 279.3 271.7 264.1 259.4 241.7 220.7 194.8 180.5 162.5 146.8 139.1 135.7 131.8 129.2 128.4 113.4 113.3 112.9 113.4 114.1 113.3 112.2 112.2 115.4 119.9 122.8 124.2 126.2 125.1 126.8 128.8 132.2 135.3 140.1 146 155.5 168.8 181.1 191.8 197.6 198.9 202.2 206.5 209.2 210.6 225 241.3 264.9 291.3 319.7 340.4 355 364.5 376.2 385.1 388.9 390.4 390.1 389 385.8 378.6 372.3 357.1 340.9 341.5 340 338.9 338.3 345.1
241.6 246.1 247.8 236.6 227.2 226.4 228.9 229.3 237.5 240.6 243.4 249.7 264.9 284.7 302.5 317.4 331.8 345.1 355.8 367.1 375.3 383.6 391.5 398.6 405.4 409.9 410.1 411 412.2 412.9 412 410.7 408.9 406.2 403.5 400.2 395.9 390.7 385.3 379.6 374.7 377.2 376.2 374.2 373.1 366.7 354.8 360.6 375.3 383.5 390.8 393.8 392.6 390.3 388.2 387.1 390.9 395.7 401.1 405.6 407.8 409.5 410.1 412.2 408.9 391.9 374.9 387.6 400.3 410 414.1 415.8 417.4 419.4 420.2 421 422.1 423.6 425.9 426.6 426.4 426.7 428.3 430.2 429.5 430.1 430.8 428.4 426.1 424.1 420.6 415.6 409.8 402.2 393.6 384.7 376.6 372.7 370.5 368 363.6 358.6 350.6 342 332.9 320 320.3 322 319.4 323.9 333.5 339.1 336 325.8 313.6 306.8 305.7 306 315.5 314.7 309.7 307 301.5 295.7 297 298.8 299 295.8 289.8 286.5 281.6 275.7 270 267.1 256 220.7 193.3 184.8 170.6 159.3 148.3 143.9 139.7 134.9 130.8 129.9 126.5 120.3 112.6 109.9 113.3 113 112.3 111.6 113.8 115.9 116.7 118.2 120.3 121.7 123.8 125.7 128.5 131 135.2 140.1 148.5 161.9 174.3 180.9 186.3 190.2 194.4 196.9 199.8 212 222.9 246.8 273.4 299.4 322.5 337.4 351.1 361.7 372.1 379.1 382.4 383.1 383.1 384 383.6 381 373.5 358.3 344.3 337.2 334 332.7 332.1 343.8
264.9 271.2 269.3 264.6 250.8 239.6 237.4 244 247.8 251.3 254.1 258.1 263.6 284.7 303.3 318.3 332.3 345 356 365.9 374.7 382.8 390.5 396.5 402.1 404.8 407.7 409.9 410.2 409.3 408.6 407.3 405.9 404.6 402.3 400.3 395.8 390.4 385.1 378.6 371.4 368.5 368.1 366.2 364.3 349.3 356.1 370.5 381 389.3 393.5 394.2 391.2 387.9 383.3 382.4 386 389.8 395.7 399.2 400.9 404.1 407.3 407.1 392.2 372 376.4 393.1 402.4 410.5 412.4 413.9 414.9 415.9 416.9 419.2 421.2 423.4 426.5 428.5 428.7 429 431.9 434 431.3 430.7 430.6 429.4 428.2 424.7 420.9 415.9 408.6 401.4 392.6 388.4 384.8 382.5 380.7 376.3 373.2 366.3 362.3 353.8 344 330.4 325.7 319.2 313.4 316.6 319.5 311.7 291.7 277.1 269.9 267 265.3 271.7 282.1 287.7 294.4 295.3 290.9 276.2 282.8 290.8 293 293.4 287.3 282.8 278.1 272.8 267.1 265.1 259 227.9 189 170.8 167.2 159.4 153.9 149.7 144.7 143.5 141.4 138.2 132.7 124.7 124.5 120.4 112.1 109.9 112.1 112.1 111.7 112.3 112.7 112.8 114.7 118.3 120.1 123.1 124.1 126.2 130.5 134.8 143.1 154.4 165.9 172.5 178.3 180.3 185 194.1 201.9 210.7 227.8 254.9 281.1 304.7 319.9 332.9 343.9 358.9 369.5 372.8 375.8 376.5 378.4 378.7 378 375.2 367.3 355.1 345.5 331.1 332.8 329.6 328.2 341.9
282 281.6 282.9 278.4 272.6 265.3 259.6 257.5 262.3 267 273.3 277 277.3 274.9 287.4 306.7 326.3 340.3 353.4 363.5 373.1 381.4 389.3 395.9 400.3 402.5 405 406.6 407.3 405.2 404.4 403.8 402.5 401.2 399.9 398.8 394.2 389.3 381.5 376.4 369.5 359.7 356.7 358.8 351.9 355 365.7 374.4 386.3 392.2 392.5 390.3 388.3 384.2 379.6 378.4 380.7 385.6 388.7 390.8 395.1 400.5 404.3 397.5 372.6 367 383.5 395.2 405.7 411.5 411.7 411 411.7 412.6 414.9 417.2 419.8 423.8 427.2 429.7 430.5 431.1 435.6 435.9 432.2 430.5 429.8 428.6 427.3 424 420.7 416.1 410 403.9 400.2 395.8 393 390.6 386.5 381.9 377.1 374.2 369.1 361.3 348.7 343.4 337.6 327.7 316.6 302.1 283.1 267.5 252.6 244.3 237.8 233.8 237.2 240.5 251.8 263.4 269.6 273.8 270.2 264.7 272.1 283.1 288.7 289.8 284.4 279.6 275.3 270.1 265.3 264.2 257.9 238.4 202.3 183.5 173.3 166.4 159.4 156.1 154.3 157.1 157.4 154.4 150 140.8 131.4 125.8 121 113.7 110.4 109.1 111.9 112.5 112.6 112.6 112.3 114.6 118.8 121.5 122.5 124.9 128.1 131.3 137.8 148.5 158.2 166.7 172.2 178.9 184.9 192.6 201.7 214.5 236.3 262.5 284.4 304.2 307.7 315.3 327.6 344.9 361.5 362.3 366.9 370.3 374.8 376.6 373.4 368.2 359 351.3 341.3 327.4 320.9 322.1 323.8 333.6
288.8 287.7 287.4 287.5 286.6 285.9 284.2 282.6 284 288.9 295 299.5 301.9 303.2 298.4 294.9 315.9 330.8 345.4 359.9 371 380.8 388.3 395.1 399.4 401 402.3 403.3 403.4 401.3 400.2 400.4 399.4 398 396.7 395.7 392.3 386.9 381.4 374.1 367.1 361.4 349.7 349.6 351.9 362.5 369.6 377.5 389.2 391.8 392.2 390.1 386.4 380.3 374.8 370.4 373.9 378.9 384 388.7 391.7 399.4 399.1 385.1 354.6 368.7 384.6 396.7 408.8 411.1 411.1 409.8 408.4 410 412.6 415.7 420.2 424.6 428.3 430.3 430.4 430 432.6 432 430.3 430 429.1 427.8 426.5 423.6 420.8 417.9 413.1 409.5 406.2 403.1 398.8 394.3 390.8 387.2 381 377.6 371.1 364.7 357.3 351.8 346.4 337.8 329.1 321.2 265.7 228.1 227.3 214.9 210 211.6 216.6 219 224 233.1 246.5 248.7 245.4 256.9 268.6 279 283.8 283.1 281 275.9 272.2 267.2 264.2 264.2 262.1 256.3 227.7 199 189.3 182.6 172 166.6 166.4 170 171.6 173.1 169.7 162.9 154.1 141.4 126.3 119 118.1 111.6 112.2 112.3 112.4 112.3 112.2 112.7 118.1 119.9 121.6 125 128.3 131.5 139 143.9 152.9 159.3 168.6 176.4 183 190.8 203.7 221.8 242.8 266.1 285.4 280.4 284.3 295 310.6 330.1 346.1 343.8 359.6 366.5 370.1 370.3 364.7 356.8 347.8 339.2 329.8 323.3 318.7 314.3 317 324.1
285.6 288.6 292.2 295 296.8 298.2 298 301 304.6 309.8 314.6 319.1 321.6 326.8 328.5 319.2 315.3 321 332.6 348.8 369 379.4 389 396.3 400.6 400.9 399.7 399.1 399.1 397.6 397.5 396.9 396.4 394.8 393.4 392.4 389.5 384.4 379.2 371.8 364.6 359.1 351 346.9 357 365.4 372.5 380.9 387.2 391 390.5 388.3 384 378.7 369 364.5 370.4 375.6 380.8 385.6 390.6 394.9 395.1 377.9 349.9 370.2 381.2 391.3 401.8 405.4 406.5 403.3 402.5 407 411.5 416.1 420.6 425 428.6 429.1 429.2 429.1 428.6 427.8 428.3 428.8 428.5 427.3 426 424.2 421.8 419 415.6 412.1 410.4 405.2 400.6 396.1 391.5 389.2 381.5 380.1 374.5 367.9 363.2 359 352.5 346.1 338.9 327 283.5 226.2 202 188.6 184.9 184.8 195.6 203 203.9 209.9 218.2 219 239.7 255.5 267.3 275.6 277.3 275.5 273.6 271.6 265.6 262.1 262.8 264.7 264.7 263.9 254.2 228 217.3 206.2 196.1 190.8 184.3 186.6 191 194.1 194.1 182.1 169.7 156.8 146.3 127.5 117.9 115.1 110.6 112.1 112.2 112.5 112.5 113 115.8 119.8 121.9 125.3 128.6 131.8 137.8 143.1 149.6 156.8 165.5 172.7 180.8 191.5 208.2 226.1 245.5 264.2 263.6 260.5 266.6 281.5 297.7 313.4 328.4 344.9 360 363.7 364.6 360.8 352.4 341.2 332.7 323.5 319.4 317 313.3 309.5 311.9 313.5
285.5 290.3 294.3 297.5 303 305.5 309.1 313.9 320.6 325.7 327.7 332.1 335.4 341.7 346 348.1 345.1 347.2 357.5 364.6 373.5 383.1 390.8 398 400.4 399.6 397.7 395.1 395 394.6 393.9 393.2 392.6 392 390.1 390.4 384.1 378.7 373.2 368.3 361.9 356 345.3 342.3 358.6 365.8 373.6 381.3 385.3 384.8 384.2 382 378.1 376 366.5 360.2 365.8 373.1 378.4 383 390.7 392.8 390 372 351 366.4 375.3 385 390.7 393.6 392.8 394.2 401.6 408.7 414.2 417.6 421 424.2 425.8 425.6 425.3 425.3 425.2 424.2 424.5 425.1 426.5 426.8 425.6 424.4 422 419.6 416.9 413.6 410.4 406.9 402.3 397.8 393.2 389.5 381.6 381 377.1 370.4 365.5 361.2 357.1 351.2 344.9 337.7 325.1 256.5 224 202.9 182.3 171.6 173.8 188.5 192 193 194 206.3 236.2 252.6 265.7 272.8 272.4 270.8 268.8 265.5 257.7 257 262.9 265.1 264.8 264.7 262.8 247.6 229.8 218.8 210.7 210 203.8 201.4 200.2 205.8 210.7 204.1 188.6 170.9 156.5 138.2 122.8 117 113.1 109 111.4 111.7 111 110.4 111.5 119.2 122.5 125.6 128.9 132.3 136.5 140.9 147.2 152.8 160 171.2 182.4 194.6 212.1 227.7 246.4 250.2 244 253.5 269.4 288.1 308.1 326.4 341.2 356.9 362.7 361.3 357.4 348.3 338.5 330.7 323.9 318.1 313.1 312.3 310.2 307.8 306.2 306.1
285 289.4 294.3 298.9 302.9 307.3 314.4 320 327 327.9 330.5 334.3 339.6 347 353.5 359.8 366 371.6 375.9 378.4 383 387.6 394.9 399.3 399.5 398.4 395.8 392.7 391 391.5 390.4 389.4 388.7 387.6 384 380.1 376.7 371.3 367.3 362.5 358 354.4 342.9 349 356.6 363.7 370.4 377.3 376.8 375.6 376 373.1 370 367.4 362.1 356.1 363 374.6 381.1 384.2 388.3 388.4 382.5 367.4 339.7 357.7 366.6 373.1 377.6 381 388.6 396.5 403.7 410.9 416.3 420.9 421.6 421.5 423 421.1 420 420.6 420.8 420.5 422.2 423.6 425.2 426.8 425.2 423.9 422.2 419.8 416.8 413.5 410.2 406.6 402.5 398.4 394.3 389.6 381.6 380.9 376.4 371.8 367.4 363.1 360.3 353.5 351 346.7 338.3 295.8 246.4 217.1 193.1 175.7 169.3 175.2 178.1 180.4 182.9 194.5 222.1 248.7 259.2 266.1 266.5 267.6 264.6 257.4 247.7 254 261.7 266.4 265.5 264.4 262 249.5 234.8 225.4 218.8 213.5 208.9 204.8 205.8 211.5 217.2 219.9 206.2 184 161 141.1 126.2 116.9 114.8 112.9 108 110.3 111.7 111.3 110.4 117.6 122.2 124.3 126.8 130.6 134.8 139.2 143.5 148.7 155.9 170.3 182.8 197 214.3 230 237 234.6 240.7 261.2 282 303.2 321.3 336.3 349.6 359.7 361.3 360.8 354.6 341 330.9 326.6 319.9 317.9 311.7 308.8 306.1 304.5 299.9 299.8
279.8 285.9 291.3 296 300.1 307 312.2 316.7 319.2 319 320.6 323.2 333.4 345.5 357.5 370.6 376.3 380.7 381.9 384.1 387.3 390.9 394.2 395.7 394.9 394.6 393 390.7 389.8 388.4 387.3 386.3 385.2 382.9 379 374.4 368.7 364.5 360.2 357 353.5 350.3 341.9 343.8 352.2 358 362.3 364.1 364.2 364.1 364.3 361.2 360.8 358.5 354.4 349.4 359.7 372.2 378.2 381.7 383.4 379 366.3 344.2 329.5 340.6 353.1 362.7 372.9 385.4 396.2 402.5 407.9 411.6 415.7 419.1 420.6 421 419.5 416.4 414.8 415.9 417.3 418.4 420.4 422.2 423.9 425.6 425.2 423.6 422.2 419.9 416.7 413.2 408.8 404.7 400.8 396.7 392.6 389.7 382.6 379.5 375.6 370.9 366.9 362.9 359.1 357.2 355.7 354.2 346.5 315.2 267.3 228.9 203.6 182.1 170.7 168.6 170.3 172.8 176.3 188 204.2 231 249.8 257 263.5 266.1 257.5 243.7 240.4 251.9 260.5 265.6 265.2 262.1 254.2 242.1 234.6 224.4 220.4 212.8 207.2 203.9 206.3 211 219.3 215.9 196.3 177.8 156 139.6 126.1 116.6 114.8 113.5 111.8 107.5 110.6 111.3 110.7 116 115.8 122.8 124.3 128.6 132.7 136.9 140.6 145.6 155.2 169.8 183.6 198.8 213.8 220.4 223.9 224.6 245.8 267.5 289.1 308 324.6 339 351.5 358.5 359.4 360.4 360.7 352.9 344.1 338.4 329.3 325.5 314 306.6 301.4 300.4 298.3 297.1
274.2 279.2 283.2 288 293.6 299 302.8 302.8 302.9 303 310.6 324.8 340.9 354.2 363.8 369.9 379.8 383.4 385.3 387.7 389.4 390.4 391.2 392.9 392.2 391.1 390.3 390.8 389 386.8 384.2 382.8 381.7 377.9 376 369.9 363.8 356.6 350 345.6 342.9 341.2 338.8 337.9 344.6 345.1 345.8 347.7 348.6 351.3 350.3 347.9 345.9 343.8 342.4 344.2 352.4 365.1 372.2 375.6 375.6 368.7 344.9 322.6 333.3 349.6 363.3 373.8 388.4 400.2 401.7 406.2 408.9 410.4 412.6 416.5 418 415.3 410.9 410.1 410.4 411.7 414 417.3 419.3 421.4 422.6 424.3 425.3 423.6 422 419.8 415.4 411.1 406.7 402.7 398.7 394.8 390.8 387.8 383.6 378.9 374.5 370.3 366.2 362.3 358.9 358 358.9 359.7 353.2 344.7 302.4 246.8 214 191.5 174.9 169.4 168.6 166.9 173.5 179.7 193.2 213.4 237.4 249 260.2 263.9 244.9 227.3 237.6 250.2 261 263.9 262.7 261.5 252.9 239.4 220.2 214.6 212 205 201 199.9 201.6 201.9 200.4 189.4 177.3 162.7 146.3 135.8 120.4 116.3 114.5 113.5 112.3 110.6 106.8 110.6 110.8 112.7 111.9 117.2 121.4 126.3 130.6 134.4 138.2 145.3 154.7 169.6 182.7 195.4 205.7 209.1 210.1 228 249.9 270 289.6 309.7 326.4 340 351.5 357.5 359.8 360.7 360.6 357.1 350.7 343.7 335.1 325.2 310.3 305.8 300 297.9 295.2 294.2
263.7 268.2 273.3 276.8 282.5 285.9 286.3 290.1 295.5 308 324.6 339.1 350.1 361.8 371.9 380 383.4 385.4 387.2 388.9 390 390.6 389.9 389.8 389.9 388.6 388.7 389.3 387.9 386.1 383.5 380.8 378.2 372.7 369.2 361 356.7 351 347.2 342.9 340.8 340.8 338.6 332.7 329.5 328.8 330.5 331.4 331.4 331.6 328.6 331.9 333.6 336 334.3 337.6 343.4 355.8 364.1 365.4 362.5 346.9 325.1 320.3 339.8 355 369.8 381.3 395.7 402.8 402.2 405.3 407.4 409 409.6 411.4 410.9 406.6 402.1 405.3 408.9 409.4 413 417.2 418.8 420.9 422.5 423.5 424.7 423.6 421.7 417.6 412.4 408.7 404.6 400.6 396.7 391.9 386.6 382.9 379.6 375.2 371.9 368.7 365.9 362.5 359.5 358.1 358.7 359.3 355.2 347.2 327 273.4 229.9 207.5 182.7 172.4 166.5 161.1 168.2 177.4 186.7 197.3 226.6 240.5 256.2 245.2 228.4 219 235.6 248.9 258.5 262.3 261.7 260.9 254 239.2 221.4 203.1 198.4 190.4 188.9 189.9 189.6 185.8 179.6 175.4 157.7 147.7 139.5 128.6 118.5 117.2 113.6 113.9 112.5 111 110 106.1 110.5 111.2 110.8 115.1 119 123.1 129.8 133.3 136.8 144.9 154.7 167.1 180.7 192.6 197.7 199.3 209.4 227.9 246.3 267.2 289.9 307.6 325.5 341.5 350.1 356.3 359.1 360.9 359.1 356.2 349.3 340.7 332.7 326.6 321.4 321 303.3 289.7 291.5 289.3
258.8 259.7 266.3 270 270 277.6 282.2 291.8 303.4 313.3 322.8 342.7 360.8 372.2 379.2 384.8 386.9 388.2 389.2 389.5 390.6 389.5 388.9 388.8 388 386.1 387.1 387.7 386.3 384.9 381.3 376.7 372.7 370.2 365.7 354.3 349.4 349.8 352.3 352.7 350.6 351 348.8 343.9 339 334 328.8 328.5 327.7 321.7 319.7 319.2 319.6 321.8 324.6 328.9 333.7 342.2 350 348.3 340.7 325.5 310 328.6 346.4 359.1 374.4 384.6 394.4 399.8 401.8 403 404.3 405 405.5 402.8 400.1 394.6 399.2 402.8 407.7 411.2 414.2 417.8 419.2 420.4 422.3 423.4 423.6 422.5 420.9 415.7 410.2 404.5 400.8 396.2 391.6 386.9 381.6 378.3 374.9 371.7 369 366.3 363.6 360.8 357.5 357 358.3 359.2 356 346.5 331.2 306 259.4 227.8 201.8 185 167.4 159.7 160.8 171.2 180.2 192 218.2 234.5 238.9 221 210.2 215 234.4 248.6 256.2 258.7 260.3 260 248.3 234.2 218.3 196.9 187.9 184.8 180.5 178.8 177.1 173.3 165.8 154.3 143.8 137.1 131.4 126 122.1 125.4 122.5 118.7 116.5 112.3 110.6 109.3 105.9 110.3 110.5 116.6 118.6 119.4 124.9 132.4 137.1 144.3 153.7 164.8 175.3 183.1 189.5 195.5 210.6 225.5 245.1 268.8 293.9 312.9 329.6 341.8 350.7 357.4 360.9 361.3 360 358.8 353.9 347 337.9 331.6 324.5 307.1 303.1 287.2 288.2 286.4
271 275 278.7 278.6 281.2 286.2 293.8 303.9 317 331.4 347 356 373.4 382.5 386 388.5 390.3 390.9 391 390.1 389.9 388.4 388 387.7 386.4 384.9 385.2 386.2 385.5 383.8 381.7 377.5 370.9 366.8 358.9 358.1 360.5 364.2 366.3 368.3 369.6 370.6 370.2 366.3 360.2 354.1 347.5 342.3 335.9 335.1 333.2 328.3 323.2 319.9 316.2 316.5 321.6 327.7 330.7 330.3 323.2 302.5 315.6 335.5 351.4 362.5 375.3 385.2 391.4 396.2 398.7 400 400 400.7 398.2 393.7 389.2 390.3 398.1 403.6 408.3 411.9 415.3 418.6 420.2 421.1 422 422.4 421.3 418.5 415.5 410.5 405.1 399.7 394.8 390.5 386.1 381.5 377 373.3 369.6 366.8 364.2 362.3 362 358.4 354.5 353.9 356.3 356.2 353.6 345.1 320.7 297.6 261.6 233.5 213.2 192.1 168.7 161 158.6 164.9 174.4 188.7 209.6 225.2 224.2 205.9 202.9 213.6 235 248.1 251.1 254.7 257.7 252.5 240.8 227.5 214.4 199.7 189.7 181.3 173.2 166.6 164.3 160.5 152.2 144.4 137.1 132.3 129.2 126.3 128.9 136.1 147.2 136.9 118.4 117.1 111.5 108.8 108.5 109.6 111.4 115.5 115.6 116.8 119.6 131.3 137 144.3 151.2 158.8 173.1 178.6 186.3 196.1 209.6 228.5 250.1 274 297 316.4 329.6 341.5 351.4 358.6 364.7 364.8 363.3 362.1 358.1 345.8 333 327.7 322.2 319.7 314.9 288.1 281.9 284.1
290.9 298.1 298.9 301.6 305 307.5 315.7 324.6 339.1 353.5 366.6 380.1 385.4 388.1 392.4 394.1 394.6 392.8 392.1 390.3 388.8 387.3 387 386.4 384.9 383.5 383.2 384.2 384.1 382.6 380.8 375 368.7 362.6 367.1 371.2 375.6 380.5 383 385.2 389 388.9 388.5 387.4 383.7 379.3 371.1 363.5 353.7 350.7 347.9 344.6 338.7 329.8 320.7 311.5 300.4 307.7 310.3 314 296.3 304.3 325 343.5 354.2 365.2 374.5 382 388 392.4 395.5 396.6 396.8 395.2 390.8 382.3 386.5 392.9 400 405.3 410.4 413.5 417 419.1 419.8 420.7 421.7 420.3 418.7 413.9 409.7 403.1 397.7 392.2 387.4 382.9 378.4 374 371.1 367.6 364.3 361.9 360.3 359.3 357.9 353.6 351.4 350.3 352.5 350.7 348.9 337.5 310 276.4 250.6 229 210.1 185.1 168.8 161.6 158.9 160.7 169.2 182.5 205.7 215.1 208.3 197.1 203.1 212.3 229.9 238.7 243.9 251.6 249.5 242.3 234.4 221 209 199.5 187.1 178.6 169.2 159.5 155.7 151.6 143.7 137.5 133.4 128 128.1 131.4 137.3 150.2 164.7 160.8 138.4 117.1 116.3 110.3 109.3 105.5 109.4 114.5 114.8 116.8 119.6 131.1 136.7 143.1 149.8 158.1 169.4 179.8 186.3 192.9 210.5 231.1 253.4 273.6 295.5 312.2 326.2 339.6 350.3 362.3 368.3 368.9 367.4 365.2 357.5 346.2 331.2 325.1 320.6 324.2 318.2 292.2 275.5 277.5
311.1 323.2 327.9 332.4 335.4 338.5 344.7 351.9 364.5 376.5 388.8 393.2 395.4 397.1 398.2 398.8 398.8 397 393.3 389.9 387.8 386.2 385.7 384.8 383.6 382.8 381.8 382.5 382.9 380.5 377.6 369 370.7 376 378.3 382.3 387.3 394.2 398.7 400 401.8 402.9 402 400.3 398.8 395.3 391.6 386.4 377.5 371.1 366.2 362.5 355.8 347.7 337.1 326.3 309.9 289.4 291.3 290.4 285.3 310.6 330.1 342 353.7 363.6 372.7 379.4 386.3 389.8 392.3 392.7 392.2 387.1 378.6 378.8 388.4 396.7 403.2 409.6 412.2 415.3 418.2 418.9 419.5 420.3 420.8 417.5 414.8 408.6 403.9 396.9 390.2 384.7 379.8 375.2 370.7 367.8 364.7 360.7 356.7 355.4 354.7 353.4 350.3 348.2 346.9 348.7 349.8 348.1 343.5 320.8 289.2 262.1 238 219.5 200.3 178.4 167.9 161.2 158.4 158.7 166.3 180 201.8 208 191.1 191.1 200.9 215.5 230 243.3 249.8 250.9 244.7 236 225.5 213.4 203 191.9 180.9 172.2 165 157.2 151.9 146.4 140.8 134.9 130.4 129.1 131.3 136.8 147.6 160.9 173.6 170.2 154.2 125.7 116.6 111 109.7 105.6 108.6 113.6 114.1 114.4 116.8 124 135.2 140.3 147.5 155.5 164.1 177 184.3 190.6 210.7 228.8 247.8 268.6 291.4 308.9 323.9 336.4 349.8 361.9 369 371 371 367.9 364.4 356.6 341.5 326.8 319.8 321.2 314.8 296.2 271.2 271.4
332.3 341.2 346.2 352 358.1 364 372.2 378.1 385.7 395.8 399.9 399.8 401.2 401.5 401.2 400.9 399.5 396.5 393.2 389.8 387.7 385.8 384.7 383.7 382.9 382.1 381.1 380.6 380.8 377.6 370.2 376 381.7 385.2 387.6 392.5 396.9 403.9 407.4 410.6 410.6 409.8 409.4 409.8 408.8 405.5 402.1 397.7 393.3 391.3 388 382.6 374.2 366.8 355.4 342.1 327.7 311.9 283.7 271 289.7 303.1 319.6 338.1 351.1 362.9 370.6 378 384 387.2 389.3 389.2 385.1 376.2 369.6 381.9 392.7 401.3 408.3 412 414.2 416 417.8 418.7 419.3 419.5 418 414.6 410.1 404 398 389.6 381.2 375.1 370.5 366.3 363.8 360.8 355.9 350.7 346.7 347.1 346.6 345.4 343.5 344.1 339.9 344.5 346 343.7 339.2 306.8 274.7 249.9 227.6 206.9 189.9 175.5 165.8 160.9 155.8 155.7 165.9 180 194.8 194.5 183.6 192.5 204 223.2 239.8 247.7 249.9 245.6 232.1 223.8 214.5 204.9 194.4 183.8 174.1 166.1 158.9 152 147.2 143.3 139 133.8 129.3 130 134.5 143 151.8 156.8 159.8 163.9 163.5 137.4 117.9 115.8 109.5 105.5 107.9 108.5 112.2 113.1 113 116.7 131.1 136.3 142.8 150.8 158.7 168.4 178.1 191.4 207.4 223.4 245.6 272 290.1 306.4 322.2 338.7 354.3 365.6 371.7 372 371.4 371 367.9 362.3 348.5 328.5 314.2 311.9 309.6 297.7 268 269
346.1 351.6 356.4 362.9 370.1 376.7 384.2 391.2 398.1 401.9 401.9 401.9 401.4 401.5 401.2 400.9 399.1 395.8 392.4 389.8 387.8 385.9 384.9 384.4 383.6 381.8 380.8 379.8 379.6 379.3 379.8 382.6 387.1 391.4 395.4 402 406.8 410.1 413.1 415.7 416.2 417.3 417 417.5 415.5 411.6 407.7 404 402.5 402 399.2 393.9 388.7 379.9 370.9 361.3 347.6 329.3 307.8 286.7 266.5 280 303.2 328 346.6 359.6 370 377 382.8 385.6 385.1 386 373.2 357.7 372.5 385.6 397.3 405.2 410.2 414.2 416.4 417.8 418.5 418.9 419 418.3 415.1 411.2 405.5 398.6 390.2 379.7 367.3 364.1 359.6 357.8 355.2 352.3 347.3 336 334.2 337.4 337.8 337 338.1 338.7 338.7 340.6 342.6 340.5 333.3 302.9 266.7 241.1 217.1 194.9 180.2 171.5 164.7 159.4 152.9 153.1 164.1 178.3 191.4 190.9 179.4 191.1 209.7 228.6 240.1 245.4 242.8 235.4 225.1 213.7 204.1 194.6 184.1 175.4 167.1 159.2 152.7 146.6 142.4 139.5 135.4 131.8 129 129.6 135 140.5 141.6 141.6 142.8 144.6 142.1 139.1 123 115.9 109 105.5 108.2 109 112.6 112.5 112.1 118.1 130.7 134.9 140.3 147.8 155.2 161.7 173.5 191.1 212.3 232.5 252.9 272.1 290.3 307.4 324.2 344.5 365 374.2 378.3 375.9 371.1 366.2 362 358.9 345.3 328.9 312.5 304.9 304.1 294 269.7 266.3
352.2 358.6 364.6 371.5 377.1 385.3 392.6 398.7 402 402 401.7 401.7 401.4 400.6 400.5 400.6 397.2 393.7 390.4 389.2 388 386.1 385.8 385.4 385 383.1 380.6 380.6 380.9 383.7 388.4 390.5 395.4 399.7 403.5 410.4 413.5 416.1 418.6 419.7 420.6 421.3 422.1 421.8 417.6 413.4 410.2 406.7 405.3 405.7 402.4 397.9 393 385.5 376.1 368.6 363 347.8 329.3 307.2 280.2 261.5 291.3 321.3 341.9 356.3 369.8 376.6 380.1 380.5 379.3 372.7 354 355.8 374.4 389.5 401 405.8 410.7 415.8 417.9 419 419.6 420 418.7 417.3 413.5 408 399.7 390.6 377.3 364.4 351 349.2 346.3 346.5 346.1 343.4 337.8 329.6 322.8 326.1 327.8 330.3 332.2 332.8 334.4 338.7 340.1 338.5 332.9 305.8 267.4 238 213.5 195.3 186.5 171.4 162.5 157.6 152 152.9 163.3 172.7 184.6 180.6 180.2 194.1 214.2 229.9 236.8 241.2 236 225.3 216.4 205.5 195.2 185.7 176.7 168.1 159.9 153.1 147.4 143 138.6 135.6 129.6 127.2 126.3 128.3 130.6 129.8 127.9 128.8 127.7 125.8 126.4 124.9 122.8 115.5 107.9 105.4 107.8 108.1 109.9 112 111.9 120.5 131.5 135.9 141.7 145.6 151.3 157.1 170.4 189.5 210.2 230.7 250.6 269.9 289.4 308.6 329.9 354.5 368.8 371.3 372.7 371.6 366.3 359.1 355.7 350.9 342.3 328.5 313.5 302.8 295.9 288 269.7 262.8
357.2 363.2 370.5 377.2 383.2 391.3 397.6 401.4 402 402 401.8 401.5 401.5 400.7 399.9 399 395.3 391.6 389.7 388.6 387.4 386.6 386.7 386.4 386.1 384.9 385.1 387.1 390.7 393.9 398.8 403.8 406.5 410.2 411.7 415.9 418.8 420 420.8 422.8 424.7 424.8 424.5 422.9 419.1 415.7 412.6 409.4 408.3 407.1 403.9 400.1 395.1 387.9 380.3 374.5 369.1 361.3 343.7 309 275.5 261.5 293.3 322.7 344.7 358.1 371.2 376.7 378.1 373.7 364.4 348.6 338.9 357.8 376.9 396.7 403.6 407.1 411.3 414.9 417.6 418.8 420.8 419.7 418.5 415.5 411.9 404.1 396.1 384 365.7 349.9 339.5 333.5 329.9 333.5 336.8 332.8 327 321.1 312.2 316.1 318.5 321.4 324.6 327.6 331.3 337.7 339.6 337.9 331.8 313.3 278.6 243.4 228.2 217.5 201.6 175.9 159.1 153.2 152.7 151.1 159.5 164.6 168.9 174.8 183.4 197.7 218.9 228.1 232.8 232.8 224.1 214.2 206.2 194.4 186 178.7 168.5 160 152.8 148.2 142.6 138.3 134.7 131.3 126.6 124 123 123.2 124 120 121.8 122.6 123.1 120.5 120 120.6 119.3 116.3 107.8 105.4 107.4 108.3 108.8 112.6 111.7 117.4 132.5 135.7 140.8 143.6 148.3 153.1 166.3 185 204.9 225.9 247.9 268 288.2 310.6 333.6 353.2 363 362.5 359.8 357.4 355.4 351.5 347.5 341.7 334.6 324.3 312.9 301.4 291 282.9 269.5 258.2
360.3 366.7 373.8 381 388.8 396 400.8 402.9 401.9 402 401.9 401.6 401.3 400.9 399.7 396.6 393 390.5 389.3 388.2 387.2 386.8 387.6 387.9 388.9 390.4 390.4 394.2 398.2 403.8 410.1 414.9 417.5 419.1 419.9 420.7 422.8 422.9 422.9 424.6 424.8 424.8 424.8 423.6 421.4 418.1 415 412.4 410.4 406.8 403.6 400.1 395.3 391.6 384.7 379.3 372.4 359.1 343.9 304 269.4 251.8 294.2 326.7 348.4 362.4 373.7 374.7 371 355.8 338.5 327.6 342.8 365.1 385.6 400.3 406.4 408.6 410.5 413.8 417.2 418.2 418.6 417.7 416.5 413.8 409.2 400.6 392.6 379.2 358.9 353.2 347.9 342 332 321 319.3 314.1 309.6 309 294.8 295.5 300.5 307 315.2 322.2 330.4 337.6 339.4 338.1 330.4 313.8 291.4 265.1 238.9 220.8 204.1 179.4 156.8 150.8 149.7 149.4 154.9 162.7 173.9 182.6 194.8 212.1 222.6 226.6 226.1 219.7 210.3 200 189 184.2 176.5 167.4 158.7 151.1 146.8 143.2 138.2 133.8 130.1 126.8 124.2 121.7 119.7 119 118.6 118.8 118.7 118.5 118.3 118.3 118.4 117.7 116.6 115.3 109.9 105.5 107.1 108.1 108.6 112.2 111.5 111.6 119.4 133.5 140.2 145 149.6 153.5 161.8 179.7 197.2 219.6 240.5 263.7 286.4 309.9 331.3 347.7 351.4 351.1 349.4 346 344.3 342.6 339.1 333.4 326.4 317.7 307.7 297.1 293.9 288.5 275.6 259.3
361.6 368.3 375.8 383.1 390.9 399 401.7 402.8 401.7 401.8 401.9 401.7 401.4 399.6 397 394 391 390.2 389.4 388 386.5 387 389.1 390.3 393.2 395.6 396.6 401 406.1 411.2 417.7 423.6 424.4 424.4 424.1 425.1 425.4 425.9 425.8 425.1 424.8 424.8 424.6 423.2 421.7 419.8 416.7 413.4 410.1 406.5 402.5 398 394.5 390.1 387.3 382.6 373.3 356.1 326.8 286.7 253.4 266.6 300.5 329.8 353.5 369.2 374.8 374.7 361.4 335.6 317.7 330.8 354.1 373.4 392.9 401.2 406.9 408.9 410.5 411.8 414.7 415.9 416.4 416.3 414.5 412.2 406.9 397.9 389.2 376.1 365.7 359.9 353.6 348.9 340.5 330.5 322.1 319.7 316.2 312.1 309.3 290.9 265.4 286.6 305.9 317.2 332.1 338.3 339.9 337.8 330.6 311.1 288.2 263.4 239.5 220.4 197.9 180.8 156.7 149.7 148.5 149.3 156.3 172.9 182.7 200.2 214.8 218.2 220.7 224.2 221 209.2 194.4 185.5 183.3 173.5 162.7 156.3 150.7 145.7 141.2 138.2 134.4 130 125.5 122.9 121.8 119.4 117.6 117.7 117.4 116.7 117.1 117.1 117.5 117.8 115.6 113.1 112.8 112.6 109.2 105.7 107.6 108.4 108.4 111.6 111.4 111.9 112.5 126.3 139.6 145.3 150 153.8 161.6 171.8 191.8 211.6 233.6 257.7 281.9 305.2 326.3 338.6 339.8 341.3 340.6 338.3 336.4 334 330.5 325.3 318.2 310.3 301.3 294.6 293.2 287.5 270.9 256.2
362.2 369.6 377.3 385 392 397.5 399.3 401 401.6 401.7 401.8 401.7 398.8 395.9 393.3 391.4 390.7 389.9 389.1 388.2 387.1 388.9 390.9 392.7 397.6 399.1 403.7 408.8 413.9 419 425.2 427.9 428.4 427.7 426.8 426.2 426.4 426.9 426.9 426.3 425.4 424.5 423.6 422.3 420.9 418.4 415 411.8 408.6 405.3 400.3 395.9 391.7 388.9 387.2 385.1 373.1 349.9 313.5 275.2 249.1 275.9 308.6 334 355 370.5 373.9 369.4 345 316.2 315.6 337.8 361.7 380.9 397 403.5 407.5 409.2 410.4 411.6 411.5 413.6 414.2 415.1 412.9 410.4 405.4 397 388.9 382.2 374.7 368.1 361.6 356.1 348.3 340.8 328.9 329.5 326.2 320.2 311.2 295.1 251.8 262.3 281 303 329 338.4 338.6 334.7 324 305.2 281.6 254.3 238.1 218.5 195.6 179.5 155.6 149.7 148.3 150.8 160.3 174.7 197.5 211.5 212.1 211.7 213.2 215.4 211.2 195.7 181.9 182 173.1 160.4 153.9 149.3 144.7 140.1 136.1 132.4 130.3 125.9 121.5 119.5 118.3 117.6 117 116.9 115.8 113.2 113.4 113.8 114.9 115.3 112.6 112.3 112.2 109.9 107 106.5 107.9 108.1 107.8 110.6 110.2 110.7 110.7 130.2 139.4 145.3 149.5 153.1 158.1 168.9 187.1 207.2 231.3 255.5 279.5 301.6 320.4 331.9 334.7 334.6 332.4 330 328.2 326 322.3 316.6 309.4 301.8 293.3 292.2 291.7 285.3 264.7 253.3
363.4 371.9 380 386.7 391.7 396.1 398.5 400.1 400.3 400.7 400.2 398.6 395.5 392.5 390.2 390.1 389.7 389.1 388.5 388 388.1 389.9 392.4 395.8 400.3 405.5 411.1 416.2 421.2 426.3 428.8 430.2 430.3 429.5 428.7 428 427.5 427.1 426 424.9 423.9 423 422.1 420.9 418.8 416.6 413.4 410.2 407.2 403.6 398.7 392.8 388.9 385.1 386 378.4 359.2 326.4 298.6 264.4 241.3 281 314.5 339 361.4 372.7 370.1 351.7 323.3 300 321.9 345.3 367.6 386.1 396.4 401.5 405.5 407.7 410.3 411.1 408.7 410.5 411.9 413 411.5 409.1 403.4 398 391.8 385.4 379.7 375.1 369.2 361.2 354 343 338.2 337 331 323.2 310.2 280.3 234.6 228.7 261.1 282.2 316.2 330 336.1 330.3 316.6 296.7 271.6 251.1 232.3 214.5 194.4 177.5 156.2 148.6 148.1 153.1 163.2 175.7 200.7 204.8 206.8 204.6 204.9 199 191.7 185.5 181.6 176.6 166.7 155 147.3 144.7 140.9 135.6 131.2 127.2 124.5 119.8 114.7 113.4 109.9 116.8 116.4 115.6 113.6 110.8 110.2 110.7 111.7 112.6 112.5 112.2 111.8 108.3 107.2 106.5 107.3 107.6 107.6 109.2 108.9 108.8 122.9 136.5 140.7 145.4 149.8 153.5 158.5 171.1 188.4 206.8 229.1 254 276.8 297.6 316 329.6 331 329.3 324.3 321.6 319.7 317.3 314.1 308.1 300.7 293.4 288.9 289.1 288.7 280.5 259.1 250.1
365.9 373.9 380.4 385.7 391 395.9 398.2 398.6 398.9 399.1 397.4 395.7 392.4 389.4 388.2 386.8 388.2 388.4 388 388 388.8 391.9 394.7 398.5 403.4 409.1 414.7 420.1 425.6 429.3 430.2 431.1 432.2 431.4 429.7 428.6 426.8 425.7 424.7 423.6 422.6 421.5 420.3 418.4 416.7 414.5 411.7 408.7 405.8 401.9 397.8 391.7 385.4 372.3 373.8 358.7 348.6 303.5 270.9 242.5 249.1 287.2 321.4 342.2 367.6 368.9 362.7 338.9 307.4 297.1 320.3 345.6 368.7 383.4 393.3 398.1 401.4 403.7 404.5 400.7 401.6 405.2 409.3 410.1 410 409 405 399.7 394.6 389.7 384.5 378.7 371.4 363.9 355.9 346.5 343.3 340 331.6 323.3 305.5 262.4 216.6 214.8 245.3 257.9 288.3 319 326.5 323 310.3 283.6 261.1 246.5 224.5 207.5 193.5 173.7 157.5 147.1 145.8 153.5 164.3 176.2 184 187.5 189 193.6 191.9 185.4 182.9 179.9 176.5 172.3 160.2 148.4 143.3 141.6 137.7 130.5 125.8 122.2 114.9 101.7 100.3 101.1 101.6 101.2 113 113.3 112 110.1 109.9 109.7 109.2 109.8 110.8 111.7 111.7 108.1 107.5 106.3 106.5 107.8 107.8 109 111.5 129.1 134 137.7 140.8 144.9 149.7 154.6 160.9 173.7 188 205.4 226.7 253 275.4 296.5 313.7 323.6 326.7 322.1 317.3 313.1 310.9 308.4 305.6 299.9 293 286.5 285.7 285.3 280.6 272.5 254.8 245.8
364.1 371.3 379.7 385.1 390.5 394.7 396.4 397.9 397.9 396.9 394.7 392.8 389.5 386.7 384.4 383.1 385.2 386.4 388.1 388.6 389.9 393.4 397.9 402.1 407.6 412.6 418.2 423.7 429 430.7 431.5 432.5 433.3 431 429.1 427.3 425.4 424.3 423.3 422.2 421.2 419.5 417.2 415.1 413.3 411.6 410.4 407.4 404.2 400.2 396.2 390.8 385.6 371.9 341.2 329.4 327.9 284.7 246.6 242.3 274.4 300.9 327.2 339.7 348.7 352.5 353 328.8 297.8 280.1 303.9 330.5 361.9 379.6 386.1 392 394.5 395.5 392.4 388.7 395.2 400.3 404.4 407.4 410 409.7 406.7 401.9 397.1 392.4 386.9 380 372.8 365.3 358.3 351.3 345.9 339.2 331.6 322.1 292.9 247.7 207.4 195.6 215.5 234.3 264.2 288.2 301.6 307.7 291.8 264 250.1 236.6 219.6 204.4 189.7 175.5 163.7 147.8 140.2 149.3 158.9 170.9 174.3 176.9 178.8 180.8 182.5 179.3 178.6 175.2 171.2 161.9 152.2 142.7 139 136.3 132.7 125.9 121.5 119.7 106.5 98.7 99.4 100.4 101.4 102 107.3 111.6 110.5 109.9 110.3 110.6 109.7 107.9 108.2 108.8 110.3 106.9 106.4 104.8 106.4 107.7 108 112.7 123.1 130.2 134.7 138.2 141.2 145.1 149.4 155.1 162.1 174.7 189.2 206.4 228.5 255 276.1 295.9 309.1 318.5 320.7 317.8 312.4 307.1 303.4 301 298.8 293.4 287.6 282.8 281.7 279.2 270.7 262.6 249.6 243.3
361.7 368.6 377.4 385.3 389.8 392.5 394.2 395.8 397 394.1 391.7 389 384.4 381.1 381.3 381.1 382.5 384.5 386.7 389 391.2 395.7 400.6 406.8 412.3 417.6 422.2 427.4 431 432.1 433 433.8 432.6 429.7 427.2 425.9 424 422.9 421.8 420.8 418.9 416.7 414.1 412 410 408.3 407.4 405.3 402.4 398.3 394.3 391.1 386 374.3 344.1 308.7 293.3 266.2 229.5 258.4 285.8 303.3 313 323 330.4 332.7 332.1 322.1 287.9 259.8 289.3 320.3 349.6 363.8 370.9 373.1 375.3 376.9 375.2 380.6 389 395.1 399.7 404 408.6 409.8 404.8 400.4 395.9 392.2 387.7 381.3 374 367.3 360.7 353.8 348.8 341.8 330.7 316.6 275.6 235.2 194.9 179.3 191.5 210.9 234.7 255.6 276.1 287.6 271.5 250.5 242.6 228.4 213.5 203.4 189.3 177.8 167.2 153 142.4 144.9 155 162.3 165.8 168.7 170.7 173.6 175.4 175.4 175.8 170.7 161.4 151.6 142.3 137.5 135 131.8 116.4 109.3 108.4 114 101.2 99.1 99.7 100.3 100.9 101.8 102.2 110.5 110 108.9 105.1 105.7 107 106.7 107.1 107.3 107.1 106.3 106.2 106 107.4 108.3 117.7 118.2 123.9 131.6 134.6 138.5 141.6 145.4 149.7 155.4 162.4 172.1 188.6 209 233.1 258.6 283.6 297.1 307.9 313 314.4 311.7 308.4 303.6 298.9 295.1 291.7 286.4 281.1 279.2 276.2 269.9 261.7 252.8 243.9 241.5
359.3 367 375.5 382.8 386.8 389.4 391.2 393 392.9 389 386.3 383.9 379.5 380.3 380.2 382.2 385.1 387.6 391.3 392.8 394 397.8 404.5 411.4 416.9 422.4 427.5 430.8 430.7 430.5 431.6 431.5 429.6 427.8 425.2 424.3 422.6 421.5 420.3 418.2 416.2 413.9 410.9 408.9 406.7 405 403 399.9 400 396.8 393.4 391.1 383.5 374 357.6 313.8 270.7 241.1 229.7 255.5 264.9 276.7 288.4 300.6 309.8 313.5 318.7 314.1 274.7 249.1 279.1 307.1 327.6 339.6 343.6 345.8 348.3 354 357.1 371.9 381.7 389.8 396.5 400.7 402.3 401.5 397.7 393.6 390.3 385.2 382.7 379.1 376.1 370 363.1 356 349.5 339.9 328.7 311.3 265 226.8 189.4 172.9 180.7 195.1 214.5 234 251.7 261.4 249.9 238.9 229.9 218.4 210.4 201.4 190 180 169.8 154.9 144.8 139.8 149.5 155.2 158.5 163.6 167.9 171.4 174.7 174.2 172.7 161.3 153.7 143.7 137 134.3 130.1 125.4 107.9 107 106.6 105.7 98.7 99.9 100.2 100.4 100.9 101.1 101.7 103.4 111 108.5 106 106.4 106.4 106.3 106.5 106.2 106 104.3 104.5 112.6 123.6 124.9 126.3 126.5 130.4 134.2 137 139.8 141.5 146.2 150.8 156.4 162.3 172.7 189.4 211.4 238.4 264.9 286.9 297.5 302.9 305.3 306.8 304.7 302.2 299.8 294.3 288.8 284.2 279.4 275.1 269.9 265.5 258.2 252.1 245.7 241.1 240.2
353.2 363.1 372.9 378.3 382.1 386.5 387.9 388.6 386 383.3 381.2 381.1 379.4 382.7 384.3 386.7 389.3 391.5 394.9 398.9 400.9 403 410.4 415.9 421.6 426.6 429.7 430.4 430.1 429.1 428.9 427.5 425.8 424.3 422.8 422.1 421.3 419.7 417.6 415.6 413.6 411 408 405.7 403.6 401.4 399.1 398 398.2 395.3 392.4 387.6 381 376.1 363 332.3 283 255.1 219.1 210.5 226.2 248.5 263.6 276.2 286.6 299.8 311 296.4 264 235.7 262.5 291.5 304.1 308 312.8 318.1 325.1 331.7 349.9 365.8 374.7 383 388.7 390.6 391.4 387 382.9 378.7 376.3 376.7 379.8 380.3 378.8 371.1 363.3 355.8 347.5 337.9 324.2 293.9 259.2 214.6 183.8 171.5 172.4 186.3 200.5 216.4 230.4 241 235.3 226.2 219.1 212.3 205.7 199.6 191.6 183.2 175 163.1 151.8 141.8 137.9 142.9 156.2 160 165.3 171.2 174.5 172.7 163.7 153 144.2 136.7 133.4 129.4 125.3 116.2 107.2 106.2 105.1 99.7 104.2 105.5 98.7 99.5 100.9 101.7 102.3 102.9 107.5 110.4 106 105.9 106 102.4 104.1 104.7 105.8 106.6 111.6 121.5 125.4 128.3 128.9 131.1 133.2 136.5 140.2 140.5 141.7 146.3 150.7 157.1 163.5 172.4 191.3 214.8 243.9 270.3 284.1 290 294.7 296.3 297.3 296.8 294.8 292.6 288.3 282.8 277.9 271.5 265.7 259.3 253.6 248.7 245.1 241.7 239.9 239.2
332.6 348.6 364.1 371.9 377.3 379.6 380.7 379.8 376 373.2 379.5 382.4 388.8 390.1 390 393.8 397 400.6 402.2 404.6 407.6 410.6 415.8 420.6 423.8 427.2 428.8 429.7 429.1 427.5 426.2 424.7 423.1 421.6 420.1 419.3 418.5 416.4 414.7 412.9 410.9 408.2 404.6 401.1 398.6 396.3 395.5 393.8 395.7 393 390 386.5 380.7 376 369.7 348.9 302.2 280.9 245.1 218.9 201.2 223.5 241.1 254.8 266.1 279 283 270.3 248.8 221.5 254.1 279.2 274.5 278 285.7 298.3 308.1 322.1 341.5 352.7 356 360.1 365 363.2 361.2 359.2 359.5 361.6 361.6 371.3 380 381.8 380.3 373.1 364 354.7 345.7 334.2 319.4 283.8 249.4 204.1 181.1 171.4 164 177.7 192.1 203 214.8 223.2 222.3 218.5 213.4 206.6 202.1 198.2 192.6 187.6 181.9 171.6 162.7 149.6 135.7 133.2 143.7 155.3 162.3 168.9 171.2 164.9 154.6 146.6 138 132.6 129.7 125.1 121.9 111.3 106.4 104.1 102.8 99.4 104.4 105.4 105.8 105.9 106.9 107.5 107.4 107.4 103.4 102.2 110.2 103.6 103.1 106.1 107 107 108.5 112.7 120 126.4 129.1 130.5 131.4 133.9 135.9 139.5 142.8 143 141.8 145.3 150 156 162.9 174.7 194.2 219.2 247.2 267.1 277.5 283.3 287 288.3 288.8 288.9 287 284.7 281.6 276.9 271.9 264.5 254.6 250.7 244.8 242.2 239.8 238.8 238.1 238.1
320.1 333.6 350.8 359.6 356.5 362.9 369.7 371.2 374.7 383.3 390.9 393.5 395.2 397.6 399.7 405 407.4 410 409.4 410.5 413.5 416.6 420.4 422.8 425 426.4 427.9 427.4 426.1 425.2 423.6 421.5 420.4 418.9 417.4 416.5 415 412.7 410.8 409.1 407.3 404.2 401 395.6 391.9 386.1 386.6 386.8 391.6 390 389.5 387.2 382.9 378.4 374.4 362.8 325 298.6 260.1 227.3 197.1 201.3 221.3 235.9 244.5 253.4 255.1 240.2 218.4 214.8 256.1 258.1 243.9 250 265.4 279.2 291.7 307.3 324.1 329.8 331.9 334.5 336.9 331.9 329.6 333.6 332.6 340.2 361 375.4 382.3 383.7 381 373.9 362.7 352.2 341.5 327.5 310.7 282.9 243.2 200.8 177.1 169.8 161.6 172.2 184.4 194.8 204.8 213 213.5 210.8 206.6 203.6 199.8 195.9 192 188.5 181.7 174.4 165.6 150.8 138.3 126.7 138.4 152.5 159.3 163.8 162 159.2 152 143 134.3 128.8 126.3 123.3 118.8 111.4 108 104.1 101.2 97.4 105.3 106.6 107.7 108.1 108.4 108.9 110.3 111.6 112.5 115.2 113.8 107.9 118 117.4 113.7 115 124.5 124 128.3 132 134.7 135.3 133.1 136.2 138.9 142.4 146.4 146.5 146 147.4 149.2 154.9 162.2 178.7 203.9 224.6 246.7 263.4 272.6 276.6 280 280.9 282.1 281.7 279.5 276.8 272.4 267.3 259.7 252.7 248 245.7 239.8 238.4 237 236.7 236.4 237.5
353.2 322 330.9 346.8 357.9 375.1 379.5 383.7 387.8 391.9 396.5 401.6 403.3 406.5 411.6 414.1 416.1 416.3 415.8 416.4 419.4 421.7 422.9 423.5 425.5 426.2 425.3 424.4 423.3 423.5 421 418.4 417.2 416.2 414.7 413.7 411.5 409.1 406.9 405.2 403.4 399.5 396.6 393.9 382.7 366.6 371 383.5 386.7 388.3 388.1 386.9 385.4 381.6 376.8 367.7 343.7 306 266.4 237.6 210.6 188.8 199.9 216.8 223.4 227.9 220.2 209.4 193.3 205.2 222.5 220.6 215.9 223.7 244 257.2 270.5 287.1 300.6 308.1 310.2 312.2 308.8 299.3 295.7 299.2 312.6 342.1 370.2 383.4 384.4 384 380.5 370.2 359.3 347.5 334.7 319.9 303.6 277.6 240.9 202.2 175.4 166.8 159.6 166.7 176.6 186 195.8 203.5 205.5 203.6 201.1 198.1 195.6 193 189.2 184.5 178.4 171.2 161.8 149.2 139.3 126.2 138.7 150.4 158 161.7 160.2 155 148.6 140 129.7 125.7 123.1 121.3 116.2 111.5 108.4 102.6 96 104.8 105.8 107.3 108.8 108.9 109.1 109.4 109.8 119.2 130.3 147.6 157.7 153.4 147.9 142.4 138.8 135.3 135.3 134.5 135.6 140.2 140.4 140.3 136.9 139.5 142.5 146.8 149 149.1 148.7 149.8 151.2 155.8 167.3 191.6 210.9 227.2 246.6 258.7 266.8 270.2 273.6 274.2 275.3 274.3 271.7 267 261.3 254.2 245.6 239.9 239.9 235.9 235.2 235.2 234.7 235.6 236.4 237.5
371.8 343.4 354.7 371 378.9 384.2 386.9 391 395 398.8 403.1 407.7 411.6 415.3 418.8 421 421.9 421.1 420.8 421.7 423.9 425.9 426.3 426.7 425.1 424 423.5 422.5 422 420.9 418.3 415.8 413.9 412.9 411.8 410.3 407.9 405.6 403.3 401.3 399.2 395.2 391.4 387.9 377.3 350.3 363 376.5 381.1 385.3 387.5 387.6 386.6 383.9 380.9 374.6 361.6 324 281.5 254.1 226.8 204.3 189 191 195.3 199.8 194.4 179.5 178.6 182.6 182.5 180.4 186 200.4 218.2 233.1 247.2 264.4 277.6 282.8 284.6 287.1 280.8 265.4 263.2 281.1 312.3 343.4 373.2 383.7 384.3 383.1 375.2 365.4 354.9 341.6 327.3 314.8 299.1 271.9 237.3 203.5 176.5 168.5 159.1 160.4 169.5 178.4 187.5 195 196.8 195.1 193.2 191.9 190.5 188 185.4 180.1 172.9 167.4 158.2 146.9 138.6 125.8 140.3 149.8 157.2 159.1 154.8 149.8 142.9 133.4 125.8 122.4 120.1 118.7 114.9 110.6 106.6 96 104.2 104.9 106 107.3 108.1 108.2 108.5 108.6 114 128.4 142.6 157.8 175.4 185.2 180.1 174.9 169.5 161.9 149.3 143.5 144.3 145 144.3 143 141.3 143.4 146.7 151 151.6 151.7 151.5 152.9 158.2 167.7 176.2 185.1 213.4 228.5 245.4 253.4 261.1 265.3 268.7 270.8 269.1 265.8 262.3 253.7 245.2 239.4 235.5 232.4 231 230.2 231.7 234.8 234.7 236.2 237.8 240.1
386.4 366.6 354.4 378.3 387.3 390.9 394.2 398.1 401.9 405.6 409.8 414.4 417.7 421.8 425.3 425.7 425.7 425.2 425.5 426.6 428.9 429 429 426.6 424 421.7 421.2 420.9 420.7 418.3 415.7 413.2 410.7 409.6 407.9 406.8 405.1 402.1 399.7 397.4 395 391 387 383.1 369 341.9 347.9 366.1 380.9 385.5 387.5 388.2 387.2 387.2 384.2 379.8 372.6 339.5 303 272.8 249.6 226.4 207.2 194.8 184.9 180.2 179.7 191 195.5 188.7 183.5 175.3 169.2 176.6 192.9 208.3 225.5 244.3 251.6 255.8 259.1 257.8 243.7 232.3 254.3 284.8 314 343.8 371 383.7 384.4 382.6 372.7 360.1 348 335.5 322.2 311 293.2 269 234.8 203.1 177.4 169.6 162 155.9 162 170.8 180 186.6 188.8 187.8 186.3 185.1 183.9 182.2 180.1 176.8 170.7 162.3 153.2 144 132.8 126.5 136.9 149.9 152.6 152.4 147.2 142.3 136.4 129.1 122.9 118.9 116.4 113.8 110.7 107.2 103.6 96 103.6 105.1 106.1 107.1 107.4 107.5 107.2 109.4 118.6 132.9 146.9 163.3 181 192.6 202.3 205.6 200.3 191.4 178 163.3 155.7 152.2 149.6 147.2 145.5 147.8 149.3 150.9 152.3 155.1 154.4 159.9 169.8 183.4 197 198.3 200.6 214.5 239.2 248.7 256.2 261.4 266.5 267.5 263.7 256 247.6 238.6 233 229.2 227.6 227.5 228.2 229.7 231.9 234.2 236.3 237.9 239.1 243.3
391.3 387.8 371.2 383 393.4 396.1 399.8 404.8 408.8 412.5 416.5 420.6 423.9 427.9 429.7 429.2 429 428.5 429.1 429.5 430.4 430.6 428.2 425.6 422.9 420.3 418.7 418.4 417.6 415.1 412.7 410.3 407.9 405.3 403.7 402.7 401.6 400.7 397.7 394.6 391.1 386.3 382 366.7 349.1 334.9 333.8 357.4 375.6 384.7 387.3 389.4 390.4 389.3 387.3 383.4 376.6 363.1 325.8 295.4 270.1 248.1 233.4 223.5 218.2 213.6 214.4 223.2 225.1 221.6 216.6 200.9 180.4 161.2 170.1 185.7 206.6 217.4 224.8 230.5 234.1 230.8 212.8 224.8 252.5 282.7 311.6 342.5 369.7 380.5 384.2 379.1 364.3 350 336.6 325.2 312.9 303.3 290 268.2 236.3 204.9 177.8 170.2 166 159.7 155.9 163.5 173.1 179.4 181 180.7 179.4 178.1 176.8 175.4 173.6 170.9 162.7 153.9 146 138.3 127.5 127.9 138.2 147.3 150 147 142.4 137.8 131.1 126.2 120.5 116.7 115.7 112.1 108.8 105.6 102.4 96 103.4 105.1 106.5 107.1 107.1 107.2 108 109.2 117.1 134 147.3 162.3 182.3 198 212.4 219.3 219.2 206.8 193.1 180.2 170.4 164.5 160.4 158.7 158.8 159.2 156.3 155.7 155.4 156.8 158.7 171.7 184.9 198.8 212.7 222.4 226.6 231.5 240.6 248.1 258.5 264 265.3 267.1 257.6 243.5 235.8 229.9 224.8 223.9 225.5 227.9 229.7 231 233.7 237.7 238.8 240 242.2 248.3
393.9 394.2 392 378.8 394.2 399.8 404.4 408.7 414 419.3 423.2 426.8 430.1 432.2 432.3 432.4 432.2 431.7 431.5 431.1 430.5 429.9 426.8 424 421.9 419.3 417.1 415.8 414.4 412 409.6 406.6 402 400.3 399.5 398.5 397.5 396.5 395.9 394.1 391.8 386 377.5 367.9 350.1 328.5 322.7 345 368.9 383.2 388.8 392.2 393.5 390.5 386.9 381.9 376 368.2 350.3 319.5 296.5 275.1 262 253.7 248.6 245.9 248.5 258.5 255.3 256.6 246.8 222.6 202 177.5 160.5 169.5 185.2 195 202.6 204.9 205.8 205.1 193.5 224.3 254.8 280.6 308.1 338.7 365.8 379.4 377.9 365.8 350.8 337.5 324 313.9 303.7 294.8 282.5 267.8 242.3 206.3 179 170.8 164.6 158.7 152 156.7 166.6 172.2 173.9 172.9 171.9 170.9 169.8 168.5 165.3 160.6 153.5 145.9 139.6 135.6 124.1 128.3 137.3 142.8 146 143.9 138.9 134.1 128.7 123.4 120.7 118.9 114.4 110.1 107 103.9 101.6 99.1 103.2 104.9 106.5 107 107.3 107.6 108.1 108.7 112.7 131.6 148.2 164.8 183.7 197.4 207.7 212 210.8 204.9 193.1 185.6 182.8 179.3 179.3 177.3 176.8 177.4 173.2 167.6 163.5 164.7 168.8 184.1 200.3 214.8 227.3 236.2 241.6 244.9 252 259.4 261.8 263.2 264.5 261.5 243 235.4 231.1 226.2 224.2 224.3 227.6 229.9 232.2 234.4 237.1 240.4 241.5 243.8 246.5 251.7
391.2 393.6 394.6 390 394 402.9 407.8 412.8 418 423.6 428.5 431.4 433.8 434.5 435 435 434.3 432.9 431.5 430.6 430.1 428.6 425.9 422.5 419.8 417.9 415.6 413.7 409.5 406.5 403.3 400.5 397.9 395.2 394.2 393.9 393.6 393.8 394 392.5 390.8 386.8 381.7 374.2 355.2 327 310.2 333 358.5 378.5 387.1 391.5 389.8 387.4 382.3 377 364.9 355.3 344.1 336.6 325.5 308.5 292.5 283.3 278.7 281.7 279.7 288.6 285.7 291.2 271.7 246.9 219.3 195 167.4 159.1 162.4 173.9 185.8 190.1 188.9 181.9 199.8 222.5 251.1 277.3 301.7 326.6 353.7 363.1 356.2 347.2 334.4 321.9 309.8 299.8 290.7 283.7 271.3 263.4 248.5 211.7 179.5 170.6 163.8 157.2 150.7 150.9 160.1 165.4 165.8 164.6 163.5 162.5 161.5 160.1 154.6 150.3 145.1 138.8 134.7 132.1 122.3 129.5 137.5 140 141 139.5 135.8 131.5 126.1 122 120.4 116.3 111.9 108.7 106.4 104 102.1 100.5 102.5 104.1 105 105.7 106.5 108.2 108.7 109.7 128.3 143.4 158.3 168.6 180 193.4 202.9 203.4 199.8 194.2 186.8 185.2 186.3 188.3 192.4 196.7 193.9 192.4 189.8 188.2 184.7 182.6 182.7 196.6 213.1 225.6 236.3 242.7 247.8 250 257 259.7 260.9 261.9 262.3 249.9 234.9 230.6 228.2 224.3 223.3 225.3 233.3 234.2 238.9 242 245.8 248.1 247.1 248.5 251.4 255.8
391.2 393.1 396.9 399.1 400.2 405.4 410.8 416.6 422.9 428.4 431.9 436 436.9 436.8 437.5 436.1 434.9 433.7 432.1 430.6 429.7 426.7 424.3 421.6 418.3 415.6 413.2 409.9 405.4 400.5 396.1 394.4 392.5 390 389 389.8 390.2 391.6 392.2 391.4 388.8 385.3 379.7 372.6 349.5 315.5 298.6 324.6 352.6 376.3 386.6 385.1 380.7 373.9 367.7 351.4 338.4 330.6 327.7 329.1 329 319.9 316.7 316.7 324.5 318.2 313.4 309.2 313.8 312.3 290.9 264.1 235.8 207.4 182 163.4 158.9 158.4 160.3 171.6 171.7 176.4 199.3 222 247.9 269.2 293.3 311.3 332.1 339.4 336 328.8 319.3 307.7 298 286.9 274.2 265.8 257.3 256 238.4 211.3 179 169.7 163.1 156.5 149.9 146.2 155 158.6 157.8 156.3 155.2 154.1 151.7 149.8 146.3 142.9 139 134.3 130.9 128 121.1 129.7 135.1 136 136.9 135.1 133 128.7 123.4 120.8 117.9 113.5 109.2 108.8 106.7 104.4 102.6 100.6 96.2 103.1 103.6 104.2 104.2 106.9 110.8 124.8 135.5 145.8 156 168.3 180.3 188.3 193.1 192.4 188.1 183.6 180.2 181.3 186.7 194.7 202.2 210.4 213.9 214 213 209.7 204.9 203.2 204.3 212.2 225.1 234.5 240.2 245.9 250.5 252.3 255.6 256.7 255.5 256.1 254.6 238.7 230.3 225.4 223.9 222.4 222.6 227 237.8 249.1 256.8 259.5 258.7 254.9 251.7 252.1 253.9 258.2
390.3 392.4 395.6 400.6 403.5 408.2 414.1 420.3 426.5 431.5 435.3 438.8 439.5 437.7 438 436.6 435.6 434.5 432.9 431.4 429 424.8 422.1 420.1 416.2 412.5 409.1 405.8 402.4 398.2 389.6 388.8 386.5 383.3 383.6 385.6 385.3 387.7 389.7 389.1 387.5 383.9 375.3 361.1 340.8 305.1 297.2 325.1 351 374.9 380.4 374.8 363.5 350.9 336 324.1 313.9 308.8 307.1 307.4 311 315.2 316.3 326.2 323.3 324.7 335.2 332.9 324 322.4 305.6 279.4 250.1 223.1 198.5 181.9 170.9 159 157.4 150.5 154.4 169 189.3 210.3 236.6 257.8 281.4 298.5 313.2 319.3 317.3 313 305.1 296.1 286.5 273.3 258.7 241.7 239.3 231.9 219.7 199.3 176.5 169.8 163.2 157.1 151 145.3 150.5 153.5 153.3 151.3 149.4 146.7 145.4 143.9 141.5 138.2 135 130.7 130 129.2 120.2 125.6 131.1 132.5 133.5 132.7 130 125.3 120.2 117.7 115.2 110.8 107.8 107.5 107.1 104.9 103.6 100 99.1 102.2 103.3 102.6 102.3 105.8 111.3 124.2 134.1 147.5 160.9 167.9 177.4 181.8 182.5 179.8 176 175.1 176.2 179.1 187.4 196.3 207.2 214.8 219.8 222.4 224 224.3 220.3 216.1 221.5 228.9 235.7 240.7 242 242.3 247.7 246.9 248.5 249.7 247.8 246.7 246.2 234.3 223.9 222.2 222 221.1 223.6 228.6 240.4 251.7 261 264.4 262.3 259 254.9 253.1 255.2 257.7
388.8 390.9 394 400.3 404.7 410.8 417 423.3 429.6 433.1 436.7 440.3 439.9 439.3 438.4 437.3 436.2 435.2 433.8 432.2 428.7 424.5 420 417.3 412.7 409 405.5 402.2 398.8 393.2 388.2 369.6 374.5 374.9 380.2 379.8 378.9 382.4 384.7 384.2 378.4 373.4 357.2 340.6 324.3 302.8 289.9 320.4 348.5 364 364.4 352.1 338.3 325.9 311.8 302 292.2 285.5 283 285 289.3 288.6 282 281.3 286 292.6 313.6 318.1 316.8 309.8 313.2 292.4 264.2 239.5 219 205.4 193.4 177.8 162 154.9 149.2 149.2 172 199 223.3 249.5 269.3 284.3 298.7 302.4 302 297.9 291.1 282.2 275.3 260.7 245.8 219.9 211.1 211.1 200.6 183.4 174.8 170 163.6 157 150.5 145.6 143.9 147.7 147.4 146.9 145.2 142.8 141.5 139.3 136.3 133.6 131.1 129.7 129.7 129.9 127.8 117.4 126.7 131.1 131.4 130.3 125.7 121.1 116.4 114.5 112.5 108.1 106.6 106.1 106.5 106.1 103 100.3 99.5 100 103.6 105.5 106.1 108.2 115 128.6 137.5 150.8 158.5 164.9 170.9 170.1 169.1 167.3 167.5 169.9 172 175.9 184.1 195 204.4 211.2 215 218.2 220.7 223.7 227 227 233 240.8 241.3 240 241 240.8 240.1 239.7 240.5 240.9 237.3 235.4 236.5 228.7 223.1 220.4 220.2 219.9 223.5 229.8 242.6 253.3 261.7 265.7 261 257.7 253.8 253.5 255 256.5
384.6 389 393 399.2 407.1 413.6 419.9 425.7 430.9 433.8 437.2 440.5 440.4 438.6 437 437.6 436.9 435.8 434.6 432.2 428.3 424.4 418.8 414.4 409.6 405.5 401.9 398.5 393.5 388.6 382.4 375.3 353.3 369.9 373.6 372.4 370.7 377 376.6 373.2 367.5 350.4 330.9 316.2 307.9 300.3 280.5 311.7 334.4 342.8 335.8 324.1 313.2 302.4 290 277.2 267.3 261.9 259.4 260.3 258.2 256.6 247.4 244.8 252.8 265.5 275.9 281.5 285.5 288.6 292.1 289.9 278.1 257.5 242.9 231.1 218.8 199.6 179.9 161.8 150.2 148.5 162.5 186.7 211.4 238.2 258.3 271.9 284.2 288.4 287.7 283.3 278.3 271.5 264.8 247.6 231.1 209.1 190.6 191 182.9 175.3 171.4 168.5 162.6 156.4 150.4 146.3 141.4 139.9 141.9 142.6 140.8 139.2 137.4 135.6 132.9 130.9 129.9 128.6 127.9 128.6 128.5 122.5 119.4 125.9 123.4 119.8 118 114.6 111.5 110.9 109.5 106 105.3 104.7 103.6 104.2 101.4 99.4 94.2 102 104 107.1 110.6 114.1 122.7 134.1 142.4 151.4 154.8 160.9 164.1 161.7 159.4 160.5 162.5 165.3 167.4 170.9 180.3 187.1 195.1 201.3 204.4 211.8 218.7 223.4 228.5 232.2 236.9 239.8 240 240 239.8 237.9 236 234.5 233.2 231.7 229.6 228.3 227.5 220.1 219.7 219.7 219.4 220.2 223.8 232.1 243.8 253.6 262.4 264.8 261.8 252.6 252.1 251.5 252.2 252.1
380.9 387.9 393.3 398.7 410 415.7 421.6 427.4 432.1 435.6 438.1 440.5 440.4 439.2 437.1 436.7 436.4 436 435.4 431.8 427.9 424.1 418.6 412.5 407.4 402.6 398.4 394 389.9 389.6 382.5 370.4 356.7 349.4 359.5 353.2 349.3 357.9 360.8 355.9 342.9 324.7 308.3 295.3 287.3 280.6 275.7 294.1 308 311.5 304.8 296.6 287.2 279.2 268 254.5 249.3 249.1 253 246 244.2 243.9 239.1 219.7 220 239 242.5 250.5 257.3 264.5 268.8 274.9 276.3 271.2 264.8 255.4 238.1 216 192.2 166.5 152.2 148.5 151 176.5 200.7 224.2 246.9 260.2 269.5 275.4 274.8 273 271.1 264.8 251.8 231.7 207.4 193.6 185.1 178.9 174.8 172.3 169.2 165.8 161.2 155.4 150.2 145.7 141.6 140.1 138.5 138.5 136.3 134.6 133.3 131.5 129.5 128.2 127.2 125 124.2 122.4 121.2 122.8 120 115.6 114.5 115.6 115.8 117.5 113.2 110.2 109 106.8 100.3 102.2 102.7 102.4 100.3 92.9 101.3 101.8 104.9 108.1 114.8 118.5 127.8 137.4 144.3 148.7 152.4 156.6 155.4 155 155.5 157.7 159.8 160.6 164 169.4 175.4 182.5 185.8 190.6 200.5 209.2 217.9 223.6 228.8 231.4 234.3 236.5 236.9 236.7 236.5 234.7 232.8 230.7 228.2 225.7 224.8 224 221.9 219 219 217.2 219.7 222.2 225.1 232.8 243.9 254.4 260.8 259 253.6 246.1 248.4 249.2 248.3 247.8
380.8 386.9 393 398.4 409.6 416.9 422.9 428.9 433.7 437 439.1 439.1 437.9 438.7 437.1 436.7 436.4 436.1 435.2 431.8 428 423.3 417.3 412.1 406.3 401.8 399.2 397.7 393.8 394.7 392 384.3 371.7 352.8 340.2 334.2 329.3 330.4 333.8 330.6 315.6 300.1 299.7 303.5 305.9 312.9 282 268.8 282 283.7 277.7 273.7 268.4 260.7 254.8 255.9 262.1 266.6 272.8 275.6 269.6 271.2 257.5 246 212.5 198.5 209.5 222.4 233.4 241.2 249.4 257.5 263.8 271.1 270.3 263.9 250.9 226 198.1 172.9 156.9 149.8 149.5 165.9 189.2 211.4 231.9 246.4 256.4 263 265.5 266.9 264.7 259.1 247.6 223.8 210.6 202.6 187.8 179.5 176.1 169.3 163.6 161.4 157.2 153.6 149.1 143.8 141.8 139.1 137 137.3 133.3 130.2 130.6 129.6 128.6 128.1 126.6 124.8 123.4 126.1 131.8 136.3 136.6 132.6 129.4 122.1 120.2 120 116.6 112 107.8 99.8 99.4 100.1 101.2 100.1 91.5 101.1 101.1 103.4 107.7 116.4 118.2 120.8 130.3 136.8 141.6 146 149.4 150.4 150.6 150.8 152.2 154.5 156.9 159.8 163.6 166.8 170.4 178 181.8 191.3 201.6 210.9 217.5 223.5 227.3 229.9 232.2 233.4 233.6 233.1 232.9 231.6 228.6 227.5 224.8 223.3 222.2 221.3 219.5 216 215.3 218.9 222.1 224.7 227.8 235.6 246.2 255 257.8 254.7 244.4 241.9 244.7 245.8 243.7 239.3
379.9 386.1 392.3 398.9 408.4 417.8 424.2 430.5 435.4 439.2 439.6 438.6 438.7 437.6 437.3 436.8 436.8 436.7 434.6 431.3 428 421.6 415.6 410.4 409.3 405.4 403.7 403.7 402.2 400.7 396.2 391.9 382.9 373.1 364.7 356.6 349.1 331.8 320 311.9 307.7 315.6 322 324.9 336 334.8 304.4 282 269.6 266.5 260.4 259.1 258.7 258.7 263.6 274 277.3 283.8 299.4 305.2 303.2 293.6 281.9 274.7 238.4 205.2 186.3 193.8 209.1 219 229.4 239.2 251.6 256.7 257 254.8 246.6 226.9 200.7 177 161.2 150.2 148.1 155.7 176.9 198.3 217.6 234.8 245.4 252.9 257.1 259 259 257.2 247.8 237.5 226.4 216.9 204.9 186.3 175.9 167.6 160.6 158.6 154.4 151 147.1 143.5 140.8 138.2 136.1 136.8 135.6 133.8 132.7 131.6 130.5 129.2 128 129 131.9 139.8 146.2 150.5 143.9 136.5 129.4 125.1 122.8 120.4 116.4 111.5 103.2 99.9 99.5 99.3 99.4 98 100.5 99.7 102.7 106.2 114.8 116.7 118.6 120.8 128.1 132.1 135.5 139 141.1 143.7 146.7 147.1 148.7 151.1 154.2 157.7 160.3 163.4 166.8 173.8 183.9 194.7 206 214.7 219.5 223.9 226.4 228.5 229.9 231.1 232.4 230.6 229.8 225.8 223.2 224 222.3 220.8 219.7 218.5 217.2 215.9 216.1 220.4 223.7 226.6 230.5 238.6 247.9 254.9 257.2 252.6 241.8 238.4 240.3 241.9 235.6 230.3
378.9 385.3 391.6 398.5 406.4 416.8 425.1 432 436.9 440.7 440.9 438.7 438.6 436.8 436.4 437.7 437.5 436.2 434.3 431.9 428.6 421.8 416.4 411.9 410.3 412.3 410.8 411.3 412 409.4 406.6 402.8 398.1 394.8 390.2 384.4 376.3 361.7 346.4 344.2 338 339.4 344.7 349.3 354.6 357.3 332.3 306.8 291.4 277.7 273.5 266.5 268.2 274.2 284 289.2 293.9 307.5 327.3 332.1 330.4 319.5 308.1 297.4 253.9 222.9 195.6 179.3 185.3 196.1 208.2 223 238.5 243.8 243.9 240.5 233.4 220.8 198.8 181.2 165.7 155.3 144.4 142.9 164.7 185.3 202.7 221.4 234.3 243.1 249 253.8 253.2 252.7 251.9 247.2 236.9 230.3 221.8 199.8 185.5 170.9 159.3 155.9 151.5 147.6 145.5 143.3 141 138.7 136.4 136.1 135.8 134.3 133.2 131.7 130.1 130 131.3 137.3 146.3 155.5 159.6 153.8 144 136.4 129.9 126.4 123 119.6 115.7 110.4 98.2 98.8 99 98.8 97.4 100.2 103.2 104.9 106.3 107.1 112.5 115.1 117.4 119.4 122.4 126.2 130 132.7 135.7 138.1 140.4 142.7 145.7 148.8 152.2 156.2 158.3 163.5 168 176 188.5 202.3 212 218.2 222.1 225.1 226.3 226.5 226.5 228.2 228 226.2 223.3 219.3 220.1 220.1 219.8 218.4 217.3 217 216.6 214.3 216.8 221.5 225.5 229 233.2 241.3 249.2 254.5 256 248.9 239.7 235.3 235.3 235.5 228.9 223.4
372.8 383.1 389.8 397.2 405.8 414.7 423.5 430.4 434.5 437.7 437.9 435.9 434.9 435.1 435.1 436.5 436.2 435 432.9 430.9 429.9 424.3 421 417.8 417.2 420.1 417.5 416 416 415.8 415.4 412.6 410.6 409.2 405.5 400.4 393.5 383.8 374.7 370.5 363.4 362.8 373.3 375 371.9 373.7 366.1 335 314.3 298.3 284.7 272.7 280.2 291 301.7 305.8 314.5 331.4 349.7 350.1 346.4 338.6 329.5 302.4 266.7 233.8 204.1 185.5 168.9 174.6 188.1 204.2 222 225.9 227.2 225.5 218.6 204.5 191 180.4 172 163.8 145.9 138.9 152.8 171.6 189.2 206.4 219.2 232.7 239 242.5 246.1 249.6 250 247.3 239.9 231.5 219.3 197.8 184.1 169.8 158.8 152.4 148.8 145.8 144.5 143.2 140.5 137.9 135.3 133.8 133.7 134.6 133.3 131.1 129.3 131.5 138.8 145.5 154.5 158.7 160.5 151.3 141.5 135.4 130.7 126.3 122.1 118.6 114.1 106.3 97.2 97.7 98 94 99.7 101.9 104 106 106.4 107.1 111.7 113.9 116.1 118.3 120.1 121.2 125.3 129.4 132 134.8 137.6 140.5 143.7 146.8 150 153.8 157.4 164.7 173.9 183.9 194.8 207.9 215.4 220 223.4 225 224.8 223.6 222.9 221.1 220 220.5 218.4 216.9 216.7 216.5 216.3 216.2 215.9 215.6 214.7 214.6 219.7 223.6 226.9 230.4 236 243.8 250.5 254 254.4 249.2 239.6 233 230 229 222.3 217.4
367.5 380.1 387.4 395.1 403.5 412.8 420.6 428.2 431.8 433.9 432.6 431.7 432.8 433.4 434.5 437.1 437 436 434.4 434.9 431.2 427.9 424.5 421.8 420.4 421.6 420.4 419 420.7 421 421.3 421.1 419 415.6 410.4 405.9 400.3 395 389.5 386.6 384.8 383.8 388.1 384.4 381.8 382.5 376.4 357.5 331.3 305.8 290.7 291 298.4 307.5 317.2 324.7 333 345.6 360.3 361.5 356.9 350.2 338.9 308.4 272.5 240.5 215.9 196 175.4 168.3 170.4 185.7 201.4 206.5 208.1 206.8 199.8 191.1 179.4 171.9 174.9 168.8 152.6 138.9 142.9 159.4 176.3 192.5 203.7 214.4 225.7 228.7 232.5 240 240.8 240.1 232.6 218.5 204.1 190.9 177.5 164.5 158.4 149.8 145.7 143.6 142.6 141.4 139.4 136.8 134.3 131.7 131.8 132.7 132.6 130.2 131.6 138.5 146.3 152.7 158.4 160.8 158 150.5 142.2 136.3 132.5 128.2 123.7 119 111.8 101.8 95.2 96.6 92 99.2 100.2 102.5 105.5 105.9 106.5 107.4 110.2 112.3 114.7 117.1 119.4 120.3 124.8 128.1 130.9 133.7 136.5 140.3 142.7 145.4 148.2 152.8 160.1 170.6 180.8 190.1 201 211.4 216.2 220.1 221.2 219.6 217.4 218.8 219.1 217.7 217 216.3 213.8 213.7 213.8 214 214.1 214.2 213.8 213.6 209.7 215.5 221 224.4 227.8 231.1 237.4 244.8 250.6 254 252.2 248.6 243.1 231.9 226.3 222.9 219.7 215.4
363.7 374.2 383.9 391.7 401.1 411 420 425.5 427.3 428.2 427.6 428.1 428.7 430.4 431.9 433.8 435.5 436.7 437.4 435.8 430.8 428.8 426.4 424 423 422.4 421.8 422 423.7 425.6 424.6 424 423.2 418.7 412.7 407.8 403.6 399.3 396.5 395.5 395.8 395.8 392.9 387.9 385.9 384.2 373.9 355.4 327.3 303.9 299.3 307 316 325.9 333.9 341.4 348.1 358.5 367.5 368.5 365.3 359.2 348.5 310.3 276.9 254.1 231.7 209.8 188.2 169 160 168.6 182.6 187 186 187.2 183.8 175.8 168.6 162.6 160.8 158.3 152.7 140 138.9 147.2 162.3 179.3 188.9 198.5 206.3 212.4 218.2 225 226.9 222.1 212.6 203.1 191.5 182.2 172.1 161.1 155.7 149 142.8 140 140.6 139.6 138.4 135.9 133.6 131.3 130.4 130.7 130.8 129.5 135.4 144.8 152.1 156.5 161 160.4 154.2 148.1 141.8 136.2 133.2 130.1 125.5 117.1 108.8 96.4 96.2 94.7 98.6 99 100.8 102.1 104.9 105.6 106.3 106.9 108.2 110.3 112.5 114.7 117.4 120.6 123.8 127 129.9 132.6 135.3 139.6 142.5 146.1 151 157.7 166.5 177.6 186.1 195.6 202.3 207.8 211.3 213.5 212.3 209.7 210.7 212.1 215.5 215 214.6 213.3 212.5 211.6 211.7 211.8 212 212.2 211.6 211.3 210.8 216.8 221.6 225 228.5 231.8 237.6 244 250.5 252.6 250.7 245.3 239.9 231.9 224.3 219.7 216.9 213.6
358.7 365.9 377.9 388.5 397.7 407.6 418.3 422.8 422.9 423.5 424 424.6 425.2 426.2 427.1 428.7 430.4 432.3 435 433.5 430.3 427.9 425.7 424.1 422.7 422.4 422.2 425 427.3 427.8 427.1 424.7 421.7 415.8 410.1 404.8 401.7 400 400.5 402.8 402.3 399.1 395.1 390.7 387.5 377.8 364 341 318.1 312.5 316.8 324.3 332.4 340.4 349.1 358.5 365 375.8 383.3 379.2 373.4 367.5 353.9 321 296.7 275.5 250.8 224 203.9 185 165.9 159 164.2 168.7 171.2 170.7 168.3 164.2 158.6 154 152.3 148.6 142.2 141.2 138 138.9 145.8 163 175.2 183.4 190.8 197.1 203.1 206.3 207.2 203.7 198.6 188.9 182.8 174.3 165 158.1 152.3 147.3 141.5 137.9 138.5 137.7 136.1 134.6 133.2 132 131.1 129.6 129.3 131.3 139.7 148.8 153.4 157.6 160.9 156.9 150.3 144.7 139 135.6 132.1 128.3 123.3 114.9 104.4 89.1 97.9 98.4 99.1 99.1 100.7 102.4 103 105.3 105.1 105.8 107.1 108.4 109.9 112.6 117.6 120.5 122.8 125.9 128.8 131.6 134.5 138.7 145.6 152 158.4 166.2 175.1 181.2 187 194.6 198.8 202.8 206.4 206.1 205.7 206.1 207.1 210.6 212.3 212.2 212.1 211.1 210.6 210.1 209.6 209.7 209.9 210.1 209.6 210 213.4 218.5 222.2 225.5 228.5 231.6 237.9 243.7 250 251.3 247.4 241.6 236.9 232.1 223.6 216.2 212.5 210.9
352.2 359.2 369.3 381 393 403.4 413.2 417.9 420.1 420.6 421 421.6 422.2 421.6 421.7 423.3 424.7 426.2 430.1 428.8 427.1 425.6 424 422.5 420.9 420.6 421.5 424.8 427.8 428 427.8 422.2 416.4 411.2 401.4 398.4 397.9 400.9 403.9 405.2 403.9 400.5 396.9 392.7 384.7 372.7 350.7 334.6 327.8 332.6 339.6 343.8 348.7 356.4 365.1 373.5 385.9 396.8 392.2 387.7 382.8 375.8 365 338.1 321 297.5 270.6 244.9 221.8 201.1 182.1 164 158.7 159.8 159.5 158.3 156.6 152.4 150.5 148.7 148.1 149.9 151.4 151.1 142.3 137.3 138 146.6 159.4 169.9 178.6 184.8 187.6 191.1 190.7 188.7 185.2 180.8 174 166.6 159.3 153.2 148.6 143.7 138.9 135.8 135.7 135 133.8 132.3 132.2 132.2 131.2 129.1 129.4 131.9 140.9 149.1 153.9 158.6 159.6 157.3 151 143.7 137.9 135.1 132.4 128 122 113 99.8 97.7 99.1 100.2 101.3 102.3 103.8 103.1 102.1 105.3 104.2 105 107.5 109.2 110.6 114.2 118 120.4 122 124.9 127.8 130.8 135.9 141 150.4 158.1 163.5 171 177.3 182.7 188.3 193 195.7 197.8 200.2 200.5 202 203.1 204.1 209.7 209.1 209.6 209.5 209.1 208.6 208.2 207.7 207.6 207.8 208.1 209.4 211.5 215.4 219.2 222.2 225.2 228.3 231.9 238.7 244.4 249.7 246.6 240.6 236.3 233.5 229.8 221.9 213.4 208.3 205.5
345 351.7 362.4 376 388.2 399.2 407.4 413 418.1 418.8 418.8 418.8 418.5 417.8 417.9 417 418.2 418.8 420 421.8 421.3 420.9 419.1 418.4 418.7 419.2 421.1 423.6 427.2 426.5 422.6 414.9 404.7 394.1 386.6 391.6 399.6 400.7 403.9 405.5 403.8 400.9 397.7 392.4 385.1 370.1 357.6 348.7 348.5 354.2 359.6 364.4 368.6 375.9 382.7 392 405.9 405.1 400.3 394.4 387.9 382.7 373.9 360.6 344.9 322.1 297.4 266.8 241.9 218.4 199.9 183.5 169.5 158.4 158.3 150.2 149 149.3 149.8 154.7 161.1 164.7 161.5 155 151.8 139 134.3 136.5 144 154.1 164.8 174.5 175.8 179.3 180.7 179.4 176.5 173.1 167.2 160.6 154.1 148.5 144.2 140 135.7 132.7 132.4 131.6 131.4 131.7 131.8 131.4 129.6 128.6 129.1 132.3 141.3 149 153.3 157.6 159.6 160.7 155.7 144.7 137.3 134.6 132.7 127.3 120.8 113.3 93.1 98.6 100.2 100.9 101.9 102.9 103.9 104.6 105 105.4 106.1 107 107.6 109.3 112.4 115.7 118.7 122 123.6 125.7 129.5 133.1 136.6 142.4 151.3 160.2 165.3 173.1 178.8 183.7 187.9 190.8 196.1 193.2 199.9 200.6 201 200.7 199.9 204 204.5 205 205.5 206.2 205.5 204.8 204.1 205.6 206.1 207.2 209.3 212.5 215.8 218.9 222 225.1 228.1 232.3 239.4 244.7 247 241.4 235.4 228.5 227.8 224.3 217.1 209.1 205.4 201.2
336.9 344.4 356.7 374.5 388.9 400.5 410 413.9 417 417.3 417.3 417.3 417.3 417 416.9 415.4 411.9 410.6 412.3 413.4 412.1 411.6 413.7 412.7 413.3 415.1 418 420.8 423.6 421.2 415.8 398.2 381.2 371.4 379.1 394.6 398.9 400.4 402.5 404.2 402.1 400.1 397.5 392.6 387.4 381.7 374.1 369.1 368 370.7 373.8 380.8 387.3 394.1 398 405.2 411.1 408.2 400.9 397.8 392 386.9 380.5 372.9 367 352.9 318.6 288.2 266.1 243.8 221.2 203.6 193.1 182.9 176.1 171.6 170.5 170.3 175.2 180.3 185.1 180.9 180 171.3 160.7 152.1 137.2 133.8 134.7 139 150.2 160.3 165.2 169.9 170.4 170.1 168.8 166.1 162 155.3 148.8 144.3 140.9 136.8 132.3 130.2 130.3 130.2 130.6 130.9 130.7 129.7 128.2 128 128.7 131.7 139.2 144.2 151.6 158.9 164.2 165.4 160.1 147.5 139.3 134.6 133.1 126.6 120.2 114 90 98.7 100.2 101.1 102.2 103.4 103.9 104.5 104.9 105.3 106.3 106.9 107.5 108.8 111.6 116.4 118.9 122.5 125.5 127.5 130.1 134 137.9 144 154.6 163.9 168 171.1 178.6 183.9 189 190.5 191.5 191.5 199.1 199.6 199.9 199.3 198.8 198.9 199.9 200.5 201.2 201.9 201.9 201.2 201.1 202.3 204.3 206.5 209 212.1 215.2 218.2 221.3 224.3 227.4 232.5 240.4 246.6 244.5 238 228.1 221.5 220.9 216.7 211 205.9 202.6 200.7
332 346.1 362.7 380 392.5 402.2 409.5 413.4 415.3 415.7 416 416.1 416 415.3 413.8 410.7 406.9 402.5 402.9 405.2 402.3 401.5 405.6 405.9 406.8 409.3 412.4 414.7 414.8 407.7 393.1 375.6 354.1 365.6 378.9 390.2 392.8 396.6 399.7 400.9 400.2 396.6 395 392.2 390.8 388.2 384.6 381.4 381.5 381.5 385 390 396.6 399.4 403.7 411.1 410.9 405.8 399.9 396.6 393.6 389.9 383 377.5 375.5 371.8 342.7 315.7 291.3 265.7 241.6 228.1 217.9 210 202.6 198.5 196.6 200.5 196.5 200.5 204.4 199.9 191 181.9 171.4 162.5 153.2 139 133.4 132.2 135.6 144 151 156.8 159.7 161.2 161.7 159.2 155.1 150.3 144.5 139.9 135.8 132.6 130.8 129.6 130.6 129.6 129.9 129.6 128.7 127.8 126.9 127.6 128.3 133 140.6 145.8 155.3 167.5 170.7 168.8 160.4 147.1 137.7 134.8 132.2 127.3 122 112.4 92.1 98.8 100.3 100.9 102.7 103.7 104 104.4 104.8 105.2 106.1 106.6 107.3 108 110.8 114.1 119.5 123.5 131.1 131.7 131.8 134.6 138.4 141.7 156.3 165.1 164.3 164 169.1 178.2 179 182.6 188.8 193.8 199.8 200.6 200.4 198.5 197 196.8 197.6 198.2 198.7 199.3 200.1 199.4 200.1 201.4 203.9 206.3 208.8 211.7 214.6 217.5 220.5 223.6 227.2 233 241.5 247 241.4 232.5 221.6 215.3 214.9 210.4 205.5 201.8 199.1 198.4
334 349.8 366.3 380.8 395.3 402.4 409.1 411.7 413.2 411.6 411.8 412 411.2 411.1 408.3 404.1 400.9 394.4 391.4 394 394.3 393.6 396.2 397.6 399 401 404.9 404.4 398.3 379.7 362.6 347.6 349.4 367.9 378 383.2 386.6 391.5 394.7 396.3 395 392.5 391.6 390.7 389.7 389.3 390 390.6 390.6 390.5 392 395.5 398.3 400.4 405.7 409.2 409.4 404.4 398.8 396.6 392.9 388.3 381.9 377.7 377.2 373.4 363.3 343.2 316.6 289.8 277.9 266.6 256.3 248 238.1 229.9 230.2 231.4 232.6 232.8 231.7 229 219.5 201.9 185.7 175.4 161.7 150.6 139 132.8 128.7 130.3 135.6 142.1 147.7 151.7 154.5 152.7 150 144.6 140.2 136.3 131.4 129.9 129.2 128.9 130.1 129.5 128.8 127.7 126.9 126.4 126.5 127.6 128.5 133.5 140.5 154.8 166.9 175.7 177 173.5 161.4 145.8 137.3 133.7 130.5 126 121.5 114.1 94.8 98.6 100 100.4 103 103.7 104 104.3 104.7 105.1 105.7 106.4 107.1 107.8 109.6 111.4 119 135.2 139.4 133.4 134.4 136.8 140 143.1 155.3 151.4 162.1 177.9 179 179.9 187.9 193.5 197.8 202.7 207.3 206 202.5 199.4 197.3 196.6 196.1 196.4 197.3 199 198.9 199.7 200.1 201.2 203.8 206.2 208.6 211 214 216.9 219.8 222.9 227.5 234.4 241.9 243 234.9 223 213.8 209.5 208.7 205.6 201 197.7 195.8 194.3
335.4 354.7 370.5 382 394.5 402.9 407.2 410 410.5 407.9 405.9 403.6 400.7 401.7 398.5 386.3 383.7 381.3 380.3 385.5 384.7 384.9 388 389.7 391.7 392.5 393.6 382.5 364.9 350 335.7 336 349.4 363.3 372.8 376.6 380.3 385 388.9 389.3 388 387.8 388.7 389.3 389.2 389.3 390.3 391 391.4 393.8 397.4 399 400 401.4 402.1 404.8 404.4 401.2 397.2 395.3 390.1 382.3 376.7 375.4 370.9 360.6 348.1 332.1 322 313.3 311.5 301.7 290.3 276.7 266.6 259.4 254.7 256.7 257.2 256.2 252.3 247 234.5 224.2 205.1 190.1 180.9 167.5 153.8 143.9 133.8 126.4 128.2 133.6 138 143.7 148.1 146.7 145.1 142.2 137.7 133 128.5 128.8 129.2 128.2 128.3 128 127 126.1 125.6 126 126.1 127.8 130 135.4 148.8 168.2 179 183.9 183.9 179.2 169.8 153.3 139.9 135.2 130.6 125.7 121.3 113 96.5 98.2 99.6 99.6 100.6 101.5 103.9 104.1 104.4 104.9 105.6 106.3 106.9 107.6 110.3 120.7 136 152.5 145.3 137.9 136.6 139.4 143.8 149.1 152 161.2 172.7 180.7 185 191 193.7 199 203.6 208.5 211.2 210.4 205.1 201.5 199.1 197.9 197.5 196.7 197.8 196.7 197.3 199.3 200.3 201.3 203.5 205.6 207.7 210.3 213.1 216.1 219.1 223.4 228.4 234.7 240.7 237 229.8 215.3 207.8 204.8 203.8 200.3 197.2 195.4 193.4 191.8
335.5 357.4 373.3 386 396.2 400.7 405.1 408.2 407.9 403.8 397.8 392.9 389.3 385.6 380.4 370.3 361.8 365.4 372.8 375.7 375.4 379.5 382.3 384.5 382.6 378.1 371.4 352.1 339.3 325.3 325.7 336.3 347 355.5 363.9 369.1 373.8 376.8 379.8 380.1 380.8 383 381.9 382.5 388.9 389.4 390.2 391.5 392.9 395.2 397.7 398.9 398.5 397.2 398.3 398.8 397.9 395.5 393.6 388.7 381.2 373.5 368.6 358.7 350.1 339.8 330.7 321.8 315.3 320.7 327.7 328.2 317.4 300.8 293.2 284.3 282.7 275.9 273.9 267 260.2 252.7 241.4 232.6 223.8 201.8 197.7 186.4 171.4 156.5 144.8 132.6 126.7 128.4 130.4 138.8 141.9 142.1 140.9 139.8 135.4 130.9 126.7 126.3 127.7 127.5 126.9 126.5 125.8 124.7 123.4 125.3 125.8 128 132.4 139.9 159.4 174.9 183.8 188.7 189.2 183 173.6 158.5 146.1 135.9 131 126 121.1 111.8 97.6 98.1 99.8 100.6 101.5 101.7 103.9 104 104.2 104.2 105.6 106.7 107.5 108.2 119.7 133.8 154.3 162.2 146.9 142.1 138.9 141.7 147.6 154.8 164.1 172.6 178.3 181.4 186.6 190.6 198 203.7 208.6 211.3 212.4 209.6 206.4 203.7 201 199.5 198.8 198.5 196.5 194.6 196 198.8 198.9 200.5 202.6 204.7 206.8 209.5 212.3 215.2 219.3 224.3 229.3 235.3 238.4 232.6 223.6 211 205.4 201.6 198.7 196 193.6 191.4 190.8 189.7
334.9 359.8 374.8 387.4 395.8 400.2 403.8 406.3 403.4 395.3 384.7 378.3 373.3 364.8 358.5 344.2 332 349.4 359.9 367.7 371.4 375 376.2 378.6 375.7 366.7 343 323 306.7 299.9 308.9 332.7 341.3 351.1 355 360.7 365 368.5 370.7 372.3 374.6 376.5 377.5 380.2 385.5 389.5 391.7 393.4 394.8 395.1 397.1 395.1 392.1 387.4 388.5 388.3 389.2 388 384.7 376.9 368.2 364.2 351.7 335.3 325.8 318.1 312 307.7 309.1 319.4 329.8 336.9 337.1 322.7 307.5 296 290.3 282.6 275.8 270.3 263.7 255 245.5 239.5 234.8 220.8 215.9 208.1 191.6 174.6 163.3 149.9 137.8 130.6 127.7 129.7 133.5 135.2 135.4 134.5 130 128.2 127.1 124 124.5 125.4 125.8 125.1 124.6 123.5 123.1 124.6 126.8 129.2 134.6 144.6 164 176.9 183.8 189.4 188 181.8 173.1 163.1 151 139.6 131.1 125.8 119.5 112 96.4 98.1 99.6 101.2 102.4 103.5 103.6 103.7 103.6 103 105.8 107.3 108.7 117.1 130.4 144.6 163.6 168.3 150.9 142.2 143 144.7 149.6 159.2 168.3 174.2 180.1 185.8 187.6 194.8 201.5 207.5 210.7 212.4 210.6 208.7 206.7 204.4 201.5 200.2 200.1 198.7 194.9 193.3 193.8 196.3 197.6 199.6 201.7 203.8 206.1 208.8 211.5 214.3 219.8 225 229.8 232.9 232.7 226.6 216.6 208.8 203.8 199.6 194.8 192.4 190.1 187.7 185.6 186.8
330.8 356.7 370 386.7 394.9 401.2 402.3 404.1 399.8 386.9 374.6 366.4 356.6 349.2 333.7 319.4 326.8 343.4 358.9 366.9 370.9 371.3 368.7 366.2 364.8 349.1 317.8 296.9 289.6 293.4 303.3 319 330.1 335.1 339.6 348.8 358.9 360.9 362.4 366.5 369.4 371.2 375.4 380.5 386.5 390.6 393.4 395.3 395.8 395.2 392.9 388 381 378 377.7 381.3 381.1 379.6 374.7 365.7 346.7 335.6 322.4 305.6 299.4 293.9 291.4 299.2 309.1 322.1 332.1 339.1 339.1 328.1 308.4 291.8 279.9 273.8 271.2 269.1 262.1 255.7 249.2 245.1 240.5 234.1 227.5 223.4 208.2 190.1 178.8 169.2 155.4 142.7 131.2 125.7 123.4 126.6 127.1 128.7 129.5 128.6 127.6 126.4 126 125.4 125.1 124.5 123.6 123.7 123.6 124 126 130.4 138.5 150.2 164.8 179.2 185.9 187.9 184.7 179.7 170.2 160.4 151.3 141.9 133.1 125.5 118.3 110.6 91.6 98.8 99.3 100.8 102.4 103.3 103.4 103.5 102.1 101.5 105.8 110.2 121.9 132.6 143.4 154.4 168.9 174.5 158.4 149.3 147.9 148.7 152.5 162 168.9 174.7 180.7 185.8 191.3 198.5 201.3 204.5 207.9 209.6 209.1 208.5 207.6 205.3 202.2 200.4 200.4 198.1 193.8 189.5 191.7 194.5 196.7 198.8 200.8 202.9 205.4 208.1 210.1 212.1 218.8 224.3 229.8 231.5 227.9 220.9 212.4 205 200.4 195.4 191.1 189.5 187.2 184.8 181.5 181.3
326.8 351.9 370.1 386.3 394.6 398.2 400.6 400.5 393.1 379.9 366 354 341.2 326.3 311.7 313.1 336.5 354.7 363.7 368.1 370.4 366.8 362.7 358.4 348.8 327.1 299.8 284.6 288.7 302 317.7 331.6 341 345 352.5 359.3 362.4 362 362.7 365.7 370.5 373.9 378 383 390.1 392.7 395.1 396.2 395.2 392.5 387.2 380.7 365.5 365.8 365.4 368.7 368.4 366.5 359.3 351.5 338.9 304 289.1 281.2 276.4 276.1 286.3 297.5 310.1 323.3 334.2 340.5 342 328 304.3 281.9 262.8 257.7 259.2 259.1 254.9 251.1 248.6 245.2 241.5 237 231.8 225.8 212.5 197.2 186.8 176.3 165.9 152.1 139.7 129.8 125.9 122.4 122.8 124 125.4 126.1 127.3 127.2 126.5 125.8 125 123.9 122.9 122.8 123.3 126.2 129.4 132.2 142.3 155.9 170.2 182.8 184.8 185.9 181.9 176.5 164.7 158 150 140.8 131.7 125.1 116.9 108.1 89 99.1 99.2 100.2 101.3 102.5 103.1 103.3 100.8 103.4 107.8 117.8 132.8 141.8 152.4 163 173.4 179 167.9 154.9 153.8 153.6 156.5 163.2 169.2 174.6 181.8 188.2 194.4 199.8 200.4 202.3 205.5 208.6 209.6 209 209.4 206.4 203.3 200.6 200.7 197.1 192.5 189.3 191.1 193.4 194.9 197.4 199.9 202 204.4 206.3 208.1 209.8 216.6 223.3 229.1 226.9 221 213.5 206.1 200.6 194.7 190.3 187.7 185.1 184.5 181.4 179.4 180.6
324 350.4 368.2 384.1 391.3 393.2 392.9 390.9 379.8 365.9 352.1 331.8 316 301.3 301.3 324.1 347 358.5 365.3 366.5 366 361.7 356.3 352.2 331.7 307.4 288.4 279.2 291.8 311.6 333.7 345.7 353 357.3 363.6 370.9 372.7 371.8 370.8 370.5 373.8 378 382.6 387.6 391.4 393.7 395.7 395.1 392.9 388.5 381.5 373.6 349 345 350.2 351.2 348.3 345.9 341.7 330.2 309.2 285 253.5 255.1 255.8 269.2 282.7 293.8 311 324.5 336.1 345.1 344.8 328.1 299.4 275.3 254.2 235.9 240.3 242.7 241.6 243.2 243.5 241.7 236.2 231.5 226.6 218.5 206.7 194.7 184.7 174.8 165.1 156.7 143.8 135.1 124.9 121.6 121.9 122.4 123.2 125.4 128 127.8 127.2 126 124.2 123 122.3 122.1 123 125.5 129.4 135.8 147.1 161.2 175.2 182.9 184.2 182.2 179 170.8 160.7 156.2 149.4 139.2 129.9 123.6 116.2 105.7 98.6 99.2 99.5 100 100.9 102.1 102.9 102.2 102.3 106 110.3 121.6 131.6 145.1 158.4 169 178.8 181.7 174.8 161.2 158.5 160 162.3 165.6 171.6 177.7 185.6 191.6 197.3 200.4 200.8 200.7 203.3 206.6 210 209.8 209.5 207.2 204.2 201.1 198.7 194.8 191.2 189.6 190.6 192.2 193 195.5 198.1 200.3 202.6 204.5 206.2 207.9 214.3 220.3 223.8 219.6 213.1 205.8 200.5 195.4 190.4 186.7 184 181.8 180.6 179 175.2 175.8
324.4 350.4 371.7 380.8 386.3 388.9 386.4 379 365.2 350.9 334.2 315.2 302.7 299 314.9 335 351.2 363 364.2 363.7 361.2 354.8 347.2 341.2 322.7 297 280.8 272.5 289.4 311 332.4 345.9 355.3 362.7 368 369.5 372 371.5 371.3 371.8 374.5 378.5 382.3 387.2 389.8 392 394.2 392.8 389 383.9 375.6 363.4 336.7 324.5 333.3 332.7 331.2 324.2 310.2 293.3 272.3 251.5 237.6 232.8 242.6 252.8 270.3 289.8 309.6 325.8 336.9 345.6 343.2 325.8 297.8 272.1 250.6 228.6 219.9 224.5 227.7 231.3 232.5 231.5 226.9 222.5 217.2 208 196.7 189.4 181.3 172.6 164.1 155.7 147.5 139.4 134.5 133.5 118.8 119.6 121.6 122.6 127.8 129 127.7 125.7 123.7 122.3 121.6 121.3 122.8 125 130.1 137.6 149.5 164.2 174.8 179.2 180.4 176.7 170.8 164.2 157.3 152.6 146.5 138.3 127.9 121.8 114.9 102.9 96.1 99.5 100.1 100.6 101.1 101.7 102.6 102.3 106.1 109 112.2 119.6 130.5 147.3 160.6 170.9 176.2 179.2 172.5 163.8 162 166.1 166.9 169.7 175.2 181.2 187.7 192.8 194.9 198.7 200 200.6 201.2 204.3 207.4 209.9 209.5 207.8 204.9 201 197.4 193.2 190.5 189.8 190.1 191.1 191.8 193.6 195.7 197.7 199.9 201 202.4 204.9 211.4 217.3 218.1 211.3 204.6 200.1 195.2 190.2 186.1 183.2 180.2 177.5 175.4 173.7 170.7 171.2
324.3 351.2 368.6 377.8 383.5 383.5 377.2 365 351.5 334.2 312.7 299.8 289.8 305.9 325.2 344 358.7 364.4 364.1 361.7 358.1 347.3 339.7 332.3 319.9 297 280.9 269.1 278.6 301.6 323.6 339 349.6 357.6 362.5 365.8 367.2 367.5 370 370.3 374.5 379 382 386.1 388.3 390.4 392.6 388.8 385 378.5 370 352.9 319.2 305 316.3 319.2 300.3 295.7 275.8 259.6 247.1 235.8 218.4 214.6 216.9 234 252.6 274 296.7 318.5 332.1 339.6 338.3 322.5 297.6 271.4 245.7 225.3 209.1 207 210.6 216 219.2 219.1 216.9 213.1 206.6 197.5 188.5 182 175.9 169.6 162.3 153.6 147.2 141.7 139.2 136.7 125.5 118.9 121.2 120.8 124 126.9 126.1 125 123.2 121.4 120.3 120.9 122.8 125.4 130.5 138.5 152 164.3 170.9 173.5 171.4 167.7 163.6 157.5 152.2 149.2 143.7 135.1 125.6 120.2 113.8 101.4 96.8 100.1 100.6 101.2 101.7 102 102.8 105.2 108.5 111.6 113.9 118.6 129.5 145.9 156.5 163.1 169.6 168.5 160.8 158.8 162.8 162.2 167.2 171.9 177.8 183.8 187.6 190.6 192.2 192.2 196.6 199.1 201.9 204.6 206.9 209.6 209.9 208.8 204.7 199.9 197.1 194.2 190.6 188.5 188.2 189.7 190.5 191.5 193.2 195.1 197.1 197.5 197.7 200 206.6 210.8 207.7 202.1 197.6 193.6 188.6 184.9 182.3 179.5 176.8 173.5 169.9 168.5 167.3 169.3
326.1 350.2 364.7 371.8 376.1 372.3 362.9 347.2 328.2 308.7 292.6 278.4 294.5 317.1 336.3 353.5 364.6 364.2 363.3 359 353.2 343.1 331.6 327 315.4 296.5 283 268 267.4 293.3 315.4 331 342.6 349.3 353.5 357.3 359.2 359 361.5 367.6 373 377.4 382 384.9 387.9 391 389.9 386 380.5 373 356 327.1 301.8 293 296.3 298.6 296.7 263.8 246.8 236.2 223.6 213.4 204.5 199.9 200.3 215.2 233.6 255.8 278.4 301.5 320.2 331.2 330.3 321.5 298.4 274.4 246.8 225.8 203.5 188.9 194.6 198 204.5 205.5 204.4 199.6 194.5 186.8 181.5 175.7 172.5 168.1 160.8 152.8 146.6 142 139.9 136.6 131.4 118.8 118.6 120.2 122.8 124.7 124.4 122.6 122.5 120.6 119.5 120.9 122.8 125.9 131.5 140.2 153.9 164 166.9 166.1 163 159.7 155.9 150.7 148 145 140 133.9 126 117.8 114.2 100.4 98.3 100.5 100.7 101 101.3 101.5 102.9 104.8 107.1 110.6 114.3 118.7 127 137.1 145.3 152.1 155.3 155 149.4 157 162.8 165.4 168.7 169.8 176.6 180.3 181.6 187.5 188.9 189.6 194.4 200.1 203 205.5 208.1 210.4 211.4 211.4 206 200.8 199.2 198.1 195.1 189.8 185.1 183.7 183.7 187.1 191.5 192.5 194.2 197.2 194.7 194.2 196.6 201.1 200.2 195.7 191.3 187.1 182.5 180.1 178.4 175.7 173.1 170.3 167.3 164.8 163.4 163.5
328.9 345.4 356.8 362.8 363.5 355.1 335.3 318.8 301.5 288.5 275 280.1 302 326.7 347.6 360.2 364.4 363.8 362.1 357.4 350.4 339.6 324 310.5 309 290.7 277.7 262.7 264.3 285.3 307.9 323.4 334.3 342 345.4 348.5 350.2 350.6 357.6 365.7 370.7 374.2 380.9 388.1 388.8 390.7 387.4 383.1 377 365.7 335.4 303.1 288.6 270.9 268.4 278.2 277.1 244.7 224 215.1 210.4 211 208.6 202.6 192.8 194.3 216.8 239.4 261.5 283.2 304.4 318.7 323.1 318 298 278.3 252.4 230.1 203.6 187.8 177 179.3 189.5 192.5 191.4 187 182 179.6 175.4 171.8 168.6 165.1 159.8 152.3 146.6 142.8 139.2 134.1 128.8 125.3 121 118 119.6 122.1 122.3 121.3 121.1 119.8 119.7 121.5 123.8 126.9 132.7 140.6 153.4 160.5 161.6 159.3 155.7 152.2 148.8 145.9 143.2 139.7 135 130.1 122.8 117.3 114 100.7 101.2 100.1 100.3 100.5 100.7 101 102.8 104.7 106.6 109.4 113.2 117.1 122.6 129.7 134.3 137.2 138.8 139.6 146.7 158.2 165 169.4 172.3 173 176.4 179.7 181.5 187.3 190.5 193.2 196.7 201.1 204.3 206.9 209.6 213.1 216 214 209.1 204.5 204 202.4 199.7 196.6 191.3 190.8 183.8 179.9 186.2 191.4 191.1 191.5 190 187.4 188.4 191.1 193.2 188.9 185 182.3 178.6 176.1 174.3 171.7 169.1 165.6 164.6 161.7 160.4 160.9
331.8 337.6 344.5 351.1 337.9 322 311.3 295.6 282.6 272.8 273.8 290.3 316.5 337.1 355.3 365.7 365.7 364 361.3 357.5 350.3 339.7 325.4 294.9 282.6 278.4 268.3 259.4 263.1 279.9 302.1 317.2 324.3 330.9 336.1 338.3 337.4 345.5 354.4 360.3 364.6 371.8 379 386.3 390.7 389.4 386.6 383.4 378.4 367.8 338.1 320.2 309.4 288.4 259 258.2 252.6 229 229.1 237.3 238.6 240.8 234.6 215.9 197.6 190.1 200 222.5 245.1 266.6 287.2 306 309.3 302.5 291.9 278.8 260.9 240.9 215.2 194.6 176.7 168.9 174.6 177.6 177.4 174.9 171.3 170.3 169.7 168.1 164.8 161.5 156.1 149.3 146.1 142.2 138.2 132.5 127.8 122.9 120.5 118.6 117.8 115.9 120.5 120.6 120.8 119.2 122.4 126.9 129.3 129.4 131.7 138.9 147.5 154.3 156.2 155 151.4 148.2 145.9 141.8 138.4 134.7 130.1 125.9 122.1 118.1 114.4 102.1 100.7 100.2 99.9 100.1 100.3 100.8 102.5 104.3 106.1 108.9 112.3 116.1 120.5 124.4 128.3 130.5 136.4 140.8 150.7 160 166.5 172.7 179 182.1 182.1 186.1 190.2 193.5 195.4 198.2 201.2 204.5 205.6 208.5 211.3 217.2 218.3 215 210.9 210.8 210.1 206.5 203.5 200.9 197.2 194.2 191 180.9 180.8 189.1 190.6 188.8 186.4 184.2 182.7 185.1 185.3 183.4 180.8 178.2 175.3 172.8 170.3 166.2 162 161.2 160.2 159.3 157.9 155.8
331 333.4 325.8 316.6 306.8 297.9 288.4 275.5 267.8 272.7 282.5 308.5 329.9 346.7 360.7 365.3 366 366.1 361.2 356.5 350.4 341.7 328.6 307.3 283.8 272.8 264.1 259.1 261.4 275.2 293.9 306.2 313.5 318.8 323.5 321.6 331.1 338.6 346.7 350.7 358.8 370 376.9 382.3 387.3 387.8 387.5 386.7 382.7 375 357.8 344.1 332 302.2 269.1 245.2 239.2 239.4 256.3 262.4 263.7 263.2 251.5 229 207.3 190 188.8 207 229.1 249.4 267.7 285 291.1 288.3 281.8 272.6 258.8 243.7 225.7 203.3 182.6 167.2 162.3 165.4 166.5 165.2 163.7 163.5 164.3 163.1 161.1 157.8 151.9 147.5 144.4 141.2 137.2 131.9 127.8 124 121.3 119.8 118 117.1 116.5 120 119.5 119.1 124.3 128.9 129.6 130.1 131 136.2 142.6 148.6 150.8 150.8 147.7 145.6 143.1 139 135.3 131.6 127.4 123.5 119.7 117.3 113.8 101 100.1 99.8 99.5 99.7 100 100.8 102.1 103.8 105.7 108.7 111.2 116.7 120.4 121.3 125.8 129.6 139.7 147.1 152.8 161 169.6 178.7 186.6 190.3 191.8 195.3 198.9 199.7 201.8 203.9 206 207.2 207.2 209.9 213.6 218.5 219 216.9 213 211.3 210.8 208.9 206.3 200.4 197.4 195.1 192.6 186.4 177.1 186.6 188.1 186.1 183.2 181.5 180.2 179 178.2 177.2 175.5 173 170.6 167.9 164.6 159.6 158.4 158.1 157.6 156.5 152.2 150.4
323.3 311.6 299.1 290.6 282.1 273.8 265.2 264.1 264.9 273.5 296.9 317.9 341.5 353.6 361.3 364.9 365.6 366.1 362.4 357.1 350.5 343.9 331.4 315.8 299.5 281.8 266.2 255.2 257.9 271.1 287.9 297.8 304.9 308.1 305.4 309.4 321.8 329.7 336.7 345.2 356.7 366.2 374.5 380.6 385.6 386.5 387.3 387.8 383.3 380.4 373.7 364.7 350.1 316.9 283.9 265.6 257.6 268.5 280.4 287.7 285.7 280.4 263.4 239.1 213.9 191.6 181.1 190.9 214.7 233.1 251.2 267.3 277.6 277.9 272.2 263.8 251.9 240.1 227.3 209.4 189.9 166.1 158 157.5 159.3 159 157.3 158.7 160.2 158.5 156.8 153.5 149.4 146.3 142.7 139.6 136.2 131.3 127.8 124.4 122 120 118.5 116.8 114.5 119.3 118.2 121.8 124.2 125.6 127.1 128.4 129.8 134.3 140.3 143.5 145.4 147.1 144.8 143.2 140.3 136.6 133.2 129.2 124.9 120.9 117.8 116.3 112.4 99.4 99.6 99.4 99.2 99.4 99.8 100.7 101.8 103.4 105.5 108.2 110.1 117.7 120.3 120.4 124.5 134.1 145 153.5 160.1 166 173.4 182.6 189.1 194.3 198.3 201.6 204.7 200.2 200.4 201.8 202.4 201.7 203.7 208 213.4 217 219.5 218.8 215.1 212.6 210.9 208.1 203.1 199.8 196.4 194.5 192.2 186.9 177.4 182.3 182.5 183.7 180.9 179.3 177.8 176.6 174.5 172.2 169.8 167.5 165.1 162.6 158.8 157.1 156.4 156.2 155.6 154.3 150.4 149.4
300.3 286.7 276 265.1 256.4 256.8 261.9 263.1 269.4 290.7 312.3 330.2 348.9 357.2 362.3 364.9 365.6 363.8 360 355.6 346.6 337 317.7 311.8 301.6 290.4 272 250 251.9 269.9 279.1 288.1 290.1 289.6 289.9 299.8 312.6 322.5 332.2 342.3 354.1 363.3 372.9 379.9 384.3 385.9 387.2 388 383.5 382.2 380.5 377.4 367.3 330 304.9 288 279.6 291.9 302.8 305.9 301.1 292.2 269.9 243.1 218 195 181.3 180.7 200 217.9 235.3 253.5 269.1 268.9 261.4 251.9 244.9 234.7 224.1 209.2 193.3 173.4 153.7 152.8 153 152.7 153.9 155.3 156.4 154.9 153.8 151.9 148.5 145.6 142.4 138.6 134.9 131.2 127.8 124.5 121.3 119.8 118.4 116.5 115 115.8 117.7 118.9 120.1 121.4 122.8 124.1 127.7 132 136.6 138.5 140.5 142.9 142.3 140.8 137.8 134.5 131.1 126.8 122.6 118.3 116.7 115.4 109.6 98.9 99.3 99 98.8 99.2 99.6 100.7 101.7 102.9 105.2 106.9 108.6 112.6 117.9 120.8 126.2 136.9 148.6 159.4 165 170.9 177.5 183.1 189.4 192 193.9 195.5 195.8 195.9 197 197.6 197.5 198.8 201.7 209.2 213.7 217.4 220.4 219.2 217.3 213.7 209 204.2 199.1 197.5 195.3 192.9 189.9 185.4 180.7 177.7 181.1 180.9 179 177.2 175.6 174.3 172.5 170.2 167.6 164.6 161.6 159.4 156.9 155.5 154.8 154.3 154.3 154.3 150.6 149.9
