ncols 200
nrows 82
xllcorner 280000
yllcorner 290300
cellsize 50
306.4 289.9 273.4 257.7 245.5 248.3 253.2 262.6 268.9 276.2 278.2 271.5 262.9 251.9 240.6 228.9 214.5 195.4 177.7 163.9 168.6 179.5 189.6 196.9 216.3 240.3 263.4 284.6 307.2 330.3 357.9 387.2 423.6 451.6 471.4 482.9 482.6 477.5 478.2 462.9 447.6 443.4 450.2 458 469.3 476.5 483.8 488.4 491 490.9 489.1 488.3 485.5 484.6 483.9 481.7 478.9 476.8 474.8 473.7 475.1 476.6 479.6 480.7 480.8 480.7 480.4 480.3 480.4 480.6 480.6 479.7 480.8 471.4 480 481.1 480.4 482.5 485.4 490.5 500.9 511.4 519.3 517.8 514.3 508.6 502.8 494.6 486.2 477.7 472.1 466.3 460.6 458.5 455.3 453.4 452.6 451.6 449.3 447.7 441 439 436 431.7 428.2 423.2 420.3 409.7 392.7 405.6 409.2 412.8 417.9 420.6 422.8 427.1 430.3 435.4 439.2 437.5 432.6 425.7 420.4 411.2 407.2 403.8 400.1 400.9 394.8 389.3 385.8 382.1 375.8 370.7 358.9 366.5 379 381.1 381.2 380.7 374.2 367 357.6 331.4 279 233.9 222.6 265.5 302.3 335.8 353.7 365 370.1 376.2 381 385.7 389.6 387.4 382.1 378.2 373.9 367.6 359.7 351.3 345.8 339.5 333.8 329.1 327.2 323.1 323.4 326.7 335.5 348.8 365.2 384.6 394 402.4 409 411.6 414.7 417.6 419.2 425.2 430.4 433.6 436.5 432.9 433.7 432 430.9 431.3 435.9 439.2 441.1 442.7 440.9 440.6 440.9 439.8
326.2 310.8 288.7 268.4 262.9 262.9 259.7 266.4 275.1 281.1 280.2 271.9 260.9 248.8 237.6 224.4 210.6 192.6 176.4 169.4 170.7 176.5 187.9 199.1 215.4 237.4 261.6 282.7 308 332.6 359.6 389 420.1 453.6 485.8 493.6 493.8 490.5 490.6 486.3 478.3 470 468.3 472.1 478.9 483.5 484.4 486.4 487.1 485.8 484.8 482.6 481.6 482.4 481.7 481.6 479.5 477.3 474.9 474.8 476.8 478.4 478.7 479.1 480.3 480.7 480.8 480.8 480.9 480.5 481.9 480.8 481.9 471.6 480.9 480.5 480.4 482.4 486.1 492.2 502.1 510.2 515.7 517.6 512.6 506.2 498.5 489.7 479.7 470 462.9 458.3 458 455.6 454.1 452.7 452 451 449.3 444.8 440 437.7 435.2 432.6 428.5 423.8 420.1 408.1 403.1 390.1 389.6 389.7 397.4 399 411.4 412.5 417.6 424.7 431.8 430.3 426.7 421.8 419.7 413.9 409.7 405.6 402.7 400 393.4 388.5 385 381.2 378.5 374.3 369.6 352.8 368.6 370.1 375.2 374 368.1 361.7 353.7 332.1 284.6 247.6 222 252.6 291 324.9 355.1 365.9 368.7 370.2 375.9 384.7 388.8 386.3 382.1 377.6 373.1 367.6 359.6 353.2 348 340.7 335.9 331.1 326.4 320.6 320.3 325.5 334.5 348.4 365.1 385.5 397.3 407 411.9 413.9 416.5 420.4 420.4 428.1 433.2 436.7 439.8 435.8 433.2 433.6 429.8 430.3 431.8 435.4 438.7 440.9 440.9 441 440.6 439.8
348.3 331.3 305.3 284.6 283.5 272.4 268 275.6 284.7 286.5 282.2 272.6 261.1 250 235.2 221.4 206.7 194.6 179.9 168.2 169.5 177.4 191.1 200.7 215.8 240.7 265.9 289.9 313.6 338.5 363.6 390.1 419.6 451.1 477.5 491.3 498.4 498.5 499.2 496.1 489.4 486.4 486.3 484.4 482.2 483.2 481.9 481.5 480.5 477.8 477.9 476.9 477 478.5 480.6 481 478.7 477 474.8 475.7 478.3 480.3 478.2 477 478.4 480 480.8 481.3 481 480.2 482 480.6 480.7 468.6 479.6 480.6 480.4 482.2 485.2 491.5 503 510.9 512.8 513.4 509.3 500.7 490.8 477.2 467.6 457.8 450.5 451.1 453.4 453.3 452.1 451.2 450.8 448.8 444.8 440.6 438.7 436.4 434.1 431.8 428.4 423.8 420 420.2 418.1 409.9 396.4 382.7 379.1 383.5 393.4 396.2 400.5 413.1 420 421.1 422.7 419.6 415.6 410.2 407.3 405.2 402.1 398.1 391.4 387.6 383.9 381.4 378.9 377.9 374.3 353.7 353.5 363.5 369.7 369.5 364.7 357.5 351.9 354 307.9 261.3 227.7 249.4 281.1 322.5 344.5 353.5 357.5 358.4 367.7 381.6 384.4 383 379.8 375.6 370.6 365 358.5 351.9 347.6 340.5 335.4 330.7 326.3 321.5 319.3 324.1 334.1 348.1 363.1 385.8 400.1 409 411.1 413.7 414.6 414 417.9 427 433 438.1 440.9 436 431.3 432.2 429.5 429.1 429.4 429.1 433.7 439.2 441.1 441.1 439.5 439.1
371.7 356.8 337.4 316.5 303.4 286.3 279.5 285.2 291.4 290.3 285.8 274.8 261.8 249.1 234.7 220.4 206 192.9 180.2 168.7 170.9 175.4 186.3 197.1 214.5 235.3 260.2 286 313.4 336 363.2 391.4 422 453.3 475.6 491.7 500.6 502.6 502.3 499.1 494.9 492.6 489.9 487.6 484.2 480.8 479.3 476.1 475.5 475.5 475.5 475.5 475.5 475.5 478.6 480.4 477.7 475.6 475.4 476.7 478.9 480.7 480.3 477.4 476 478 479.6 479.8 479.4 479.3 479.5 475.2 466.7 474.3 480.3 479.4 480.4 482 485.3 491.6 504.5 511.7 513.3 511.3 505.7 496.1 484.3 466.5 455.4 447.1 440.5 444.3 447.6 448.2 447.7 446 444.1 441.8 439.6 436.1 435.5 434.3 432.7 431.1 428.9 427.3 425.9 423.6 424.5 421.9 414.4 406.5 398.5 386.9 378.7 382.5 387.9 404.5 410.4 414.7 418.2 412.8 407.8 402.7 401.7 401.3 401.2 394.4 389.5 385.3 382.9 380 377.3 375.8 373.8 367.7 352.8 354.7 361.4 365 363.1 359 357.7 358.7 326.1 275.9 237.3 234.9 276.9 304.1 334.3 340.1 343.3 345.9 358 375 380.9 379.1 376.6 372.9 367.7 361.9 355.4 349.6 345.8 339.8 334.1 330.2 325.7 320.4 319.1 322.5 332.4 345.9 361.8 382.7 397.3 404.9 408.1 411.1 410.5 410 419.5 425.7 430.8 435.8 438.5 438 430.9 430.4 428.7 427.8 427.2 428.4 430.3 434.5 437.5 439.7 439.3 439.1
392.8 378.5 361.2 348.4 328 311.5 292.3 293.2 299 294.2 287.8 274.4 261.7 248.6 234.1 217.6 205 194.7 179.7 169.9 169.9 175.2 180.5 191.2 208.8 231 256.5 283.4 309.4 337.7 363 392.3 423.9 455.2 478.5 496.9 502.5 504.5 503.8 500.3 497.2 491.8 488.8 485.6 481.7 479.5 475.7 475.5 475.5 475.5 475.5 475.5 475.5 475.5 475.5 475.5 475.5 475.5 475.5 476 479.4 480.7 480.7 479.2 475.1 473.8 474.9 473.6 475.3 475.2 474.4 464.1 471.7 478.9 480.8 479.6 478.6 481.5 485.6 493.4 505.6 511.7 512.2 509.8 502.2 491 480.5 467.6 450.9 442.8 438.5 434.7 438.6 441.7 441.5 439.8 436.9 434.4 432.2 431 430.9 431.9 430.3 428.8 427.7 427.7 427.9 424.7 424.5 423.9 416.9 410.4 404.6 399.7 391.6 382.5 372 387.6 395.5 403.8 405 401.5 398.3 394.4 393.5 395.8 394.7 388.8 385 382.3 380.9 378.1 376.2 374.8 371.9 367.1 358.9 349.1 354.9 359.6 359.2 360 359 358 344.8 302.1 270.5 233.1 252.8 291.3 321.9 328.6 331.2 333.8 347.4 367.2 371.4 373.6 371.4 368.7 363.3 357.7 351.2 345.7 342 339.9 332.3 328.6 324.1 319.9 319 322.3 330.4 342.3 359.1 380.7 391 397.3 400.5 404 406.1 409.7 418.9 423.6 428.9 431.7 431.6 432.1 430 428.4 426.8 424.9 424.3 425.2 426.6 430.7 433.5 435.3 436 436.4
417.5 403.8 384.8 368.2 353.2 330 309.1 304 304.9 299.4 289.7 274.8 261.1 246.5 232.1 216.1 204.3 193.3 181 170.8 169.5 176.6 184 192.4 208.1 228.6 255.5 281.7 308.6 335.2 363.7 394.1 425.8 456.3 479.1 494 502.3 504 501.3 499.8 495.8 491.1 488 484.9 481.5 479.1 475.5 475.5 475.5 475.5 475.5 475.5 475.5 475.5 475.5 475.5 475.5 475.5 475.5 475.5 480.7 480.7 480.6 480.7 476.9 471.4 470.2 469.2 470.3 470.3 470.2 459.4 472.4 477.4 479.5 475 473.3 478.4 487.6 496.9 507.1 511.6 511.6 506.7 496.6 485.9 471.3 458.2 446.7 439.2 436.4 428.6 425.6 432.4 434.6 432.2 429.3 427.5 426 424.8 425.2 425.9 426.6 425.6 426.6 426.9 426.9 424.7 424.5 420.9 414.1 407.4 401.5 398 392.4 390.8 381 370.1 377.2 384.6 386.8 388.7 385.8 384.1 385 387.3 388 382.1 379.9 377.5 375.6 374.8 375 373 370.5 365.7 360.9 351.2 349.3 353.6 356 359.8 356.1 350.5 335.3 293.5 258.6 237.9 269 302.5 315.4 319 322.4 327.5 337.6 357.7 366.8 367.6 364.9 362.5 358.5 353 345.4 340.2 336.9 333.6 329.1 324.4 321 320 319.1 322.3 328.4 337.8 352 369.1 380.4 387.9 393.4 396.9 401.1 407.2 414.1 422.5 429.7 432 430.7 429.3 429.1 425.4 423.6 422.3 421.6 421.4 422.8 426.9 431.8 432.9 432.9 432.4
443.1 427.7 407.9 392 373 353.1 328.1 320.2 312.4 304.7 292.3 277.3 261.1 247.3 231.2 215.5 202.4 193.3 183.4 172.8 169.9 180 186.5 195 208.9 228.2 255.2 283.6 312.8 339.9 367.8 396.6 425.7 456.8 478.9 493.8 501.2 503.2 501 499.7 495.7 490.6 488.4 486.4 482 477.9 475.5 475.5 475.5 475.5 475.5 475.5 475.5 475.5 475.5 475.5 475.5 475.5 475.5 475.5 480.4 480.5 480.8 480.9 479.1 470.7 467.4 465.6 465.9 466.6 461.2 460.2 471.8 474.8 474.7 470 473.5 479.5 491.3 501.2 508.6 511.6 510.5 502.2 490.1 478.1 465.6 449.4 445.8 442.2 438.9 432.5 426.5 421.7 426.6 423 422.5 422.2 422.3 420.3 418.9 418.3 421 421.1 421.6 422.6 422.5 421.7 419.6 415.2 410.1 402.4 397.1 393.2 390.2 388.5 381.7 381.2 370.2 366.5 368.3 374.1 373.1 372.7 373.2 376.8 377.7 376.3 374 373.2 370.7 370.6 371.8 370.3 367.9 365.8 361 356 340.8 347 349.2 350.7 348.2 347.3 331.5 285.1 257.6 275 307.9 309.5 310.6 313.7 317.2 322.2 330.9 351.1 358.7 358.8 356.5 354.3 352.1 347.7 339.5 330.1 328.8 326.8 322.7 319.7 316.4 317.7 318.1 322.2 327.2 334.9 345.1 354.5 365.5 378.5 389.5 398.2 403.9 407.9 415.5 426.7 431.3 434.4 434.8 432.4 429 425.2 421.5 419.7 419 418.8 419.3 422.5 428.2 430.9 430.5 429.6
469.4 455.4 437.7 416.9 400.4 380.1 357.1 339.2 324.2 310.4 297.9 280.8 263.9 248.6 232.1 214.7 200.6 192.5 180.6 174.2 172.8 181.1 186.5 195.6 209.7 224.9 245.6 277.1 314.8 338.7 369 397.1 426.7 457 477.2 494.1 502 504.7 502.4 500 497 493.8 490.5 488.1 483.6 477.5 475.5 475.5 475.5 475.5 475.5 475.5 475.5 475.5 475.5 475.5 475.5 475.5 475.5 478.7 481.1 481.1 481.5 480.9 476.5 469.4 464.1 460.4 462.6 462 460.1 465.3 471 471.8 468 459.4 469.1 483.1 494.3 503.8 512.1 514.8 509.5 497.7 478.2 467.8 458.4 453.2 451.3 444.9 440 436.7 432.5 422.8 417.2 414 412.8 414.8 415.1 411.5 409.5 412.6 412.1 412.3 414.2 415.3 415.5 414.5 411.8 406.7 400.6 393.3 392.9 386.1 384 382.5 381 380.6 378.3 370.9 368.6 367.1 367 362.7 359.6 361.8 368.8 368.8 369.3 367 366.8 371 369.9 367.4 366.6 364.4 359.1 354.6 332.3 334.2 336.7 338.4 339.6 333 307.6 271.6 302.1 311 316.2 313.7 312.1 313 317.1 317.9 324.8 335.8 345.6 344 344.4 344 342.5 338.6 331.5 324.9 322.4 320.3 318.4 315 312 314.3 317.9 322 327 333.1 341.1 354.4 368.6 386.8 394.1 400.3 404.6 407.8 415.5 428.7 436.3 433.7 432.6 431.5 428.9 424 419.7 418.7 417.8 416.2 416.2 417.8 420.8 424.4 425.2 425.5
497.5 481 465.1 444 422.9 403.1 380.8 355.3 335.9 318.3 301.1 282.1 265.8 250.1 233.6 217 203.7 193 184.9 177.4 178.2 180.9 185.6 194.1 206.3 223.1 245.2 272.4 303.4 335.5 369.6 397.3 427.7 460 480 495.7 504.5 504.8 504.3 502.1 499.9 496.9 493.5 490.1 484.8 478.3 475.5 475.5 475.5 475.5 475.5 475.5 475.5 475.5 475.5 475.5 475.5 475.5 478.2 482.7 482.4 482.2 481.7 480.7 471.8 466.7 461.3 458.6 456.2 460.7 461.8 465.2 468.3 470.2 461.1 459.1 472.8 486.8 497.2 506.5 514.7 517.6 508.4 498.3 482.7 471.6 466.5 459.2 452.7 447 443.5 439.1 433.4 428.7 420.3 412.2 412.2 413.1 409 406.7 405.9 399.7 398.9 399 403.7 405.1 406.5 405.4 400.5 395.3 390.1 381.4 378.5 377.9 374.5 377.6 380.3 374.6 371.8 368.3 366 360.1 359.6 366.7 363.1 358.9 358.9 359 360.7 358.6 363 367.2 365.1 362.6 361.4 358.5 352.7 349 329.2 332.4 330 323.5 327.1 319.9 304.2 300.5 319.9 324 322.9 321.2 318.6 317 318.1 317.8 317.8 323 327.2 327.9 328.7 331.2 330.5 327.8 322.5 318.7 317.6 316.9 314.8 311.6 309.7 313.6 316.4 320.8 326.4 330.2 341 351.6 365.3 384.2 394.2 398.3 401.9 405.9 413.7 426.4 440.9 433.9 431.9 429.9 426.5 420.7 419.2 418.4 416.9 414.4 413.7 415 417.1 419.1 420.4 421.7
510.6 507.5 501.3 474.6 452.5 430.5 402.4 371.3 347.3 323.5 303.6 284.9 267.1 252.8 235 220 209.5 198.7 188.3 179.4 179.5 180.6 185.5 192.4 203.1 218.9 239.9 265.8 293.1 322.4 352.2 383.7 418.1 451.3 480.5 496.9 504.5 504.7 504.8 503.4 500.7 500.4 497.5 493.5 487.7 481.6 476.1 475.5 475.5 475.5 475.5 475.5 475.5 475.5 475.5 475.5 475.5 477.9 483.2 485 485.6 483.9 481.4 478.6 471.8 466.3 462.3 456 449.9 455.1 459.6 462.7 465.8 465.2 452.2 463.8 475.8 488.2 499.7 509.8 513.9 514.8 508.1 497.9 488.7 478.8 469.7 460.9 454.8 448.8 443 436.4 430.3 425.3 417.3 412.2 412.1 413.1 410.6 410.2 408.9 405.2 402.6 399.8 398.8 396.3 393.1 393.1 384.5 377.1 376.7 379.4 379.6 371.8 369.9 369.2 369.6 368.9 368.7 363.2 360.1 365.1 367 369.1 367.8 361.2 359.8 359.3 350.1 350 355.2 355.8 355.8 352.4 350.8 342.7 341.3 347.6 349.5 351.5 349.5 347.9 345.9 343.3 340.7 338.1 336.5 335.8 332.2 330.5 327.4 323.7 320.1 317.8 318.3 318.3 319.2 318.2 319 319.5 318.7 318.6 317.8 314.6 314.1 314.2 312.1 309.1 311.4 313.9 316.1 318.7 325.2 333.9 345.1 357.6 372.1 382.8 389.6 395.3 399.4 404.3 410.3 418.1 434.8 431.9 431.5 429.8 426.4 421.7 420.6 419 417.6 414.3 412.6 412.1 414.2 415.7 416.9 418.6
512.2 514.7 512.3 501.6 477.2 453.8 418.8 385.9 356.6 329 305.9 287.4 270.6 252.2 241.5 229.4 214.9 202.9 190.1 180.4 179.5 180.1 186.9 194.2 202.7 217.4 233.5 258.5 286.2 314.6 343.4 377.5 409 444.6 475.5 498.5 504.8 504.8 504.8 503.9 501.2 500.9 500.9 498 493 486.9 482.1 477 475.5 475.5 475.5 475.5 475.8 476.9 478.2 481.2 482.7 484.6 487.1 489 488.1 485.1 480.8 477.2 470.5 467.6 462.2 457.2 451 449.1 452.2 459.9 462.4 461.7 448.9 462.3 476.5 486.8 498.9 509.3 512.2 511.2 504.5 495.3 486.9 477.5 467 458.3 452.6 446.2 440.4 434.1 426.6 420.9 412.6 413.9 413.3 412.5 413.4 412.6 413.5 413.2 412.2 413.8 408.6 403.8 397.7 391 383 388.6 390 389.4 387.6 386.5 382.7 381.2 377.3 381.9 380.4 380.3 379.9 376.2 376.7 372.4 368.4 366.3 366.2 362.6 356.3 354 351.6 354.5 357.3 354.9 359.2 359.2 360 369 367.3 368 369.6 370.9 372.1 372.1 373 369.5 366.7 360.7 353.4 347.4 341.9 335.4 329.2 324.1 319.1 323.6 322.4 319.8 319.7 318.6 318.4 317.2 314.9 313.6 311.7 310.9 308.9 308.6 309.8 313.5 315.9 319.8 327.7 337.4 349 363.4 378.6 388.4 392.6 396 398.9 400.6 405.3 412.5 427 429.2 430.3 429.7 429.3 426 423.2 420.6 418 414.5 412.6 411.4 411.7 412.5 413.5 415.2
511 514.2 514.6 511.8 501.4 474.7 433.4 397.6 365.1 339.1 314.6 292.5 273.1 263.3 249.5 234 220.6 207.1 195 184.4 179.2 179.7 187.6 195.1 202 213.4 231.5 254.7 288.2 315.8 345.4 373.1 404.2 437.8 469.4 493.2 502.9 504.8 504.8 504.1 503 501.8 501.7 500.3 497.5 493.3 490.2 484.5 481.5 479.4 479.3 480.4 482 482.4 483.6 485.5 488.1 489.1 490.6 489.5 488.6 483.6 479.6 477.7 472.3 469.6 464.1 457.8 452.2 449.2 449.3 454 460.8 460.2 443 465.7 478.1 488.4 498.6 506.2 508.6 506.3 499.1 490.5 482.3 472.7 463.1 453.3 447 438.7 434.3 430.3 425.5 422 421.2 420.2 418.8 419.9 420.7 421.1 423.8 423.1 422.3 422.3 421.2 414.8 411.3 404.4 400.9 399.5 398.3 399.5 397.7 396.5 394.9 394.1 394.3 395.7 395.6 391.9 388.8 386.1 382.6 377.9 375.3 373.6 373.5 372.1 368.4 363.3 364.8 374.5 374.8 372.2 378.8 383.5 375.9 386.6 387.7 388.8 390.5 390.6 387.7 386.2 384.4 381.8 377.1 369.6 362.7 359.9 354.6 346.7 341.5 335.2 330.7 335.5 332.4 327.5 322.9 319 318.7 317.3 315.3 314.2 312.8 309.1 308.7 307.8 308.4 309.9 313.7 320.5 330.7 341.2 352.3 367.8 383.5 391.5 395.8 398.3 400 402.6 405.4 409.4 419 424.7 429.6 429.3 431 430.1 426 420.5 417.8 414.6 412.9 411.8 410.7 410.4 410.4 411.3
510.3 512.9 511.4 514.6 509.9 492 450.3 410.6 375.3 341 313.7 297.7 285.2 275.2 260.6 244.2 230.6 217.4 205 190 182.2 179.9 183.4 191.5 202.8 212.4 224.4 247 284.6 324.9 350.1 378.6 405.6 434.9 460.3 487 498.4 501.8 502.1 502.6 502.4 501.7 501.5 501.8 501.1 498.7 494.7 490.6 489.3 486.8 485.1 484.7 484.7 485.9 487.3 489.2 491.2 492.3 491.3 489.5 487.8 483.4 479.4 478.8 473.7 470.8 465.6 460.5 455.2 449 446.7 447.6 457.7 455.9 440 455.9 479.3 489.9 498.7 504 504.7 499.4 491.8 482.1 472.6 461.2 451.9 442.1 438.2 437 430.9 429.5 427.9 428.2 428.7 429.3 430.4 432 432.9 434.4 437.1 438.8 437.9 434 428 420.7 416.8 409.9 412.1 410.4 408.2 410.7 410.8 412.7 416.2 411.1 417.7 416.8 413.9 411.7 407.3 397 393 390.9 388.2 385.7 386.9 383.8 379 369.9 381.9 390.9 394.8 395.4 398.3 400.4 390.4 401 402.8 403 403.5 400.5 398.3 395 392.4 389.1 383.4 375.9 370.4 367.1 362.4 355.1 349.5 342.8 341.5 342.4 340 331 322 319.1 319 317.5 316.7 314.8 312.1 309 308.8 306.8 307.7 308.5 311.1 320.1 333 344.1 354.6 370.1 386.5 396.4 398.8 401 401.6 401.2 404.3 409.9 418 422.8 427.3 431 431 431 425.5 418.8 415.5 412.9 411.7 410.4 409.1 407.9 408.5 412.3
507.3 508.5 509.2 511.7 514.7 509.2 469.6 422.6 386.2 364.4 334.4 311.9 295.6 283.9 273 256.1 238.6 227.6 212 193.4 187.1 183.8 180.2 184.1 189.1 203 216.6 238.2 267.6 302.7 348.6 383 411.2 434.8 455.1 474 490.3 495 498.5 500.1 500.2 499.7 500.8 501.3 501.7 500.6 499.3 497.2 496.3 493.7 489.8 487.3 487.8 489.4 490.9 492.7 494.3 495.5 493.9 491.7 489.8 486.1 482.2 480.3 477.6 471.7 465.4 458.8 452.6 448.1 443.7 440.6 446.1 444.7 442.2 463.7 479.1 491.7 499.7 502.3 499.7 487.6 477.2 466.1 455.1 448.2 445.8 440.9 440.6 439.9 436.5 432.8 434.3 436.8 438.9 441.4 445.9 446.7 447.1 447.7 448.6 448.1 445.2 440.6 433 425.7 421.4 420.5 423.7 422.5 424.2 428.7 430.2 432.1 435.5 433.5 436.3 433.3 430.5 428.4 423.1 417.2 414.5 412.4 407.1 402.3 400.2 393.5 382.9 388.6 400.8 408.1 411.7 411.7 413.6 412.3 408.5 414.2 414.8 413.9 410.9 409.4 404.8 400.4 397.7 393.2 388 379.6 374.8 371.7 366.4 359 353.8 349.8 349.1 346 339.2 329 323.4 322.9 322.5 321.8 319.7 317.9 314.8 311 307.3 305.9 306.9 307.5 310.5 320.1 332.2 345 355.3 369.1 384.6 394.3 397.9 401 401.7 401.4 400.4 406 420.7 426.9 429.7 430.3 431 428.7 424.3 419.7 412.4 410.2 409.3 408 406.1 404.7 407.5 410.8
499.7 501.3 507.6 514.6 520.7 518.7 487.6 441.4 405.7 375.7 347 321.6 306.3 293 280.8 262.9 245.7 226.8 206 200.2 198 192.5 185.5 182.1 185 193.4 208.8 229.6 253.5 284.1 329.3 377.5 414.8 434.9 451.6 465.2 481.3 488.4 492.5 495.1 494.9 494.8 498.7 501 501.2 501.1 501.1 501.3 501.5 499.8 495.3 491.8 492.2 493.7 495.2 496.3 498 498.5 496.3 494 491.7 488 484.1 480.5 474.6 469.3 464.5 458.5 453.9 449.2 447.7 443.5 439.8 439.8 441.6 460.8 475.1 491.5 500.4 506.2 502.4 488.5 467.1 459 456.4 453.6 456.5 457.2 456.1 452.1 447.7 442.5 446.9 451.5 453.6 456 457.4 457.7 458.3 458 457.1 454.9 450.2 442.6 436.6 431.4 429.8 432.1 434.9 437.9 438.5 442.2 444.8 446.7 447.5 446.7 446.3 444.3 442.9 440.6 434 430.6 430.2 427.7 422.6 417.3 410.9 394.9 391.4 404 412.9 419.5 421.8 422 424.6 421.7 419.3 421.6 422.5 419 416.9 412.7 408.4 403.8 399.8 395 388.3 381.5 376.6 372.3 367.5 361.7 354.3 350.5 350 342.8 333 332.5 330.6 330.9 331.2 328.6 324 320.2 316.7 311.8 308.7 305.4 305.9 306.8 309.6 317.2 328.1 339.1 348.5 366.2 382.4 390.4 392.5 395 397.7 396.3 393.4 398.8 419.5 430 429.7 429.1 427.1 422.6 419.9 415 409 407.8 406.8 404.9 402.2 400.9 402.6 406.2
498.3 503.8 511.9 519.2 525.6 526.7 508.8 462.3 423.4 388.2 361.5 326.3 310.6 299.2 283.7 266.3 246.3 232.8 223.2 219.1 215.3 206.1 194.8 188.4 188.6 188.7 194.5 214.6 240.8 269.7 302.2 341.4 375.6 410.8 438.1 446.3 460.8 473.2 482.3 485 487.1 490.3 494.4 499.8 500.8 501 501.3 504.2 506.5 504.4 500.3 497.8 498.4 499.5 500.6 500.3 502.1 500.2 497.5 495.1 492.3 489.1 485.5 481.6 476.1 471.9 467.3 460.9 458.9 455.4 450.8 447.4 443.6 429.7 442.9 454.5 466.1 486 503.5 509.4 505.6 498.4 492.3 484.8 478.5 477 475.8 472.8 469.2 464.2 459.9 457.3 460.2 465.1 464 465.3 466 466.5 466.1 465.5 461.4 458.3 453 446.5 440 437.5 437.8 440.7 444.9 448.3 450.4 452.2 455.2 457 456.9 457 455.9 452.8 450.4 448.1 444.5 441.4 439.5 436.4 431.3 424.2 411.3 400.7 408.2 416.6 424 429.3 431.1 430.4 430.7 427.2 424.8 427.1 425.6 422.2 418 412.2 407.5 403.3 399.9 393.3 386.4 379.9 373.6 369.6 361.9 353.5 349.2 349.1 344 342.3 344.4 344.1 342.6 342.6 340.6 335.8 327.4 321.3 316.3 311.4 308.3 303.6 304.9 306.7 308.9 316.7 323.4 334.4 346.1 361.3 374.8 377.9 381.2 383.6 387.3 384.9 385.6 398.2 419 428.8 429.8 427.2 423.9 419.1 416.8 412.7 409 406.2 404.1 402.1 401.9 400.7 399.1 399.3
500.9 508.3 518 524.7 531.5 531.3 532.1 489.1 442.2 405.3 375.7 339 315.9 292.9 281.9 269.4 262.1 255 246.4 242.9 234.9 224.3 208.5 202 208.7 209.7 201.1 202.6 227.1 254 283.2 308.8 339.1 370.5 400.8 423.8 445.2 459.1 469.5 477.4 481.3 486.8 490.7 496.1 500.7 500.6 502.1 506.9 510.2 509.7 505.1 501.7 503.4 504.9 505.6 504.8 504 500.8 498.8 496.3 493.5 491.1 488.6 483.7 479 475.1 471.5 466.5 464 458.8 455.3 452.7 447.5 430.7 433.3 443.7 456.7 479.5 501.1 511.4 511.5 509.5 505 498.2 492.5 488.3 485.3 482.5 478.3 473.8 471.4 470.4 470.5 471.7 471.6 472 471.6 471 469.7 469 461.1 460.4 454.6 448.2 444.3 444.7 445.6 447.9 452.2 457.1 458.3 460.5 463.3 463 462.7 463.3 462.1 459.8 456.3 453.7 450.5 447.7 445.9 441.4 435.6 430.7 423 418.9 421.8 427.7 433 434.1 434.2 433.1 430.4 429 429.8 428.4 425.1 422 416.7 410.4 404.1 400.5 395.6 389.4 382.1 373.4 364.3 359.7 358.6 355.6 357.1 356.3 353.9 356 354.8 352.4 350.7 348.4 344.9 339.9 329.7 320.9 315.3 310.6 307.3 305.4 304.5 306.4 310 315.3 322.3 336.2 346.1 356.4 364.7 370.8 373.8 375.3 378.9 380.8 384.3 394.6 414.4 426.3 427 424.4 421.4 418.4 414.6 410.7 407.6 404.3 401.9 399.5 399 397.9 396.4 394.5
503.5 511.5 521.8 530.5 536.7 540.2 544.5 510.2 461.8 415.6 379 349.2 321.8 299.3 306.8 297.8 288.2 279 270.8 263.3 259 246.7 223.2 230 229.4 231.1 223.4 223.4 232.4 259.2 281 308.7 338.2 362.2 386.9 421.7 446.1 463.4 472 477.4 487 485.4 488.6 492.1 497.9 500.4 501.6 506.1 509.8 510.4 509 507.2 508.5 509.7 510.2 508.9 505.5 501.6 499.2 495.9 493 491.9 490.5 485.6 481.3 478.3 475.6 473.9 468.8 465 462.3 457.7 452 438.6 428.3 430.8 446 470.3 496.4 513.1 514.7 514.6 510.8 505.2 500.2 495.6 490.9 490 484.2 480.9 478.4 476.9 476.3 475.9 474.4 473.4 473.1 471.5 469.9 469.4 461 459.6 453.9 450.3 447.6 448.5 450.4 453.9 457.8 463.1 465 466.9 468.3 466.6 464.8 464.6 463.2 461.1 457.7 453.6 451.7 450.7 447.2 442.5 438.5 434.5 431 430.5 432.1 435.7 438 435.3 435.4 434 431.9 430.7 431 429.3 424.6 419.5 414.3 407.9 400.6 394.9 389.1 381.4 370.5 368.5 365 366.6 367.6 367.5 367.5 365.1 364 362.7 359.9 357.1 353.4 350.9 345.9 339.8 329.2 318.8 313.3 308.6 306.4 305 303.8 305 308.3 312.5 319.1 333 344.8 351.8 358.5 360.9 365.9 370.9 378.8 383.7 386.8 390.6 409 422.2 424.7 422.9 420.8 418.4 413.7 410 406.6 403.2 400.7 397.6 396.1 394.6 393.3 391.2
507.9 515.3 527.9 536.8 543.4 549.5 555.4 533.3 480.4 430.5 392.7 360.9 342.9 323.8 327.3 321.2 314.5 306.5 298.1 284.3 285.6 271.2 265.8 260.7 255.7 253 248.2 246.7 257.6 261.3 298.5 320.2 346.7 376.1 409.4 432.9 449.5 470.5 476.1 478.9 489 488.7 488.7 491 494.3 498.3 501.6 506.3 509 509.5 509.5 510.4 513.4 514.4 514 511.1 504.7 500.3 496.9 494.4 491.6 490.7 490 486.4 482.8 481.4 480.3 477.8 474.2 472.6 470.4 465.3 457.2 451 441.3 428.9 434.5 455.2 485.2 510.7 514.8 514.8 511.4 507.8 502.3 498 492.9 489.3 486.5 483.1 481.5 480.1 478.6 476.7 475 473.4 472 471.2 468.7 467.7 460.6 456 451.5 449.5 448.4 449.5 452.6 457.1 460.2 468.6 468.9 468.7 467.2 464.1 463.4 462.5 461.1 459.4 456.5 453.4 451 449.5 446.9 443.5 440.1 439 436.6 434.6 435.8 439.3 438.2 437.3 436 434.1 432.6 431.9 430.9 427.6 421.9 415.8 410.5 401.3 394.3 385.7 378.9 376.2 379.7 379 378.2 377.6 376.8 374 373.1 371.5 368.3 365.5 362.2 359.1 354.1 348.9 342.2 333.2 324.9 317.5 310.6 306.9 305 304.1 303.4 304.5 306.5 311.2 316.9 325.6 335 343.5 343.1 350.2 363.4 374.2 382.7 389.9 393.7 398.7 408.8 419.6 423.4 421.1 420.8 418.5 413.8 409.6 406.1 402.5 399.2 396.2 393.4 391.6 390.1 391.6
522.7 529.5 538.7 545.5 551.1 556.4 561.4 551.3 505.1 451.1 416.9 384.4 374.7 356.3 357.6 353.2 342.3 335.6 327.8 317.3 313.9 307.8 310.4 300 286.4 278.9 269.6 275 289.6 298.9 312.6 338.1 363.7 393.4 426.2 448.2 461.2 475.7 481.2 483.4 488.7 490.4 491.1 492.3 494.6 497.3 500.3 507.3 510.4 509.8 510.4 512.6 515.6 519.2 516.5 511.3 502.5 496.8 493.4 490.9 489.7 489.1 488.1 485.2 483.2 481.9 482.4 481.2 478.8 478.1 476 470.8 464.3 457.4 450.3 436.1 420.1 439.4 473.7 504.7 513.6 512.2 507.8 503.2 501.1 497 492.4 490.5 485.1 482.3 480.6 479.6 477.1 474.2 472.1 470.8 468.6 467.1 463.8 459.8 455.6 451.3 448.2 447.7 447.9 449.7 451.9 455.7 461.1 465.7 462.8 462.6 462.6 460.1 459 458 455.5 454.4 452.6 450.9 449.2 448.2 445.9 443.6 441.2 440.8 437.5 435.7 435.2 437.1 437.4 437.4 435.7 433.6 431.4 431.1 429.6 426.8 420.5 413.4 409.9 400.9 392.7 389.9 393.5 389.7 388.6 387 385.6 384.9 382.4 379.8 376 371.5 370.1 365.8 362.4 357.1 349.7 340.9 333.4 326.2 319.3 312.6 309.7 307.5 304.9 302.7 301 303.7 305.3 308.7 313.1 321.4 330 330.6 342.6 355.2 366.6 377.3 392.8 394.4 398.7 403.8 409.3 414.7 421.4 420 418.9 418.6 415 411 407.9 404.1 399.6 395.3 392.3 389.8 388.9 389.4
541.1 545.9 552 556.1 558.8 561.2 561.9 559.2 531.4 481.5 447.2 407.5 410 395.5 388.7 388 380.1 370.8 364.2 354 346.7 338.9 347.3 345.5 328.3 320.6 307.7 310.6 322.1 331.8 328.6 353.1 381.8 414.3 441.7 464.5 472.6 481.8 484.8 486.4 490.7 493 494.8 495.4 496.4 498.5 500.2 507.1 509 509 512.5 514.7 517.9 520.3 520.6 509.6 499.8 490.9 487.5 486.6 484.9 484.2 483.9 483.6 482 482.8 483 482.1 480.7 480.7 478.7 473.2 466.8 459.6 452.7 441.9 425.2 429 464.2 498.2 508.2 507 498 497.5 496.2 492.1 490.2 484.8 480.2 475.6 473.5 472.2 471.3 468.9 466.9 464.7 463.6 461.5 457.1 453.3 449.9 447.4 445.2 444.1 444.3 444.9 447.4 449.8 453.8 456.6 455.4 454.1 453.1 451.3 450.6 449.5 446.7 446.7 448.4 447.7 446 444.8 444.1 443.1 441 439.8 438.2 436.8 438.8 436.5 436.6 435.9 434.2 431.9 430.9 430 428.3 425.4 422 417.2 413.2 407.1 401.3 400.6 398.6 397.5 396 392.9 391 388.3 385.7 381.1 376 369.9 365.3 360.4 356.6 351.1 343.5 332.6 328.2 322.6 318.2 313.6 309.9 308.7 306.3 303.5 299.1 300 302.7 306.8 309.7 317.8 324.2 336 350.2 363.5 378.6 387.1 394.7 399.1 404.1 409.1 411.1 410.1 420.3 422.6 418.9 419.5 416.2 412.5 409.1 404.9 400.2 395.8 392 388.9 388.9 388.9
554.7 558.3 562 565.3 565.9 568.2 564.2 554.2 539.8 512.6 475.7 442.6 441.6 439.6 430.9 426.2 425.1 409.5 403.8 398.7 388.6 376.8 371.3 392.9 378.6 362.7 352.7 349 352.1 357 356.4 366.6 399.4 431.5 458.8 477 482.1 484 486.5 489.5 493.8 497.4 499.5 498.6 499 499.1 499.4 506.1 509.4 510.6 515.5 517.3 519.5 521.5 519.4 506.6 495.7 487.4 482.9 481.1 481 481.1 481.4 480.8 481.6 482.4 482.2 481.6 480.7 480.7 478.3 474.2 467.9 461 453.4 444.2 425.1 426.6 458.9 490.1 498.9 497 488.6 487.9 487 483.7 478.3 474.3 470.6 467.7 466 464 463.6 462 459.7 457.2 454.9 453.1 450.9 446.9 444.7 444.4 442.1 439.9 440.4 440.4 441.4 443.1 445.2 444.6 444.4 444.4 445.7 443.2 438.9 438.6 432.2 440.8 443.4 443.3 442.9 441.8 440.2 440.2 439.9 438.4 436.6 435.8 435.5 437.4 433.6 433.2 432.5 430.6 429.7 428.3 426.9 423.8 421 417.7 414.3 410.9 408.3 405.8 404 403.2 400.3 397.3 393.2 390.8 385.7 380.8 372.9 366.8 361.1 356 351.6 346.2 339.3 339 329.8 324 319.2 316.1 312.6 309 306.4 303.9 299.8 299 301.4 305.6 310.5 317.1 325.8 339.9 355.3 371.4 380.3 387.6 393.6 399.6 404.8 408.2 408.9 408.9 422.7 429.3 425.6 421.5 416.9 412.2 408 405 400.8 396.7 391.9 388.9 388.9 388.8
567.4 568.2 570.4 571.9 571.5 570.5 560.9 548.6 531.4 513.9 499.7 481.4 474.5 473.2 472.8 466.2 471.6 452.3 449.2 449.1 445.8 431 421.9 416.9 435.2 417 395.9 387.8 390 394.6 388.3 379.7 409.8 447.7 474.2 480.3 481.4 484.7 487 492.3 497.4 501.4 505.1 502.3 500.7 499.4 498.9 499.8 506.8 512.6 517.4 521.2 520.4 521.6 517.9 503.4 491.6 484.3 479.8 478.9 478.6 479 477.6 478.9 479.8 480.6 480.8 480.2 479.1 478.9 475.8 472 466.8 459.8 452.2 442.1 420 427.4 455.1 481.9 486 484.8 479.4 475.1 475.2 472.9 467.2 463.8 459.8 457.4 454.4 453.1 454.4 453.6 450.6 449.1 447 445.1 442.8 439.9 439.8 439.9 437.6 436.7 433.9 428.9 431.7 434.3 434.6 435.9 436 439 440.3 435.4 430.1 423.2 425.4 435 438.9 438.5 439.2 437.9 436.4 436.2 435.6 435.1 434.5 433.5 432.5 432.5 431.5 430.5 430.7 429.3 428 426.4 425.1 423.1 421 417.8 415.5 413 410.3 408.5 409.3 405.7 402.7 398.5 395.1 390.8 385.5 380.3 373.6 364.9 359.2 353.3 349.9 345.4 342.7 342.6 338.1 328.8 322.3 317.6 313.4 309.9 306.6 302.3 300.8 298.9 300 303 307.3 313.7 323.2 342 357.5 369.5 378.6 386.4 394.2 399.8 403.3 404.7 403.4 402.9 418.9 433.4 430.1 426.2 419.3 413.3 409 405.1 401.8 399.3 395 390.6 388.6 388.7
571.2 573.4 575 574.5 573.2 566.4 554.2 539.5 524.1 512.7 507.3 506.1 500.3 497.4 498.2 496.7 496.8 492.7 483.5 481.2 476.3 470.9 465.5 437.7 457.5 463.1 448.7 436.6 445.3 445.2 425.5 400.6 425 457.8 475.6 477.8 481 484.6 488 494.5 500.4 506.5 509.9 507.5 501.8 498.4 497.9 498.5 505.5 513.6 519.1 522.3 521.9 519.7 514.8 501.2 489.7 483.5 479.6 478.6 477.9 476.6 474.6 473.8 475.9 477.4 476.4 477.4 476 474.4 472.5 469.6 464.3 459.4 453.2 440.1 419.1 426.5 457.3 469.5 475 474.3 468.2 462 461 459.5 455.6 450.7 444.2 434.9 427.5 434.2 438.8 439.2 437.6 436.5 433.2 433.4 432.8 431.1 434 433.8 429.8 429.7 426.5 421.3 422.6 423.2 424.1 425.6 428.1 429.7 429.6 427.6 423.8 414.5 421.1 429.7 432.2 434.3 434.2 433.3 432.6 432.3 431.6 432.2 432.1 430.9 429.8 429.5 430.4 429.9 428.5 425.9 424.2 423.3 422.4 420.8 419.4 417.2 415.1 413.4 410.9 410.3 410.7 407.6 402.5 398.4 395.1 390.6 385.3 379.3 371.1 363.2 359.1 354.7 351.4 348.6 347.6 344.9 340.7 332.8 325.9 318.6 314.2 310.7 307.2 303.7 300.5 298.9 298.9 301.4 304.3 310.1 322.5 339.9 353.2 364.5 376.9 385.2 391.8 396.3 399.6 400.8 399.5 400.2 414.1 430.3 428.2 422.8 418 414.3 410.7 407.2 404.3 401.6 398.5 394.8 392.5 390.1
571.2 574.2 575.1 575.1 570.7 560.2 548.6 534.8 520.3 510.4 507.9 510.3 509.3 506.3 503.7 501.6 498.4 492.4 488.5 485.5 480.9 476.1 468.7 461 469 470.9 471.9 470.7 467.7 457.3 442.8 415.1 440.3 458.1 474 476.1 477.9 481.7 488.3 495.4 503 510.3 511.5 509.3 502.2 497.9 496 495.7 505.4 513.6 520.9 520.9 520.7 517.1 511.7 501.1 489.1 483.7 480.7 479.3 478.6 478.2 475 470.6 469.9 471 470.3 472.6 470.9 469.6 468.4 464.2 459.4 455.2 448.6 436.4 418.2 426.6 451 460.6 465.9 464.8 454.8 449.6 446 446.4 442.5 433.7 418.1 400.4 389.9 396.3 406 413 415 415 412.9 419.8 417.2 424.2 428.2 430.2 425 424.1 420.8 417.5 415.6 416.5 415.5 416.9 419.1 419.5 420.4 419.2 415.3 408.9 418.6 423.8 427.5 429.5 429.5 426.7 424.4 427.3 430.9 429.9 429.8 429 429.5 427.8 426.5 426.1 423.7 421.8 421.2 420.6 420.6 418.9 417.4 416.5 414 412.3 411.1 410.8 410.3 406.9 401.9 398.3 394.5 389.7 383.7 377.7 370.8 364.9 360.5 357.2 352.8 350.5 349.5 346.9 342.3 337.9 329.7 319.7 314.3 310 307 303.9 300.4 298.9 298.9 300.2 303.1 309 319.1 330.3 343.6 360.3 373.1 381.1 386.8 391 394.4 394.7 395 398.7 405.9 418 420.3 418.5 418.2 414.7 411 409.5 406.7 403.5 400.3 397.2 393.8 390.5
571.1 573.8 574.9 572.4 564.3 551.3 540.9 529.3 519.4 509.5 503.6 503.6 505.7 502.5 499.2 498.2 495 490 487.6 483.9 479.4 473.9 462.1 472.5 476.8 477.3 473.8 471.2 465.6 459.1 448.9 430.8 447.3 460.5 470 471.9 473.4 478.9 486.7 495.9 503.8 510 511.9 509.6 498.5 495.6 491.4 491.3 504.7 515 520.5 518.9 516.2 512.8 509.3 501.5 491.1 485.5 482.6 481.1 479.9 480.5 477 474.4 470.2 466.6 461.7 462.7 462.9 465.2 464.2 461.4 456.7 451.8 443.8 429.4 418.7 425.4 444.3 449.7 452.7 449.6 442 427 405.6 421.3 427.3 409.9 388.2 382.8 391.4 386.9 379.9 381.4 386.4 394.6 389.8 401.3 399.1 419.9 423 423.9 422 416.4 414 412.1 410.8 411.2 410.7 411 409.5 409.8 410.1 409.2 410.8 400.9 413.4 416.1 421.1 421.5 422 416.6 417.7 429.8 431.3 431.2 429.1 429.2 427.6 425 423.4 422.3 419.1 417.4 416.3 417.3 417.8 416.1 414.9 414.3 413 411.3 410 409.6 408 406.2 401.8 397.1 392 386.9 382.8 377.6 367.7 364.2 359 355.8 352.5 350.9 349.9 346.5 344.2 339.7 332.7 321.9 315.2 309.9 306.4 303.8 302.3 298.9 298.9 299.3 301.7 307.5 312.7 323.3 333.4 353.8 368.3 375.2 380.4 381.5 387.1 387.5 391.3 394.3 402.2 409.2 412.8 417.2 416.1 413.4 410.9 411 409.1 406 402.8 398.1 393.5 390.4
570.9 572.7 572.4 566.1 554.5 543.5 533.3 524.9 515.5 506.9 501 498.3 496.9 494.6 491.9 490.6 489.2 485.6 482.8 480 474.9 469.4 471.6 474.5 478.6 476.6 473 465.6 458.9 452.8 444.1 445.1 455.1 463 464.3 466.4 468.5 475.9 484.7 493.7 502.8 509.6 513.4 506.8 497.4 491 487.1 490.1 504.7 514.8 520.2 518.2 515.6 512.9 509.4 503.2 493.7 487.4 484.8 484.5 484.8 483.4 480.1 477.3 471.9 462 464.1 459.8 457.6 459.5 459.2 456.2 452.4 448.1 443.8 436.9 419.9 424.2 437.2 435.3 437.1 427.2 412.8 401.2 392.6 389.7 389.9 389.4 393.5 416.1 420.4 416.5 394.5 379 378.1 370.2 375.5 378.8 392.7 409.8 419.1 417.4 415.8 410.7 411 407 411.4 412.1 411.8 410.3 408.8 403.3 401.6 401.5 400.5 399.2 402.6 403.1 408.7 412.1 412 407.7 419.7 431.1 431.9 431.4 431 429.4 426 422.7 420.6 418.5 415.2 411.5 411.5 412.9 413.3 413.2 412.1 410.7 411.2 409.7 407.7 407.7 406.6 403.8 400 394.8 389.3 382.6 376.1 368 358.6 356.9 352.2 351.1 349.2 349 347.9 346.3 344.5 341.3 334.3 323.4 314.2 309.4 305.7 303.5 300.8 298.9 298.9 299.1 302.7 306.1 309.2 316.2 325.1 337.7 358.2 369.1 374.7 373.9 377.2 381.1 387.5 389.2 397.9 410.4 411.3 415.1 414.1 412.8 410.8 410.9 411.1 409.6 404.4 399 395.3 389.9
570.5 569.4 564.7 555.6 544.7 535.4 526.3 517.4 510.3 504.5 497.5 491.8 489.4 486.8 483.5 482.4 481.6 480.4 478.1 474.5 469.2 469.1 473 472.5 471.5 469.9 469 461.9 460.5 455.4 451.2 445.9 459.2 458.8 457.7 460.3 463.1 469 480 490.5 499.7 507.8 510 502.7 493.6 482.5 481.4 489.3 503 511 515.8 517.4 516.2 513.6 511.7 505.3 497.1 491.2 489 489.2 490 487.2 484.2 480.4 476.6 471.9 466.8 461.5 455 450.5 450.1 450.4 448.9 442.4 438.5 431.9 417.7 409.9 416.9 411.9 408.8 409.2 419.8 429.9 419.3 418.3 405.5 411.6 423.9 430.7 430.5 426.1 416.8 404.9 405.1 399.9 380 369.2 373.3 400.2 416.5 412.6 410.5 403.7 410.8 405.3 411.8 413.5 412.1 410.1 408.9 402.6 400.4 399.7 399.2 391.9 389.6 389.9 397.2 399.9 399.1 407.8 424.8 431.7 431.9 430.5 429.1 428.9 424.5 420.2 417.2 414.7 412.1 408.1 405.4 406.9 407.7 407.5 406.8 406.1 408.1 404.8 402.8 403.9 404.8 401.5 397 392 384.9 375.8 364.2 356.5 352.6 348.8 344.5 342.7 343 345.3 345.8 344.7 343.1 340.6 332.2 320.7 313.1 307.9 304.1 302.3 300.6 299.3 299.3 299.3 304.5 306.5 310.2 313.8 319.5 328.2 352.3 360.7 365.2 368.7 371 382.1 388.8 395.3 401.7 410.8 413.1 414.4 414 412.2 410.2 411 411.1 410.9 405.9 401 398 390.6
565.3 562.6 553 544.6 537 528.8 521.4 515.5 510.7 505.7 497.8 490.8 487 482.6 479.7 478.2 476.5 476.1 473.1 469.1 469.1 469.9 473.6 474.6 469.9 469.2 468.6 467.3 466 461.2 457.2 443.6 448.4 452.6 456.3 457 459.1 464.8 474.9 485.9 496.6 505.5 510.5 496.4 485.1 477.5 478.1 487.5 499.2 509.8 515.7 518.8 519.7 520.3 515.2 508.7 503.3 498.9 494.5 494.9 493.9 491.9 490.5 488.3 483.4 477.5 470.1 462.7 456.9 451.5 449.5 439.7 441.3 441.5 438.9 428.2 425.5 429 439 440 442.7 445.1 452.1 451.9 448.4 446 442.2 438.3 436.1 436 433.8 429.7 425.6 424.8 408.7 392.8 380.7 372.6 369.6 388.6 411.8 411 398 392.5 386.6 406 413.5 417 419.1 413.8 410.5 408.7 406.3 405.6 403.7 402.3 399 391.8 389.5 394.5 408.2 419 429 432.2 431.6 430.5 429.2 430.2 424.9 420.6 416.3 412.7 409.6 404.8 399.3 397.8 399.1 401.2 399.9 401.2 401.6 399 401 402.1 402.6 398.1 394.1 387.7 378.2 369.6 357.4 346.8 345.6 340.9 337.8 337.3 339.8 340.7 342.2 341.5 339.7 336.3 328.5 318.8 310 306.4 302.6 301.3 300.5 299.3 299.2 299.2 303 306.7 310.2 313.2 316.7 323.8 334 343.6 349.2 362.7 375.2 385.4 392.1 400 401.1 407.5 412.5 413 412.3 410.5 410.3 411 411.1 409.6 405.2 399 394.4 390.1
555.4 548.9 543.6 537 531.7 525 521 517.3 513.8 509.7 500.9 492.1 487.9 483.6 480 478.4 476.2 473.8 469.3 468.3 469.5 472.9 476.3 479 477.8 480.5 478.3 481.1 482 476 466.8 453.2 457.3 459 456.3 456.3 457 459.4 469 480.4 492.8 505.3 504.4 491.6 477.5 472.4 475.9 484 499.1 509.2 516.2 520.2 521.3 521.6 520 515.4 510.1 507.1 503.4 502.6 502.6 501.2 499.5 499.4 492.4 482.1 470.6 460.9 456.4 452.4 444.6 439.3 440.5 439.2 432.8 439.8 441.7 444.7 451.7 456.4 463.8 464.2 463.8 462.3 458.8 454.9 450.8 447.7 445 441.9 439.3 435.2 432 430.5 418.9 412 400.7 381.3 369.1 379.5 393.4 401.9 392.4 383.4 379.6 400.4 409.7 415.6 419.3 418.4 415.7 413.4 411.2 410.4 411.6 411.1 405 396.1 388.8 406 419 425.3 429.9 430.3 431.6 429.7 429.2 427.5 421.8 418.6 415 411 409.2 404.1 398.6 389.3 388.7 393.2 393 393.9 396.5 397.5 400.7 401.5 400.6 395.6 389.7 382.5 373.5 359.9 351.3 340.8 338.4 336.8 333.6 332.9 335.6 339 337.4 335.7 334.1 330.1 322.8 315.4 307.2 304.9 303 299.6 299.7 299.3 299.1 300.6 304.3 308.3 311.7 314.5 317.4 322.4 329.9 339.9 350.8 365.7 376.6 387.1 393.4 398.5 398.3 400.7 411 411.7 412.2 411.1 410.4 410.4 409.1 400.9 399.5 394.2 389.5 388.5
545.9 538.5 535.2 531.5 527.2 524.7 521.8 517.8 514.7 510.8 502.2 495.9 490.3 485.9 481.4 478.6 476.6 473.9 469.1 469.4 473.6 477 480.1 483.3 484.5 488.6 486.6 492.6 494.8 491.3 480.9 467 467.8 463.5 458.3 456.3 456.3 457.1 464.1 473.5 489.2 500.5 497.7 485 471.2 469.1 475.7 484.3 498.2 510.9 516.3 520.5 522.5 523.5 522.7 520.2 518.4 514.7 511.6 512.2 510.7 510.2 507.4 505.2 497.3 485.9 471 457.6 452.3 449.6 440.7 445.9 447 442.1 441.5 443.5 445.9 451.5 457.6 465.8 473.2 474.3 473.5 471.9 468.6 464.3 460.5 457.1 452.9 449 446.6 444.3 440.8 439 435.4 431.8 415.7 391.6 372.7 368.7 370.4 380.1 379.6 377.5 369.6 380.4 397.2 406.8 417.2 419.2 419.6 417.8 415.7 414.1 414.5 412 407.4 399.1 380.7 400.7 420.6 426.7 431 429 428.5 426.5 423.4 421 417.9 414.7 412.3 409.9 408 404.8 400.6 394 374.6 381.1 380 386.6 389.1 396.1 401.2 400 396.9 391.5 385.3 376.7 366.3 356.6 346.2 336.1 330.9 330.1 329.6 329 329.7 329.7 329.2 329.8 327.5 322.8 315.5 310.6 305.3 303 302 299.1 298.7 298.9 299.4 303.8 306.5 309 311.6 314.2 317.2 322.4 328.3 339.1 351.5 366.9 378.2 384.2 389.5 393.7 394.2 394.4 404 411.7 413.9 412.3 410.2 409.3 405.4 401.7 399.5 396 392.1 389.1
537.9 532.7 528.3 525.6 524.2 522.4 520.2 517.8 514.3 510.8 502.3 496.5 491.4 487.2 482.6 480.2 477 472 470.4 473.1 477.7 480.5 486.6 489 493 496.2 497.4 503.1 506.3 502.5 489.4 477.8 479.5 471.8 459.8 456.3 456.3 456.3 459.5 468.3 481.5 492.9 491.8 477 466.2 466.9 473.2 485.4 498.2 509.4 515.7 520.4 522.3 525.2 526.8 525.7 524 521.6 520.7 520 518.6 515.8 512.6 505.1 495.4 484.3 466.6 454.8 453 449.3 451 453.7 449.6 447.8 448.1 450.2 453.2 458.5 465.8 472.9 479.4 482.9 481.7 480.8 477.7 472.7 467.8 463.7 459.6 454.9 453.2 451 449.9 447.4 445.3 442.5 434.7 415.5 394.5 375.5 368.9 360.2 360 359.8 361.8 360.1 377.9 389.2 403.9 417.4 420.4 420 418.1 417 417.1 414.6 409.2 400.9 381.1 391.6 413.5 425.3 429 424.6 421.3 421 418.8 416.8 413.6 410.2 408.3 406.9 405.2 402.7 399.1 392 377.4 366.8 363.4 372.5 383.8 400.2 400.2 396.2 390.6 385.4 379.4 369.7 358.6 349.3 339.3 332.5 328.1 326 325.8 326.1 325.1 324.8 322.8 322.5 320.7 315.4 308.8 306.2 303.7 301.5 299.6 298.3 297.4 298.8 300.9 304.1 306.5 309 311.6 313.5 315.9 321 327.1 336.8 349.1 365.7 374 379.8 383.4 387.4 387.8 389.7 403.4 415.4 419.5 419 416.7 413.3 409.6 406.2 403.9 402.2 398.9 394.3
531.4 526.9 522.4 520.9 520.9 521 519.4 516.8 513.7 510.6 501.9 496.2 490.9 486.8 482.3 479 476.9 475.6 475.6 477.4 480.2 485.2 490.9 494 498.9 503.5 506.5 511.6 513.1 507.5 496.8 487.8 488.8 481.5 465.3 458.4 457.5 456.3 458 459.8 472.9 480.6 479.2 469.3 464.1 466.9 472.7 482.8 494.1 507.7 516.2 521.1 525.7 529.5 530.4 531.7 530.3 528.5 526.5 525.1 522.7 519.5 514.2 504.3 493 479 462.6 455.3 451.5 451.1 456.4 458 456.3 456.7 460.1 460.9 465.2 469.2 473.7 478.4 483.4 487.4 487.3 487 484.1 479.6 473.3 469.2 464.6 459.7 457.6 456.3 455.2 454.4 453.9 453.4 449.4 443.2 424.9 402.2 391.6 381.1 373.6 369.6 365.9 361.4 358.9 361.7 380.6 404.2 417.5 420.6 419.1 419.8 416.6 414.7 412.1 404.7 389.5 381.2 404.9 419.9 422.5 419 418.4 417.9 415.8 412.9 410 407.5 406.1 405.6 402.9 400 396.9 391.8 384.9 376.7 358.8 363.2 384.9 399.3 395.4 389 384.1 378.8 371 361.6 351.7 341.8 332.8 326.1 323.3 321.4 322.7 323.1 322.7 320.5 319.9 319.2 315.3 309.1 307.7 304.4 302.2 300 298 297.1 296.3 297.6 299.6 301.3 304.7 308.2 312.2 314.5 316.9 319.9 326.8 334.5 345.1 360.3 366.9 372.1 376.4 376.4 379.4 392.5 405.5 423.5 425.9 424.3 422.2 419.6 415.4 410.7 409 407.5 405.4 400.6
525.8 521.2 518.5 518.8 519.1 519.5 517.1 514.4 512.2 507.6 498.6 494.5 489.7 485.4 480.8 479 480.2 482.2 481.2 484.5 486.5 489 496.6 500.5 504.4 509.6 513.5 518.8 517.1 510.3 505.2 497.8 495.8 488.2 470.3 462 458.5 456.6 456.6 457.9 463.1 471.9 470.1 463 462 466.1 471.1 482.9 498.5 517.2 532.3 539 538.6 537.2 538 539.9 535.4 532.7 530.7 528.4 525.7 520.4 511.7 499.3 490 476 462.4 454.2 449.5 455.2 460.9 461.8 462.5 463.9 467.3 472.2 477 477.8 480.4 486 490.1 490.7 490.7 490.7 488.1 482.9 477.2 470.9 467.8 463 461.1 460 459.8 458.7 457.9 458.4 456.1 453 447.8 438.8 425.1 408.3 399.7 389.8 379.4 374.9 370 361.8 359 377.4 395.3 416.7 419.9 419.2 413.8 411 411.1 405.5 394.9 379 396.2 411.4 416.4 416.4 416.5 415.7 413.5 411.1 407.2 405.7 405.5 404.1 400.9 397.2 394.1 389.6 382.7 374.4 351.9 359.7 381.1 389.1 383.9 379.8 375.4 370.1 361.6 352.2 343.1 333.5 326.8 320.3 319.3 319.1 320.5 320.1 321 320.8 319.8 318.5 315.4 310.3 307.7 304.1 300.9 298.6 296.4 296 295.1 297.1 299 300.6 305.2 309.2 311.7 313.5 316 320.3 326.4 333.6 343.8 355.8 361.9 361.7 368.6 370.8 376.1 389.4 407.5 429.8 432.2 431.1 429.2 427.4 423.7 419.1 415.6 413.6 411.5 406.7
519.4 515.3 512.4 511 510 510.2 512.2 516.5 514.2 505 498.1 493.6 490.1 487.3 484.2 482.8 488.3 489.1 489.4 491.1 492.2 496.1 502.2 506.8 511.1 516.8 520.5 522 520.9 517.1 510.9 506 500.8 497.2 481.5 469.7 462.9 457.2 456.4 457.3 458.4 460 460 461.3 460.5 465.2 470.1 486.9 506 523.7 538.6 545.2 544.3 542.2 542.7 541.1 538.2 536.2 533.3 531.4 527.4 522 510.5 497 483.7 470.1 459.7 454.9 452.7 459.5 462.9 464.8 467.4 471.4 480.1 483.8 487 487.6 487.7 490.8 492.5 493.7 493.3 492.4 487 480.8 472.9 468.5 466.4 464.1 464.2 463.3 461.7 461 461.2 460.8 458.6 456.2 449.8 443.7 433.8 427.3 419.4 411.5 402.3 393.3 386.5 372 365 358.5 370.8 398.4 416.4 417.4 411.9 408.7 408.8 400.2 395.7 380.2 386.4 403.1 410.3 413.4 415.5 413.3 410.7 406.5 403.8 402.1 402.5 401 398.6 395.2 390.4 383.5 377.1 371.3 354.4 354.2 375.5 374.6 371.7 369.2 364.6 358.9 349.9 342.7 333.6 324.8 320.8 315.5 312.1 314.9 315 316.6 318.3 318.2 318 317.2 314.9 310.5 307.5 303.6 300 298.1 296.1 295 294.2 296.3 298.5 299.8 303.6 307.1 309.6 310.3 316.7 321.9 326.5 332 343.8 351 355.2 360.8 370.7 374.1 378.1 389.4 409 431 436.6 437.8 436.1 434.4 430.3 426.2 421.1 417.8 412 409.3
512.1 508.7 506.7 507.4 508.6 508.3 514.7 519.9 518.3 507.9 499.1 499 495.9 490.3 488.1 491.7 496.7 496.4 500.8 500.6 499.3 502.4 507.9 512.4 516.2 522.8 526.8 524.6 523.3 521.6 516.9 510 503.2 499.7 487.5 477.5 469.5 459.8 456.4 456.6 457.1 457.4 457.5 458.7 459.2 462.9 471 490.8 513 527.9 540.7 545.7 546.7 545.3 545.8 540.8 539 536.5 534.3 533.4 530.7 523.2 509.8 496.5 484 466.8 459.3 457.7 459.3 461.7 464.2 469.3 474.3 481.8 487.7 489.4 491.9 495.6 495.8 493.2 493.5 494 493 490 481.8 474.4 466.3 463.3 463.6 463.2 465.9 466.1 462.3 461.9 461.5 460.8 458.8 455 450.8 441.4 431.1 428.6 420.3 415.3 408.4 403.3 397.1 391.2 380.6 371.7 357.5 368.9 392.8 409.5 408.5 407.2 405.6 401 400.2 390.2 378.6 391.7 405.1 411.1 411.5 409.4 401.6 402.2 400.1 398.4 399.8 395.4 392.9 391 382.6 373.6 368.2 364.8 357.9 346.5 364.5 364.3 361.4 357.6 353.1 347.6 339.7 332.5 323.4 315.2 311.9 310.8 309.6 310.6 309.8 313.7 314.7 314.9 314.4 313.4 312.7 310.3 305.9 301.6 300.1 298.5 296.6 295.1 292.5 294.7 296.8 298.2 300.8 305 309.2 312.3 320.5 324.6 330.3 338.5 341.7 349.7 357.1 371.5 380.6 386.4 389.5 395.3 412.2 432.7 439.5 444 442.1 439.7 433.9 429.6 423.1 418.9 413.8 409.8
507.3 502.8 501.6 503.7 505.6 509.1 518.8 521.1 519.7 509.6 503.7 501.2 500.3 491.3 493.2 498.8 505.1 502.9 509 507 507.8 511.7 510.3 515.9 521.2 528.2 531 526.9 526.1 523.4 519 513.8 509.4 499.2 486.2 481.3 477.5 464.2 457.7 456.9 456.2 456.1 456.1 457 458.2 461.2 470.5 491.5 511.7 530.5 543 548.3 551 548.5 546.5 540.2 540.4 538.3 535.8 535.5 532.8 523.5 508.6 493.4 478.2 465.1 459.9 458.8 460 464.1 468.2 474.2 484.3 490.6 492.2 492.6 492.8 498 498.9 492.2 491.4 490.6 486.4 480.2 472.8 466 459.2 457.3 460.4 462 465 464.9 461.8 460.9 460.5 459.4 457 453.1 447.1 437.7 430.3 424.8 418.6 414.4 411.2 406 403.2 398.2 391.8 389.8 375.7 349.9 365.7 389.8 401.9 403.9 401.6 400.5 397.7 391.2 373.2 376.9 397 406.1 403.7 399.1 394.2 396.1 391 391.1 389.6 386.5 383.7 381 371.1 363.5 359 355.8 347.8 343.4 353.6 353 349.8 345 341.8 335.7 328.1 321.7 312.8 305.2 304.2 302.9 302.4 303.9 305.4 311 311 311.4 310.5 309.7 306.2 303.4 302 300.8 300.2 298.9 297 295.1 291 292.9 295.1 298.2 303.6 306.5 309.8 315.1 321.1 326.6 333.1 340.6 347.6 358 370.2 382.1 389.5 396.6 403.4 408.7 416.9 432.2 446.6 449.9 444.3 439.8 432.8 426.9 421.8 416.9 413.8 409.7
501.6 497.8 497 500 503.4 509.4 517.8 521.3 519.6 511.4 510.2 505.9 502.6 502.6 501.9 507.9 512.3 509.9 511.8 511.3 511 514.9 516.4 520.2 522.6 530.5 530.1 529.2 528.8 525.2 521.1 517.6 512.7 497.5 490.8 486.5 480.5 465.3 459.3 458.8 460.1 456.8 456.1 456.1 456.1 460 468.8 490.1 515.3 531 541.9 548.7 550.4 548.8 546.5 542.4 539.9 539.6 539.1 537.7 532.6 519.4 501.4 487.8 475.4 465.7 459.7 458.1 460.1 466 472.8 482.6 490.9 492.7 492.6 492.1 491.5 492.9 489 486.2 484.4 480.3 475.3 469.4 461.9 454.7 450.4 449.8 454.4 458.3 460 458.8 456.8 455.3 455.6 455.6 453.8 449.9 442 433.4 425.2 418.9 415.8 412.7 409.7 406.4 403.2 402.7 401.2 398 391.8 373.2 347.9 362.6 395.1 399.7 398.5 398 396 390.8 374.5 365.8 387.4 396.2 392.5 389.5 386.7 386.1 382.6 380.7 379.8 374.7 371 367 357.6 350.1 348.8 345.5 337.6 338.7 344.4 342.4 337.8 333.6 327.9 320 312.2 309.3 302.3 298.9 299 298.4 298.4 298.7 299.9 300.7 299.3 299.5 301.7 299.5 297.7 298 300.1 299.6 299 298 297.8 295.9 290.8 290.9 293.4 297.3 300.8 305.1 309.7 315.1 320.9 330.5 338.1 349.9 361.4 371.7 381.8 390.3 396.9 401.9 406.2 414.9 427.6 441.1 445.5 444.9 439.4 434.3 427.6 420.7 416.2 411.2 409.6 404
495.5 493.5 493.4 497.8 498.8 503.6 514.5 521 520.6 516.7 514.2 511.3 509.1 510.5 511.2 514.8 520.9 518.2 514.6 512.8 513.5 517.3 520.2 522.7 524 530.8 529.6 531 530 526.5 520.8 522.1 516.2 509.5 506.5 492.1 480.7 469.7 471.3 470.2 467.8 465.9 457.3 456.1 456.1 460.4 471.2 492.8 519.8 538 543.7 548.9 551 549.7 548.9 543.5 539.9 538.8 536.3 533.6 524.8 509.3 493.9 481.1 472.2 464.5 459.9 459 462 468.4 478.6 488 490.9 491.8 491.5 490.8 488.2 485.4 481.5 477.8 473.7 469.1 465.9 460.7 451.2 445.8 444 439.9 447.6 451.8 453.3 452.4 451.4 449.2 452.4 451.4 448.3 443.9 436.6 429.6 419.9 411.8 410.8 409.6 407.8 405.6 402.6 402.1 403 401.5 398.4 386.3 366.2 348.9 377.6 397.4 397.1 399.2 396.5 391.5 384.5 361.7 369.6 383.5 380.1 378.4 376.6 378 373.9 371.3 367.7 364.3 358.4 351.2 344 338.3 335 337.4 320.2 330.9 330.7 328 323.7 318.9 314.1 306.8 302.5 301.7 298.3 300 299.9 298.7 297.7 297.2 296.4 295.4 295.4 296.6 297.1 296 294.3 295.9 298.2 297.7 296 295 296.3 296.5 292.6 289.3 293 297.2 300.1 303.8 308.8 314.4 321.9 330.5 347.9 360.4 368.2 376.2 386.7 391.5 396.4 399.6 407.7 418.5 433 441.5 442 440.6 434.5 428.2 421.7 416 410.5 407.8 403.5 400.5
491 489 490.8 495.1 499.6 507 515.5 521 522.1 521.7 519.5 517.5 514.1 513.5 516.5 520.8 520.9 519.9 518.5 517.7 517.1 520 521.9 523.8 526.5 529.5 531 531 530.4 529.9 529.9 526.2 520 520.5 510.3 492.4 484.3 477.5 474.7 471.9 475.6 471.7 456.1 456.1 456.1 461 473.9 494 519.9 536.1 548.6 550 549.5 550.6 548.4 540.8 535.9 533 529.3 524.2 511.5 498.5 485.9 475 467.7 464.9 460.3 458.9 464.8 473.5 486.5 491.4 491.5 490.5 489.4 486 483.2 480.1 476.3 472.8 468.3 463.7 458.8 453 443.6 439.2 435.6 438.4 443.3 446.6 447.7 449.3 447.9 448.7 449.2 447.3 442.8 436.4 429.2 422.4 412 406.2 404.1 404.5 405.2 403.7 402 401.3 401.2 400 394.3 388.4 376.6 350.7 361 384 390.9 395.6 395 391.7 384.1 371.3 358.8 370.5 365.8 367.8 363.5 368.2 366.4 360.6 358.2 355.7 347.3 336.7 329 326.6 323.1 319.9 311.8 312.2 314.4 314.6 310.9 309 305.3 305.1 307.8 309.2 309.8 308.1 303.4 299.3 298.4 298 297.6 297.4 296.9 294.9 294.3 293.2 292.2 292.7 294.3 293.9 293 292.2 293.1 293.9 292.7 289.4 293.4 298.4 301.1 303.6 308.6 315.9 326.7 333.9 352.5 361.8 368.9 374.8 381.9 386.2 388.6 393.9 404.2 414.7 425.1 435.6 440.2 435 429.6 423.1 418.4 413.4 409.8 408.7 405.9 400.6
489.2 489.2 490.2 495 503.8 513 519.1 522.4 524.1 527.7 524.5 522.5 519 518.2 519.7 521 521 521.1 520.7 520.9 519.9 522 524.7 526 528.3 530.6 531 531 530.3 530.7 528 525.3 524 521.2 513.8 502.5 492.3 486.7 479.5 477.5 475.1 467 456.1 456.1 456.1 461.6 468.8 489.8 515.7 535.6 544.7 545.4 545.5 545.4 540.5 533.8 528.5 524.7 519.8 513.2 501.2 488.7 478.3 471.5 466 463.2 459.4 462.2 467.6 477.3 490.8 491.9 490.8 489.6 486.2 481.7 477.9 474.5 471.6 467.5 462.9 458.6 451 441.8 434.5 431.3 429.9 430.8 439.3 442 442.9 445.5 441.9 443.8 445.1 446.2 442.3 434 424.4 419.3 410.6 405.6 400 399.3 399.8 400.5 399 398.4 399.1 392.6 390.1 388.3 380.5 367.8 348 356.6 370.8 391 391.3 387.1 381.1 372.1 361.3 350.2 350.2 353.4 352.4 354.4 352.6 347.6 349.8 345.3 336.8 329.7 324.6 318.3 314.6 314.6 313.7 319.9 319.6 314.9 313.5 312.1 315.9 316 315.3 315.9 317 313.1 307 301.5 299.4 299.3 298.6 298.4 301.4 300.1 294.8 294.7 294.2 293.6 291.3 290.4 290 289.8 290.5 290.7 291.1 289.2 291.4 295.9 299.9 303 307.9 316 326.2 338.7 352.5 357.8 363.6 368.8 373 377 377.9 385.3 392.2 397.6 406.6 418.1 430.7 432.3 428.9 423.4 418.4 414.9 411.4 411.7 410.1 410.3
492.2 495.2 494.3 498.9 508.9 519.5 521.3 524.6 526.7 528.7 528.5 524.2 520.4 520.3 520.6 521.2 521.5 521.6 520.6 519.5 519.7 520.8 526.4 529.6 527.2 530.1 531 531 530.8 529.5 526 527 529.4 529.3 529.4 522.2 510.1 497.5 491.1 481.4 475.4 463.6 456.1 456.1 456.1 459.5 467.4 482.2 509.3 528.8 536.9 536.3 535.7 530.4 525.3 520.4 514.2 511.1 506.1 499.1 490.8 480.6 473.8 468.7 464.8 461.6 461.7 464.1 469.2 478.8 489.9 490.8 490.1 487.9 482.7 476.1 471.2 468.4 465.8 461.9 457.9 452.6 444.6 434.4 428.9 422.1 424.7 428.1 432.5 436.8 437.4 439.8 439.1 442.5 443.4 442.9 440.6 433.8 425.6 419.5 410 405 400 396.9 390.5 390.5 391 390.5 391.7 382.8 384.9 383.1 380.9 374.8 362.6 357.2 351.2 379.8 383.9 379.4 374.3 369.5 363.4 351.7 339.3 332.8 337.8 337.1 334.6 329.8 331.9 332.6 325 319.8 318.3 317.5 319.4 325.1 332.5 344.2 350 345.5 338.4 332.5 331.1 326.4 323.9 322.7 322.2 317.9 308.1 302.9 300.9 300.7 304.7 304.1 303 302.9 302.8 301.7 298 296.1 294 291.9 292.1 290.2 291 290.1 290.5 289.9 290.2 293.5 297.4 300.6 306 321 327.9 339.7 349.5 355 359.2 359.2 360.1 362.4 364.4 365.8 368.8 372.2 382.4 399.4 421.9 429.6 429.4 425.4 421.2 419.6 418.8 418.9 416.5 415
499.6 501.5 502.1 506.9 514.5 519.6 522.9 526.7 528.8 530.4 529.8 526.1 522.8 521.2 520.4 521.3 521.8 522 520.5 520.8 520 520.8 526.3 528.5 525.4 528.8 530.9 531 531 529.9 526.9 528 530.9 535.8 535.4 528.3 520 515.5 508.3 489.4 475.4 463.2 456.1 456.1 456.1 457.4 464 476.3 499.9 521.2 521.6 521.1 517.3 512 506.9 501.7 497 494.1 491.5 487.9 482.2 475.2 471.2 466 462.9 462.7 463.3 465.1 469.2 479.4 486.3 489 489.1 487.1 481.2 470.9 461.2 458.9 457.8 453.7 449.5 444.4 438.1 432 426.9 420.4 419.6 419.7 424.6 429.4 429.6 437.8 441 444.2 446 444.6 440.9 434.4 426.3 418.7 414 409.2 402.4 399.4 393.6 388.9 388.8 387.7 380.3 379.1 379.4 376 374.5 369.1 371.1 369.7 352 361.6 368.6 366.3 361.2 354.2 345.5 336.6 331.8 329.7 320.1 321.2 319 319.1 318.6 319.4 318.2 317.9 318.9 326.7 331.5 340.3 353.1 360 360.6 357.2 350 347.2 343.6 338.4 335.3 328.9 325.5 320.3 309.1 305 305.5 305.7 304.6 303.8 303.5 303.3 303.2 303.4 300.8 298.5 297.2 298 297.3 293.4 289.3 289.1 290 289.1 289.9 294.7 294.6 299.1 307.5 320 329.5 343.5 349.5 353 356.1 355.5 354.9 355.7 355.7 354.1 354.1 361.1 370.7 392.6 418.5 428.7 431.1 430.4 429.1 427.6 425.6 422.4 420 419.5
508 512.2 515.2 514.8 520.7 520.5 523.2 526.5 528.9 531.2 530.7 526.3 524.2 522.6 521.5 521 521.5 521.6 521.1 519.6 519.6 520.4 521.7 523.9 521.2 527.2 530.9 531 530 528.4 526.7 529.2 536.1 538.5 533.6 528.9 520.8 520.3 516.1 499.3 482.7 467.9 457.4 456.1 456.1 456.1 459.6 473.6 490.7 500.4 501.4 502.4 498.6 494.7 490.1 486.1 482.3 481.2 480.4 478.2 474.7 469.7 468 465.8 462.8 462.7 464.1 466.7 470.9 479.2 484.9 489.2 489.2 488 483.3 475.4 463.5 449 446.2 442.1 441 435.2 432.6 431.3 425.9 419.7 411.8 412.4 420 423.4 432.4 438.7 443.5 447.4 449.4 447.9 444.8 438.9 432.6 424.2 420.4 414.8 408.1 400.5 396.3 392.1 390.5 388.3 384.4 381.4 377.3 371.1 370.2 368.9 373.2 368.4 358.5 351.9 348.4 342.1 341.8 340.5 339.7 340.7 336.6 333.9 336.9 332.1 339 341 337.9 334.7 325.9 326.1 331.6 340.3 346.9 354.6 362.3 366 366.5 365.6 362.5 359.3 357.3 354.9 350.5 342.2 332 324.7 310.4 306.2 303.8 304 304.3 304.3 303.9 303.7 303.6 304.3 302.8 300.7 301.2 301.2 300.5 296.6 291.2 289 289.4 288.6 287.9 288.3 291.9 297.3 304 314.1 329.7 342.8 348.6 351.6 353.9 353.3 351.8 349.8 348.2 349.6 351.9 356.1 368.9 386.2 409.2 424.2 431.9 434.2 431.4 431 427.5 422 419.3 417.8
516.5 522.1 523.1 521.6 523.6 522.7 522.9 525.9 526.8 527.5 529.7 526.4 525.4 524.1 523 521.8 520.5 520.5 520.3 520.9 520 519.7 520.7 518.5 518.7 523.3 526.6 524.2 522.8 527.3 530.3 530.9 535.5 535.8 531.3 530.2 528.2 521.1 509.4 499 485.2 473 459.9 456.1 456.1 456.1 456.1 465.5 475.4 481.9 484.8 484.9 482.1 481.6 478 475.6 475.5 475.5 475.8 473.7 470.6 468.1 468 467.8 467.8 463.8 464.9 468.5 474.6 483 487.5 490.3 490.5 490.6 488.3 479.1 463.1 453.3 443.1 439.1 432.3 429.3 426.3 423.3 421.2 414.3 409.3 410.5 419.6 427 430.5 437.2 445.6 450.9 454.9 452.9 447.4 443.4 437.3 431.1 425.1 417 409.4 403.9 403 400.3 396.2 390.8 386.4 383.2 381.8 383.5 382.6 385.2 384.9 378.2 384.5 373.1 375.7 374 379.9 378.8 376.9 371.4 370.5 364.1 366.8 370.6 371.8 368.3 365.4 364.5 358.6 356.1 351 354.4 357 363.6 369.1 374.4 374.1 375.6 374.6 371.6 369.3 365.7 360.1 353.8 341.5 329.6 312.5 305.5 304 303.4 303.7 304.3 304.4 304.1 304 305.1 304.7 305.2 306.8 305.2 303 298.8 293.6 289.6 288.9 287.8 287.8 287.8 287.8 295.3 301.4 314.1 329.7 340.9 342.9 345.9 345.7 342.6 342.1 341.9 343.8 348.4 352.7 358.2 370.3 386.4 401.5 415.7 423 425.5 425.9 423 422.9 419.9 415.6 413.7
527.7 528.5 528.9 526.1 527.1 524.1 523.4 523.9 524.7 525.9 526.1 526.3 526.7 525.4 524.1 522.7 520.5 519.6 519.4 518.5 516.9 512.5 509.7 510.9 515.5 519 519.6 519.7 520.7 528.5 530.5 530.3 531.7 531.4 531 530.2 527 517 507.6 495.9 482.5 468.3 459.7 456.3 456.1 456.1 456.1 456.1 461.3 467.6 470.6 473.5 473.6 475.3 472.2 473.6 474.6 474.5 473.9 472.4 470 468.2 467.8 467.8 467.8 468 466.8 470.6 479.3 486.8 491.3 494.4 493.5 491.5 488.6 480.1 472.2 460.2 447.9 442.3 436.8 432 427.9 420.7 419.5 411.3 409.3 409.3 416 420.5 430.2 439.3 448.5 452.9 454.5 453 448.5 445.1 440.7 431.6 425.3 414.4 409.6 411.8 411.6 406.7 400.2 395.3 391.6 393.3 398.1 396.4 397.6 403.4 400 404 404.7 405.7 408.5 399.7 404.3 405.1 400.3 394.4 388.8 390.5 393.1 390.2 385.5 386.2 382.4 382.3 376.6 366.1 360.3 364.1 367.5 373.1 378.3 381.4 385.2 385.7 384.6 382.3 379.2 375 368.3 359.7 344.9 328.8 311.1 306.1 303.4 303.2 303.4 303.8 304.2 304.6 304.4 306 308 310.2 311 308.5 304.7 300.4 295.1 290.8 289.1 288.2 287.8 287.8 287.8 291.6 300.6 317.1 324.9 329.7 331.5 333.3 328.4 329.4 338.9 342.8 345.9 349.2 354 360.8 373.2 387.8 396.8 404.9 409.6 412.6 412.6 408.1 409.2 409.4 407 404.7
531.8 531.3 531 530.4 528.6 524.6 522 522 523.2 524.3 524.3 525 525.5 526.2 525.2 523.5 521.1 519.1 517.8 514.2 513 509.1 508.7 510 511.9 515.8 514.3 515.1 519.6 524.1 528.5 531 530 530 529.8 525.8 519.4 513.7 507.6 496.3 484.2 477.4 464 457.7 456.1 456.1 456.1 456.1 456.1 460.5 464.9 467.4 469.1 471.1 470.9 473 474.8 476 476.3 474.7 472.8 469.9 467.8 467.8 467.8 468 469.3 474.5 481.4 489.9 495.4 499.5 496.8 491.3 490.3 482.6 472.8 461 448.6 441.9 436.9 433.2 428.9 424.5 419.9 417 410.3 403.8 414.5 423.4 433.4 441 449.1 452.7 454.3 453.2 449.2 443.9 439.3 429.2 419.8 417.9 418 417.1 415.6 410.9 399.7 401.5 403.3 407.1 410.6 412.8 415.8 422.6 424 430 432.9 435.2 434.6 425.3 432.3 424.7 421.9 419.1 419.3 414.1 408.9 401.2 393.7 396.1 391.9 388.3 385.4 374.6 368.9 375.1 379.7 383.9 387.6 392.5 396.1 395.9 393.6 390.1 385.9 380.5 372.5 361.7 342.5 327.4 310.8 304.9 303.1 303.1 303.3 303.6 304 304.4 305.6 308.4 310.8 311 311 309.1 305.2 300.9 296.9 293.1 289.7 288.9 288.5 288.1 287.8 287.8 302.8 315.2 320.5 322.3 321.2 319.4 328.5 335.1 341 344.7 346.9 350 352.5 359.5 368.3 374.4 380.1 385.3 392.2 397.1 397.3 395.9 396.5 398.5 394.8 389.5
531.1 531 531 531 529.1 524.4 521.2 520.8 521.8 522.3 522.9 523.4 524.1 525 525.4 524.9 522.7 520.6 516.2 511.6 509.3 508.3 508.1 508.2 509.9 511.9 509.5 511.6 519 521.1 526.1 528.1 525.3 527 525 521.4 519.8 517.1 512.6 503.6 494.2 486.7 478.3 463.9 457.3 456.1 456.1 456.1 456.1 457.9 461.6 465.3 467.8 470.1 473.5 474.9 477.7 479.8 480.8 478.9 475.7 473.2 469.5 468.5 468.3 468.6 472.2 478.9 485.6 491.8 498.5 499.9 496.5 490.6 486 478.1 469.4 458.5 449.3 443 438.1 433.9 429.8 425.6 421.6 420.5 402.5 406.7 417.9 425.8 433.2 440.7 446.7 451.5 452 451 447 440.7 437.1 430 426.8 428 425 422.9 418.4 411.2 407.9 411.4 415.6 420 426.1 427.7 433.7 442.3 450.7 453.5 455.8 457.2 455.2 450.4 450.8 447.8 445 442.4 435.6 430.5 422.4 416.4 411.8 406.9 400.5 394.7 390.4 377.1 384 388.6 392.9 396 400.5 404.3 406.6 404.1 401.1 396.6 390 383.4 374.5 362.2 339.4 324.6 308.8 303.1 303.1 303.1 303.1 303.4 302.9 302.4 306.4 310.4 311.2 311.1 311 309.9 305.7 301.2 299.2 295.7 291.9 290.3 289.6 288.6 288 289.3 300.3 308.6 312.6 311.6 311.2 324.7 336.1 341.1 341.1 342.8 344.3 346.3 347.5 352.3 354 355.8 357.9 361.4 371.3 378 381 382.8 387.6 386.7 383.8 380.1
531.1 531 531 531 525.4 521.2 519.9 520.3 520.1 520.9 521.4 521.8 522.6 523.6 525.6 529.7 525.1 520 517.8 512.2 508.8 508.6 504.5 503.6 510.3 505.2 497.3 506.5 516.7 520.8 521.3 522.7 522.1 523.1 520.1 519.5 520.5 518.6 514.4 507.1 501.2 495.6 487.4 475.4 460 457.2 456.5 456.2 456.1 457.6 460.5 464.3 466.7 471.9 476.9 481 485.3 487.3 489 487.7 483 477.4 472.7 470.2 469.3 469.9 474.1 480.8 487 490.2 492.3 492 489.2 484.2 478.2 470.2 460.3 455.3 448 443.1 440.2 437 432.8 428.3 423.7 417.4 400.2 407.2 420 423.2 428.5 434.3 440.7 446.1 445.7 448.3 445.8 440.8 441.5 437.1 436.4 433 429.6 426.5 419.5 409.8 415.4 421.8 425.2 429.8 435.5 441.3 451.5 457.2 463.3 466.7 468.5 470.5 469 466.8 463.5 459.9 454.6 449 444.2 439.2 433.3 427.3 421.6 413 405.5 398.4 387.4 393 395.5 400.6 403.1 407.5 411.1 413.4 413.1 409.8 406 401.1 392.4 384 372.8 354.6 329.8 318 310.4 305.9 303.1 303.1 303 302 301.4 304.6 307.2 310.4 311 312 312.8 310.8 309.3 305.2 302.6 298.8 294.7 291 289.7 288.7 288.2 287 294.8 297.5 299.3 309.8 320.8 331.8 337.6 340.9 339.4 338 336.7 337.2 337.2 339.2 340.2 340.9 340.4 341.7 347.8 353.6 356.2 359.2 363.8 367.6 371.1 370.5
531.1 531 531 528.7 521.4 519.6 518.9 517.6 517.9 520.6 520.7 520.4 520.4 521.3 523.2 526.9 522.3 519.8 520.1 519.3 515.5 515.7 510.4 498.9 499.1 495.2 488.7 501.4 508.2 510.9 516 518.7 519.7 520.4 516.9 520.4 519.6 517.6 514.4 510.9 506.2 501.5 493.6 485.3 472.7 459.4 457.6 457 456.7 458.2 460.8 463.4 468.4 473.8 482.2 491.3 496.2 498.1 498.7 497.2 490.4 480.3 475.7 475.9 473.3 472.3 475.5 479.7 483.6 485.2 484.6 484.3 480.6 476.3 471.2 467.1 461.5 455.5 450.4 446 442.9 440.1 435.7 430.8 426.3 420 402.7 398.8 413.6 418.2 420.3 423.5 430.3 434.7 435.3 445.9 447.6 448.1 444 439.1 438.8 435.6 432.4 429 418.7 419.5 425.2 429.7 434.3 439.7 447.4 453.5 461.5 468.5 475.7 478.4 478 478.9 476.6 472.7 468.7 464.4 458.8 453.5 449.5 444.7 439 432.6 425.3 417.6 409.4 403.1 400.3 404.1 409.9 412.2 413.2 416.6 418.4 419.7 416.9 412.2 406.3 399.3 390.5 378.8 361.8 344.7 327.5 315.9 312.3 308.2 304.7 302.9 302.6 301.2 301.4 307.2 310.5 311.9 313.5 315.4 315.9 313.6 311.6 309.8 305.9 301.7 297.4 293.1 290.1 289 287.9 286 290.6 292.4 303 311.9 322.9 328.6 330 330.6 327.3 323 324.5 325.1 328.1 329.6 326 326.3 327.6 329.4 333.5 336.1 340 344.7 351.4 356.9 359.1 369
531.1 531 529.6 527.1 521.1 520.1 516.6 514.7 512.8 518.1 520.9 520.9 514.7 517.3 520.9 520.6 520.5 521.3 524.2 524.3 523.3 528.5 511.1 487.7 487.8 481.4 484.9 489.1 493 502 509.1 510.6 511.1 507.6 512.6 515.8 518.7 516.3 514 512.5 509.8 505.8 498.4 488.2 473.1 460.3 458 457.9 458.1 460 462.2 466 471.6 480.3 490.8 499.8 504.7 508 508.2 503.5 492.8 484 477.6 477.1 476.2 474.4 475.2 477.5 478.9 479.2 477.4 475.8 472.6 469.9 465.7 461.9 457.6 453 449.8 448.2 444.6 441 437.7 432.6 427.8 421.8 411.6 399.7 403.2 408.2 410.8 412.2 417.8 421.1 426.7 443 450.1 449.9 447.6 444.6 441 438 434.9 430.1 421.2 428.4 432.8 436.5 442 448.9 456.5 465.1 472.5 479.8 483.8 485.2 484.1 481.9 479.1 475.1 471 466 461 456.8 452 446.8 441.1 431.2 425.2 419.5 415.7 412.6 412.2 413.9 417.6 419.6 421.1 422.8 422.5 421.8 418 412.9 405.9 395.8 384 366.3 349.5 337.1 324.6 317.9 313.5 309.1 305.7 303.8 301.7 300.4 303.7 308 312 313.6 315.8 318.1 319.1 317.2 315.1 311.6 307.6 303.3 299.3 295.9 291.9 287.9 285.7 285.8 286.2 290 296.7 304.9 310.7 314.1 314.4 312.5 308.7 310.7 311.3 313.2 315.6 313.4 314.7 316 317 319.8 322.1 325.9 330.9 335.8 340.8 353 364.2 375.8
531.1 531 531 529.5 522.8 518.8 514.2 511.2 508.4 515.2 518.5 514.2 510.6 513.1 513.7 517.9 519.3 524.1 530.4 530.5 539.4 532.9 510.9 480.7 477.6 477.2 479.6 477.1 481.1 491.8 498.3 501.1 497.8 496.5 505.3 511.7 516.1 514 513.6 513.7 511.2 501.8 489.4 476.8 466.6 460.1 458.1 458.4 459.7 462.2 465.2 471.3 479.9 489.2 499.6 506.1 510.9 513.3 512 507.9 497.5 484.9 479.3 475.5 469.8 469 471 472.6 473 472.7 470.3 468.2 465.8 463.6 460.9 457.2 453.8 449.9 445.3 444.9 441.6 439.1 436.5 433.3 428.1 420 413.7 402.4 398.8 399.4 401.3 404.7 407.9 414.7 428.5 444.6 449.9 449.3 449.4 449.1 441.1 439.5 434.9 431.4 431.3 434.3 438.2 442.9 449.2 455.6 464.6 473.2 481.1 486.6 487.9 487.2 484.7 482 478.6 474.6 470.5 466.2 461.7 458.5 451.9 445.4 439.7 429.6 425.9 422.8 421 418.7 419.8 423 424.7 425.3 425.7 426.5 425.8 423 417.9 412.5 403.4 389.7 367 352.1 343.1 332.5 330.4 323.7 313.8 309 304.9 303 301.2 300.3 304.3 307.5 312 315.9 318 320 320.8 319.3 316.9 312.5 308.4 306.1 302.5 299 295.5 290.5 285.6 286 286.4 285.5 287.4 289.9 291 291.2 295.7 298.1 300 300.1 299.8 301.8 302.6 304.1 305.9 308.8 310.6 313.2 317.1 321.2 326 330.6 343.5 361.9 378.7 385.9
530.7 531.3 532 528.8 520.2 516 511 508.4 507.9 508.6 508.4 508.3 508.5 508.6 508.9 513.6 520.7 527.5 533 537 541.5 531.2 505.6 478.2 470.2 469.7 470.5 466.8 469.5 477.4 483.1 487.7 482.4 486.4 498.6 509.3 514 514 511.8 506.5 499.9 489.4 476.2 467.2 461.4 458.1 458 459 461.6 465.3 471.6 479.4 489 497.9 506.8 512.2 515.8 517.4 514 508.3 497.9 485.5 477.7 473.9 469.3 467 466.6 465.6 465.7 466.2 463.2 460.6 458.6 457.1 455.1 452.7 449.6 445.5 440.2 441 437.8 435.1 432.1 430 423.6 417.1 410.7 403.6 397.7 390.7 392.3 396.6 405.2 416.8 431.7 442.9 449.6 449.8 449.9 449 441.1 438.9 435.9 435.7 435.1 438.9 443.2 447.8 453.2 459.6 469.6 480 485.6 486.9 487.8 487.9 484.3 480.8 477.9 474 469.6 464 461 456.2 448.4 443.3 435.6 428.8 425.8 423.6 422 422.3 425.7 428.8 430.4 429.1 428.4 429.1 427.2 424.2 419.3 411.4 401.7 386.3 369.1 359.2 354.5 347.6 337.3 322.3 309.5 305.7 304 300.3 299.1 300.3 304.5 309.4 313.3 317 320.3 322.4 322.5 321.5 318.9 315.2 311.4 309.5 306.3 303.1 299.7 294.1 289.1 286.6 286.3 285.6 285.2 284.6 284.4 284.1 283.9 293.3 293.8 293.5 293.6 293.7 295.7 300.5 301.1 302.7 307.3 311.3 314.6 318.5 323.6 332.7 349.5 370.7 386 390.9
537.6 535.1 531.9 527.4 521.3 515.6 510.5 509.5 508.9 507.7 507.7 507.8 507.8 507.7 509 515.5 521.4 531.9 538.2 540.6 543 532.4 502.6 479.1 471.1 466.8 462 464.5 461.9 466.3 470.4 471.3 470.4 481.3 494.5 503.8 509 506.8 499.8 491.7 483 473.2 465 459.7 458.7 458.7 459.7 461.1 464 472 481.3 489.3 496 504.2 514 519.7 520.8 521.4 517 509.3 499.4 486.1 478.8 472.7 468.4 465.5 462.9 459.2 458.4 455 452.3 452.8 452 450.9 448.4 446.9 444.8 441.6 436.8 433.3 431.2 424.5 422 419.5 418.1 399.7 399.8 400 392.4 390.4 389.4 389.9 403.4 418.8 430.4 439 444.1 446.1 446.6 444.8 441 437.9 436.3 435.5 436 441.6 444.9 451.1 456.8 464.1 473.7 482.5 487.8 487.5 487.7 487 483.1 479.5 475.5 472.2 465.5 458.1 455.9 450.5 444.6 440.3 431.7 425.9 423 421.4 421.9 426 430 431.7 432 431.2 430.7 430.7 428.9 425.6 420.3 412.7 403.9 394.1 384.3 372.8 362 352.1 334 316.9 306.7 302.9 301.5 299.7 298.9 301 305.3 310.2 315.1 319.1 323.2 326.1 325.8 324.8 321.9 318.9 317.1 312.3 309.8 307.6 304 299.7 295.6 291.4 288.8 287.7 288 286.7 285.2 284.8 284 286.7 288.6 289.7 289.4 289.4 290.8 296.3 298.1 300.4 303.3 307.5 310.2 316.1 323.9 334.9 354.5 373.7 386.8 390.2
539.2 538 533.7 529.2 524.3 519.7 516.5 511 508.7 507.8 507.7 507.7 507.7 507.4 507.7 509.5 522 531.2 540.7 542.8 541.1 524.8 500.7 482.7 473.6 465.3 460 459 458 457.7 459.9 463.2 467.4 476.5 490.4 492.7 490 485.5 482.2 474.1 468.7 461.5 458.2 458.1 458.1 458.2 460.4 463 468.4 481.7 490.8 496.9 504.1 511.9 519.9 524.2 526.2 525.3 519.6 510.4 499 486.6 478.9 472.9 468.1 465.7 463.5 458.9 457 453.7 450 449.5 448.7 446.6 441 439.7 442.3 438.1 433.5 429.5 429.2 431.6 430.9 424.2 416.5 407.9 400.6 400.1 400.9 399.5 390.3 388.9 400.2 414.7 423.7 429.9 434.9 438 439.9 439.4 437.6 433.7 428.7 426.5 425.5 430.1 437.4 446.1 459.8 467.9 476.6 483.3 487 487.6 487 484.8 481.3 476.9 471.5 465.7 459.3 451.3 448.8 444 436.8 430.8 424.5 419.7 419.9 420.5 424 429 431.7 433 433.3 432.7 432.2 431.2 431 426.5 419.9 412.8 405.5 396.8 386 375.2 363.4 345.8 329.3 312.6 304.2 300.7 298.8 298.3 298.9 301.6 305.9 310.7 316 320.8 326.7 330.2 329.1 327.8 324.8 322.1 320.5 316.5 314.3 313.2 310.8 306.6 303.1 297.3 293.8 291.6 291 289.9 289.8 288.8 286 284.1 284.9 286.6 288.4 290.1 292.4 296.3 298.5 300.5 300 306.1 311.2 316.2 325.5 342.5 360.2 377 385.3 390.7
540.9 539.4 535.9 531.8 529.9 524.2 520.5 514.4 509.8 508.7 508.7 507.7 507.7 505.1 505.2 509.4 521.8 531.4 538.3 546.5 542.4 526.2 506.8 491.6 478.5 468.4 462.1 458.3 455.8 455.6 456 458.8 462.2 469.6 473.4 471.4 469.1 465.2 461.4 460 457.3 455.6 457.9 457.9 457.9 458.1 460.6 465.4 475.6 490.9 499.9 505.6 513.1 521 525.7 529.7 530.6 528.7 523.2 512.2 497.5 487.4 480.4 473.4 468.7 466.7 464.7 459.9 458.8 457.2 455.9 452.9 449.2 446.8 444.3 441.5 439.7 431.2 429.7 429.3 431.2 434.1 432.2 427.6 417.8 406.3 402.6 400.5 400.8 400.2 391.5 389.4 392.2 406.8 413.4 418.7 423.1 426.1 428.4 428.7 425.6 421.1 410.2 402.6 408.7 414.6 425.2 439.2 452.2 465.8 477.2 482.8 484.5 485 483.9 482 478.4 473.6 467.4 461.2 451.6 443.8 441.5 432.7 425.4 418.8 415.3 412.8 414.5 419.2 423.6 428.2 430.7 432 432.4 432.7 432.5 431.1 429 425.1 419.2 412.1 404.9 396.2 385.3 371.9 358.4 336.9 324.7 310.3 303.5 298.5 297.6 297.6 298.7 301.4 304.4 309.6 316.7 322.7 330.2 335.5 334.3 331.2 327.9 325.1 323 319.8 319.2 318.7 316.2 312.5 308.7 302.6 299.5 296.7 293.5 291.5 290.5 291.1 288.7 283 285 288.6 291.7 295.2 298.1 301.1 301.6 301.4 299.8 306.3 311.7 316.2 324.8 339.9 359.8 373.8 382.4 389.2
540.9 539.3 537.9 534.5 531 526.8 521.4 520.5 509.8 509.6 516.1 508.7 506.7 501.3 502.4 509.6 513.6 528.1 536.9 542.1 539.9 528 513 496.3 485 475.2 468.9 459.6 454.6 453.4 456.3 456.1 456.3 458.4 458.3 457.4 456.8 457.1 456.9 455.4 454.9 454.9 456.1 457.9 457.9 458.8 462.9 470.1 484.5 499.2 509.2 515.4 520.4 526.2 530.8 532.7 533 531.6 524.3 510.8 497.9 489.8 482.7 476.4 472.8 469.5 466.6 463.4 464 462.2 459.4 456.5 453 452.8 448.6 445.7 441.4 437.3 431 431.7 436.7 438.7 438.5 432.6 422.5 410.5 403.7 401.1 400.9 400.3 390.2 388.8 387.6 394.4 399.6 406.5 410.8 413.6 413.4 412 404.8 396.4 393 402.6 413.4 421.2 428.9 439.2 452.6 466 477 480.8 481.6 481.7 480.5 478.5 474.3 469.4 463.2 454.8 442.6 429.6 426.7 422.8 415.9 409.7 407.6 408.5 411.7 419.2 422.1 424.7 428.2 430.3 431.2 432.2 432.7 429.1 426.7 423.5 416.9 410.3 403.7 393 379.7 367.4 352.4 331.6 317 308.2 301.5 298.6 297.8 297.6 298.1 300.6 303.8 307.8 314.5 323.4 331.6 336.9 337.1 332.7 330.3 328.2 326.7 324 322.7 322 320.9 317.5 312.3 307.5 303.3 300.1 296.7 293.2 289.8 290.4 289.6 281.1 285 301 303.3 303.2 306.6 306.9 306.8 307.6 307.6 308.9 308.7 312.9 321.1 332.2 349.4 364.2 377.4 386
540.1 539.8 539.3 535.5 531.3 527.8 522.3 519.5 515.3 516.8 521.1 514.6 507.8 500.9 499.7 504.6 510.1 527.6 537 541 533.9 521.8 507.9 494.8 484 475 468.1 459.3 450.3 449.4 453.9 451.7 452.2 453.6 452.8 453.7 454.7 455 454.3 454.4 455.2 455.4 455.6 457.3 459.5 461.4 466.2 477.5 493 507.7 516.4 522.4 528.1 531.2 534.2 536.4 536.4 532.8 525.7 514 503 493.7 488.3 485.2 479.5 476.1 472.5 470.9 469.8 467.7 465.6 460.1 457.4 456.8 449.9 442.2 439.4 439 435.6 440.5 443.2 444.2 444.5 440.9 427.8 415.3 406.7 399.2 394.3 389.2 389 389.3 382.8 381.5 387.4 393.2 398.9 400.4 400.2 398.8 388.7 389.9 396.4 410.2 420.1 428.6 437.9 449.6 461.9 471.2 476.2 479.2 479.5 478.3 476.3 473.5 469.4 463.8 458 450.9 443.5 432.8 423.2 414.2 408.3 400.2 399.3 403.7 408.4 411.8 417.7 419.2 423.1 427.3 430 431.2 429.6 427.1 424.6 418.2 411.2 405.5 398.7 387.1 373.6 359.8 343.2 325.6 312.3 304.4 301.5 298.8 297.8 297.4 297.5 299.9 302.7 306.6 312.5 322.2 329 335.6 333.6 331.9 331.1 330.8 329.5 327.9 326.8 325.6 323.2 319.2 313.8 308.4 304.6 300.1 296.5 293.5 290.1 289.3 285.4 280.9 289 312 315 315.7 318.8 316.7 314 314 312 310.3 310.1 310 318.1 328 339.4 354.1 369.3 381
539.3 540.9 540.1 536.6 530.8 526.6 520.7 522.2 526 525.9 530.6 523.1 510.4 502.3 498.4 499.7 507.2 521.8 535.8 536.8 524.7 510 496.7 486.5 474.4 465.8 458.5 452.6 448.3 448 448.3 448.8 449.3 450.1 451.2 454.5 453.9 453.8 451.6 453.2 454.9 455.2 455.9 459 461.6 463.6 471.7 488 503.1 516.1 522.9 528.3 530.8 533.1 538.2 539.9 538.1 533.2 529.5 520.4 508.6 500.7 497.5 495.6 489.9 484 481.8 480.9 478 474 470.4 466.1 459.3 453.1 448.4 442.4 444.5 443.7 445.8 449.1 447.9 449 446.3 440.7 429.7 417.5 401.1 394 391.7 391 391.3 390.7 386.3 385.6 378.9 380.4 385.3 387.4 387.3 383.5 381.3 390.6 401.6 415.2 423.6 432.6 443.1 454.9 465.8 471.5 472.1 474.7 475.4 473.8 471.5 467.5 463 457.5 453 447.5 441.1 434 423.3 411.7 403.9 399 397.8 397.8 399.8 403.9 408.7 412.8 419.3 424.2 427.2 428.1 426 423 419.2 412.7 404.4 398.2 390.7 379.1 365.1 349.8 333.5 318.2 308.5 302.6 299.5 297.6 295.9 296 296.8 298.9 301.3 305.6 311.9 320.7 325.9 331 332.1 331.5 330.8 330.8 330.8 330.4 328.9 326.8 323.9 320.9 314.3 308.7 304.3 299.8 295.5 292 290.4 289.4 281.1 280.9 298.9 319.5 326.9 328.5 330 327.4 322.4 319.8 316.7 315 313.8 315.2 319 324 335.3 349.3 362.8 374.9
536.3 540.9 540.1 535.5 530.3 527.5 526.2 529.9 534.6 537.7 535.4 526.2 514 500.2 496.6 498.5 507.5 516.6 531.1 525.5 511.4 496.7 484.2 474 463.4 456.6 452.3 448.5 448 448 448 448.1 448.1 448.2 447.9 448.9 449.5 449.1 449.6 453.9 455.1 455 455.8 459.3 463.3 468.3 485.3 501 512 521.7 527.3 529.2 530.6 534.2 539.3 540 538.7 535.6 532.5 525.1 514.4 510 506.4 503.4 498.2 493.9 493.9 490.1 485 479.2 474.6 466 459.6 452.9 450.4 452.9 454.8 455.4 456.6 456.5 454.3 450.8 447.7 442.2 431.7 419.4 402.8 395.1 394.3 396.9 395.7 392.7 389.9 390.7 391.5 379.2 370.7 375.8 373.8 379.1 383.9 393.1 406.4 418.3 427 436.5 446.9 457.9 465.7 471 468.7 468.5 467.1 468.5 465 460.3 455.8 451.7 447.3 442.2 436.7 429.1 418 408.9 401.4 398.8 397.9 397.9 397.3 393.8 399.1 405.7 413.9 420.3 422 422.3 420.6 416.3 411.3 403.6 393.4 388.3 379.2 367.6 353.3 336.8 321.3 312.9 306.3 301.5 297.8 295.6 295 295 295.4 297 299.9 304.1 309.8 318 324.4 330.9 331.6 331.1 330.3 330.8 330.8 330.8 330.3 327.4 324.5 321.3 315.2 309.2 304.1 299.4 295.3 290.9 289.6 282.2 280.9 284.3 307.4 327.4 338.2 338.5 338.5 336.1 331.4 327.2 322.4 321 319.8 320.5 320.3 323.5 332.9 343.9 359.9 367.6
532 540.5 539.2 537.5 531.9 532.8 531.6 540.3 545.5 542.8 536.5 527.1 514.4 498.3 490 496.4 507.7 518.9 525.9 512.9 497.1 482.9 470.3 461.1 455.9 451.9 448.3 448 447.9 447.9 448 448 448 448.9 448.9 448.8 448.7 449.6 450.1 454.6 455.1 455.4 456.3 460.1 464.9 474.2 491.4 508.2 516.2 522.7 526.5 529.4 530.8 534 539.8 540.9 538.7 536.3 533.3 529.8 520.3 515.4 511.6 507.7 503 500.5 498.8 494.3 489.9 481.3 467.6 466.1 464.3 461.6 461 465.2 469.5 467.6 465.4 466.7 462.6 457.7 452.9 445.6 432.4 418.9 407.4 399.4 397.4 396.5 394.8 391.3 390.2 388.7 390.7 382 372.3 364.8 367.7 377.9 380 389 408.5 419.5 426.9 436.9 448.7 457.8 464.3 465.8 462.6 460.7 458.7 460 457.5 453.4 448.8 445.5 441.1 437 430.9 422.6 413.3 404.8 400.1 399.1 399 399.4 398.8 389.5 389.6 397.6 407.5 413.3 415.6 415.8 413.4 408.3 402 393.4 385.3 375.9 364.7 354.9 339.7 323.4 315.1 309 303.7 300.4 297.5 295 294.3 293.8 294.1 295.2 298.3 302.5 309.2 318.4 326 330.9 331.1 331 329.6 330.3 330.8 330.8 330.8 328.3 325.2 321.5 316.6 311.5 306 300.5 294.7 290 288.2 280.9 280.9 295 318 339.3 342.6 344 343.9 342.4 339.4 335.6 329.8 327.6 326.3 326.7 322.9 324.9 330.4 338.7 348.4 360
529.3 537.5 539.9 541.2 540.1 539.3 544.9 548.7 551 549.4 539 530.6 515.3 493.3 488.8 493.1 502 518.5 515 500.5 483.8 468.9 458.9 454 450.9 448.4 447.9 448 447.9 447.9 447.9 447.9 448.2 449.5 449.7 449.3 449.4 451.9 454.7 454.7 455.1 455.4 457.5 461.9 467.8 477.5 490.9 500.9 511.3 519.8 523.1 526.6 529.1 532.6 537.9 540.4 538.3 535.9 532.8 529.2 522.9 517.1 512.9 509.8 504.8 501.2 500.1 492.5 485.3 479.2 472.1 473.2 469.8 469.3 474.6 478.7 479.4 475.1 474.3 472.6 468.8 464.8 460.4 454.5 443.1 427.9 412.5 402.4 395.8 392.1 390.6 389.7 385.8 382.3 383.2 383 378.3 366.1 360.6 368.8 371.7 384.3 402.2 409.2 424.6 435.9 449.4 455.4 460.3 457.6 453.8 451.7 451.3 450.5 449.4 446.5 443.8 441.9 437.4 433.1 427.2 418 410.4 406.3 403.9 402.9 403.4 402.8 402.3 400.6 389.2 391 397.7 402.6 407.2 410.1 405.7 400.4 393.1 385.5 379.7 365.2 353.5 342.5 327.8 316.9 310.5 304.7 302.3 300.1 297.9 295.5 293.6 292.3 292.7 293.9 297.4 301.9 311.2 319.8 325.1 330 330.8 330.8 329 329.8 330.7 330.8 330.4 328.7 325.7 322.4 317.5 311.8 306 300.4 294.6 289.2 280.9 280.9 281 307.7 328.7 338 342.7 346 348.4 346.6 344.8 342.5 338.5 334.8 333 330.8 328.8 328.9 335.7 347 356.6 365.3
531.3 536.4 546.9 548.5 547.9 549.4 553.6 550.9 550.2 550 540.5 529 509.9 489.6 484.2 487.3 494.5 506.2 501.3 487.6 472.2 458 453.1 451.9 448.8 445.1 447.9 447.9 447.9 447.9 447.9 448.1 449.6 454.1 451.3 454.5 454.6 451 457 455.5 455.1 456.1 459.8 465.6 471.9 483.3 496.7 502.2 511 518.8 520.7 523.7 527.9 531.1 534.1 537.4 537.1 535.3 531.9 528 521.6 517.5 512.8 507.9 503 500.7 492.6 489.3 490.6 489.6 484 478.1 483.3 487.3 487.2 487.3 484.8 482 480.7 477.5 473.3 468.3 463.9 457.4 448.3 433.7 418.2 404.6 400.4 392.2 388.5 385.4 381.5 379.9 377.6 376.1 370 368.5 361.7 359.5 359 369.6 380.7 399.7 418.2 431.9 446.2 451.5 454.9 450.3 444.4 442.5 441.1 439.9 442.3 439.8 438.2 436 433.6 430.9 425.3 417.7 410.8 409.1 409.1 409.4 410.5 408.6 405.9 404.4 396.4 381.8 385.8 391.8 399.4 401.2 397.8 392 383.4 376.3 368.5 355.9 345.6 332 318.9 313.1 308.2 303.4 301.5 299.3 297 294.8 292.5 290.9 291.4 293.1 297.2 302.7 310.8 321.2 324.8 328.9 330.8 329.1 329.4 329.4 330.2 330.8 330.7 329.5 325.7 322.2 317.4 310.9 305.1 299.8 291.5 282.8 280.9 280.9 288 311.2 321.8 330.9 339.5 347.1 351.3 352.1 351 349.7 345.9 341.4 332.4 330.6 331.1 338.1 347.5 354.4 368.6 378.9
540.1 538.3 552.3 552.2 553.9 559.5 558.9 553.1 552.4 549.2 541 527.9 513.1 487.8 480 480.6 481.4 484.4 487.8 475.6 461.6 453.1 451.7 449.1 446.1 443.8 444.8 447.9 447.9 447.9 448.4 450.9 454.6 456.9 455.2 456.9 457.1 456 456.4 456.7 456.5 459.2 464 469.5 482.9 494.8 507.5 510.9 518.4 520.9 521.6 524.8 528.1 530.5 533.2 534.6 534.3 532.6 529.9 524.6 518.9 513.2 509.1 504.8 499.9 498 497.4 496.7 498.5 497.5 491.9 489.6 491.4 492.4 491.4 490.4 487.8 484.9 482 480.1 474.9 469.6 462.6 456.2 449.1 435.1 418.4 405 397.3 389.1 385.3 382.2 380 379 375 370.3 370.3 370.9 368.1 360.5 359.1 357.4 367 385.7 405.3 423.7 440.1 448.7 447.4 442.6 436.6 431.8 427 429.7 435 435 433.9 432.7 430.1 427.5 422.3 416.9 411.1 410.9 410.5 411.3 412.4 411.1 408.8 406.8 402.6 395.2 380.7 383 391.2 391.6 387.5 382.8 375.6 367.3 357.5 346.2 335.1 322.6 313.3 309.9 305.8 301 300.4 298.6 296.4 294.2 291.8 290.2 290.3 292.7 296.8 303 311.7 321.6 324.9 328.7 330.3 328.4 328.2 327.2 328.5 330.3 330.7 329.6 324.8 321.2 314.5 308.5 302.1 294.9 286.8 280.9 280.9 280.9 290.4 304.9 319.3 333.2 345.2 354.8 358.8 358.4 356 353.4 351 340.5 342.6 336.5 341.5 351.9 363.5 374.8 379.1 386.1
539.8 538.4 555.6 558 558.3 563.3 560.9 556.1 553.2 551.3 539.7 531.8 509.9 489.5 474.3 470.9 468.7 469 471.7 463.9 456.4 451.9 448.7 446.1 443.7 442.9 444.3 446.6 448.3 449.4 454.1 458.4 461.9 461.5 460.8 461.3 459.7 458 458.1 459.4 462.9 468.6 470.1 476 492.2 504.7 514.8 522.1 528.3 527.3 525.3 527.2 529.3 530.6 531.5 532 532 530 527.6 521.3 516.8 511.5 508 504.7 501.2 502.4 503.7 503 500.7 498.1 492.2 491.7 491.1 491.8 490.2 488.5 485.3 482.1 480.3 476.3 472.9 468.2 460.8 454 447.4 435.7 419.2 399.2 394.7 389.4 386.7 383.6 380.8 380 377.7 371.8 369.9 370 366.7 359.7 358.2 355.4 358.6 363 382.8 407 429.1 444.3 443.4 437.4 429.5 423.9 414.8 415.5 429.2 430.2 430.9 429.4 423.6 423.1 418.4 412.8 410.1 410 412.3 415.4 412.5 410.4 408.8 407 403 398.3 391.7 377.3 380.1 377.9 375.7 371.9 365.6 355.5 345.4 335.6 322.6 314.2 308.7 306 303 300.4 301 298.9 295.7 293.4 290.7 290.1 290.2 292 296.5 302.5 310.8 318.7 322 325.9 329.2 327.6 324.5 323.1 325.7 328.8 330.8 327.6 323.1 317.5 312.4 306.3 301.3 292.3 281.5 280.9 280.9 280.9 296.4 314.4 331.7 347.5 358 362.2 362.9 363.6 359.1 353.1 350 344.7 353.6 349.3 356.9 364.7 378.9 384.4 390.4 397.2
536.9 540.7 559.5 560.4 560.5 560 560.4 560.1 558.9 551.2 539.2 529.7 513.7 496.7 476.8 462.1 459.4 457.6 456.4 455.3 452.5 448.8 445.6 444.4 442.6 441.3 444.6 448.5 450.8 455 460.2 464.9 469.7 468.1 467.8 468 466.4 461.6 460 464.1 469.8 475.9 479.5 484.6 502.6 513.8 523 531.2 534.9 532.4 529.2 529.7 530.8 531.4 531.8 532 531 530.1 525.1 520.3 515.5 511.1 510 507.8 508.4 511.1 509.8 507.3 503.4 497.4 491.2 486.5 481.7 485.1 483 483.4 479.8 477.7 473.7 468.6 463.5 456.7 452.1 446.5 439.4 428.6 415.6 398.1 392.4 390.1 388.7 385.3 381 380.6 378.1 372.1 369.7 369.3 368.3 363.3 361.9 361.5 359.7 357.9 358.6 379.7 407.2 434.3 437 430.5 423.6 416.7 405.4 402.2 419.6 419.2 423.5 420.1 416.8 419.2 413.5 408.6 409.2 410.8 411.4 413.9 411.3 409.2 407.8 406.3 402.9 399.1 397.2 384.8 354.4 360.5 359.9 357.8 350.1 342.1 335.9 319.4 315 317.3 314.2 309.9 306.2 301.3 299.1 299.1 296.1 292.5 290.1 290.1 290.6 291.7 296.6 301.8 309.2 314.2 319 322.5 326.3 325.1 322.9 320.1 322.9 326.1 327.7 323.3 319 312.8 307 302.8 300.8 294.8 280.9 280.9 280.9 285.8 306.6 327.3 347.1 361.2 366 365.7 364.1 360.6 358.6 351.2 349.4 353.6 365.1 358.9 367.3 376.9 388.2 394.2 399.1 404.7
527.3 543.2 557.5 558.5 556.9 558.6 560.1 560.4 560.1 553.8 540.5 531 518.4 504.3 485.3 463.9 453.6 450.5 451.3 451.5 448.6 446.5 444.4 442.4 439.3 440.6 445.7 450.8 455.9 460.8 465.6 470.3 473.3 473.3 473.5 474.6 471.2 467.8 464.8 468 476.1 483.8 489.1 499.3 512.6 525.8 534.5 540 542.8 538.5 536.6 535.6 536 534.8 533.9 533.1 531.1 530.1 525.9 519.5 517.4 514.6 515.5 518.1 520.7 518.2 516.4 513.7 509.5 501.9 491.6 481.5 473.2 468.2 468.4 470.9 469.4 466.2 464.6 454 446.2 439.7 434.4 428.6 423.4 413.2 408.3 397.9 392.3 390.6 390.4 385 380.9 378.8 374 370.5 369 371.4 373.2 371.6 371.7 373.6 369 360.5 349 360.4 385.7 416.6 424.5 419.3 416.7 411.3 400.2 393.8 407.3 405.5 410.3 405 410.4 413.1 408.3 402.6 407.9 411.1 409.8 409.6 409.2 406.5 407.1 405.6 402.7 400.6 396.4 387.8 347.3 331.7 331.9 329.4 321.9 320.9 323.5 325.9 322.8 321 316.2 311 307.9 304.3 301.2 299.7 295.7 292.1 290.5 290.3 290.9 291.1 295.8 300.3 307.6 309.2 317.9 320.9 322.5 321.6 319.1 319.5 320.7 322.9 323.8 319.8 315.8 310.2 301.8 297.7 294.5 286.9 280.9 280.9 280.9 297.9 317.8 341.5 359.6 367 370.2 368.9 363.3 359.5 359.2 356.5 355.4 361.3 371.2 372.3 376.6 385.6 393.9 399 403.1 406.4
517.4 534.4 547.9 552 553.2 553.2 555.4 554.4 553.4 549.2 538.3 527.4 513.5 502.3 489.1 470.2 454.6 448.6 448.8 449.1 446.5 444.7 441.7 439.5 439.2 444.6 448.7 453.8 460.1 465.8 471 475.2 478.7 479.5 481.8 482.3 478.6 473.4 469.3 475.5 483.9 493.6 501.6 516.4 524.1 534.6 545.6 551.4 552.2 547.8 543.2 540.4 541.4 539.3 537.1 536.2 533.7 530 524.4 525.1 525 520.4 521.7 524.7 528.4 526.8 524.7 521.3 516.1 510.2 501.3 494.6 490.4 477.5 463.2 449 444.6 448.3 448 439.2 429.6 427.4 419.5 418.7 413.6 409.8 401.6 394.8 390.2 390.7 386.7 380.5 377.3 371.9 370 369.3 373 378.4 378.2 377.1 379.9 383 382.2 372 357.5 350.3 368.1 392.2 409.2 410.4 406.9 400.2 392.7 384.9 388 386.4 392.1 386 394.4 401.3 395.1 395.3 403.6 404.6 406.4 407.5 405.5 402.5 403.2 402.9 401.2 399.2 395.7 388.9 367.9 349.5 346.1 343.1 342.1 337.3 335.6 329.7 326.5 320.3 317.1 313.3 310.1 306.1 300.4 298.5 295.2 291.7 290.8 289.2 289.4 290.8 294.4 298.4 301.7 305.7 313.7 318 318.6 321.3 312.1 321.1 321 321.3 321.3 317.2 312.9 306.7 295.9 290.1 282.9 280.9 280.9 280.9 295.3 314.2 334.8 354.6 365.8 371 369.7 369.1 364.4 361.4 361.2 360.2 359.9 366.4 372.3 378 384.2 391.4 398.3 402.7 405.4 408.1
509.4 522.9 534.3 540.3 548.4 549.4 547.7 543.7 541.9 540.8 528.9 518.4 507.6 495.9 482.2 470.1 454.3 447.3 445.9 446.1 444.8 443.2 439.7 440.8 441.7 444.7 449.6 456.1 462.7 468.4 475 480.7 484.5 486 489.5 489.2 485.9 479 477.8 484.9 494.2 506.8 517.4 530.1 535.9 545.3 556.3 559.9 558.8 554.7 549.7 547.9 547.8 544.6 540.7 539.8 537.5 535.2 531.5 534.3 533.6 530 530.1 531.1 533.1 532.8 531.6 527.5 522 514.2 509.4 509.2 499.7 484.4 465 460.1 451.7 439.1 439.4 432.1 428.6 429.7 433 432.2 427.5 423.4 412.6 394.4 388.5 389.2 382.4 378.9 376.6 374 377.4 381.9 384.6 389 389.3 384.7 387.5 387.4 384.7 377.3 365.1 353.8 355.2 375.5 400.4 401.3 396.3 390.8 383.7 373.8 368.6 367.2 372.3 367.5 377.5 383.3 379.6 380.9 395.2 394.6 399.7 398.9 398 396.6 398.9 400 398.3 396.9 392.8 388.2 381.7 374.6 368.2 361.2 352.9 344.9 338.2 331.3 327.5 323 319.9 315.8 311.9 306.6 300.2 296.9 293.8 291.9 290.7 290.9 289.8 289.7 291.1 295.1 297.7 304.3 311 311.7 313.4 307.8 318.6 321.1 321.1 320.1 317.9 314.7 309.5 302.8 288.6 280.9 280.9 280.9 280.9 299.1 313.3 330.6 353.7 364.1 369.4 370.4 369.3 369.5 366.3 364.6 365.2 365.4 366.1 372 376.7 381.8 389 395 400 403.2 407.6 409.6
498.7 513.9 523.2 528.5 538.5 538.7 537.4 526.2 525.4 523.8 514.4 505.5 491.5 483.3 467.5 455.5 447.6 442.7 441.1 443 443.2 439.6 439.2 440.2 443.1 445.5 449 455.5 463.1 469.3 476.3 483.9 489.9 493.5 499.8 498.9 495.5 491.1 484.6 495.1 505.3 518.7 530.3 539.4 547.7 554.4 561.7 566.5 562.7 558.6 555.2 555.1 552.1 549.4 547.1 543.1 541 541.5 539.8 541.9 540 536.7 536.6 536.7 537.3 537 534.1 530.6 526.7 520 515.9 511.7 507.3 496.6 480.7 476.1 461.3 448.2 437 433.6 439 446.6 452.2 451 447 437.9 423 409.9 392 389.1 385.9 380.9 380.2 385.9 387.2 388.8 393.9 393.7 396.9 397.8 396.4 396 388.9 380.1 370.6 362.3 349.1 355.6 384.8 396 393.2 388.5 378 363.3 348.6 342.3 357.6 349.8 360.2 368.2 354.4 368.9 376.5 375.1 380.8 384.6 385.8 389.9 393.6 392.8 392.4 392.8 389.3 384.8 378.9 373.3 368.6 360.5 353.1 345.3 338.6 333 329.2 324.9 320.5 314.8 310.2 306.3 299.9 297.8 294.2 292 291 290.5 289.9 289.6 290.9 291.3 294.1 299.6 303.6 304 307 308.1 316.2 318.8 319.8 317.3 314.1 310.4 304.8 296 280.9 280.9 280.9 286.6 305.4 321.4 336 351.5 366.3 371.4 372.1 369.8 370 369.9 368.9 368.1 369.1 370.1 372.6 378.7 384.9 389 393.7 399.9 401.3 403.7 405.2 407.9
490.4 502.9 508.5 515 518.7 524.7 522.7 514.8 508.5 504.1 496.7 485.6 473.5 463.5 452.5 446.6 443.1 443.2 439.3 439.2 438.9 439 439.3 440.9 444.3 447 449.5 456.3 464.5 473 481.5 488.6 495 501.2 506.8 509.3 506 500.8 494.6 500 513.6 527.7 539 546.4 554.7 562.9 570 570.9 565.8 561.2 560.6 560.3 556.8 554.2 552 547.8 547.8 549.9 545.4 548.8 545.7 541.8 541.4 542.8 541.3 540.1 537.3 533.2 528.5 522.9 520.7 512.3 514.1 508.7 501.8 489.5 475.3 458.2 450.6 445.9 459.4 468.2 472.9 471.7 462 449 428.9 410.7 396.1 392.8 391.7 387 389.6 395.4 398.2 398.5 403.4 406.4 410.6 410.6 408.4 406.3 400.4 384.4 373.5 366.1 358.1 348.6 368.3 386.5 387.2 382.6 379.2 370.3 360.3 341.3 338.8 339.8 343.9 347.7 343.7 354.6 351.4 352.8 356.1 363.2 372.1 379.1 384 384.8 388.1 388.1 384.1 379.1 374 368.3 363.2 356 349.2 342.1 335.8 330.7 327.2 322.1 317.4 312.3 307.8 304.2 300.6 298.5 294.8 292 290.7 291 290.8 289.1 288.4 289.5 288.5 288.8 291.1 296.2 296.2 304.9 311.3 315.1 316 314 310.5 306.5 300.5 289.8 280.9 280.9 283.8 306.8 327.9 343.5 358.3 368.4 375.4 376.7 376.3 372.1 369.2 369.8 369.1 370.4 371.8 373.2 376.9 383 390.3 394.5 397.9 401 402.7 403.6 404.9 405.7
483.5 486.6 494.4 499.3 505.2 508.4 505.7 494.3 488.1 484.6 475.1 465.3 455 448 444.1 442.2 440.8 439.1 438.3 438.1 438.3 439.1 441.1 446.5 450.5 452 453.3 458.6 466.8 477.9 487.2 493.7 501.9 509.8 517.2 521 519.2 513.4 508.3 508.5 516.8 527.2 539.8 549.3 560.4 569.8 571.7 571.1 569.8 569.1 568.3 565 560.9 560.1 556.4 552.2 552.1 552 550.6 551.1 550.6 548.1 548.3 549.8 546.2 541.7 539.7 535 530.5 525 519.8 520.5 523.2 519.6 513.9 502.8 490.6 475.4 472.2 470 480.3 488 486.9 478.8 467.4 450.3 429.8 412 401.6 397.8 396.3 395.8 400.3 407.6 413.1 413.9 416.5 419.7 419.8 420.9 421.2 416.2 405.4 386.4 374.7 367.2 363.3 350.5 349.7 370.7 374.8 373.2 371 362.8 354 346 337.4 319.4 325.2 326.9 328.6 330.2 326.7 326.5 327 328.7 342.2 356.1 371.3 376.7 380.2 378 372.6 368.7 365 360.8 357 351.1 343.3 336.2 330.5 325.3 320.7 317.4 314.9 311.1 306.1 301.8 298.9 296.6 294.2 291.8 290.7 291.1 291 288.6 287 286.4 284.9 286.7 285 283.9 288.6 298.6 306.5 311.3 310 308.5 307 302.1 295.6 282.7 280.9 280.9 297.3 319.7 342.9 360.1 368.4 376 380.9 380.1 377.9 371.5 369.2 368.4 369.4 370.3 373.9 375.7 379.8 386.8 394.2 399 401 401.1 401.9 402.6 403.5 403.3
471.8 469 478.5 480.3 483 483.2 481.5 474.1 466.2 460.7 452.3 446.1 442.8 442.4 440.9 438.5 437.8 438 438 438.6 438.9 440.5 444 450.6 456.9 459.7 464.1 469 474.3 484.4 493.3 502.7 511.2 521.8 529.6 534.4 531.8 526.5 521.7 522.4 527.3 530.7 541 554 563.2 571.4 574.9 573.6 571.7 571.5 570.6 570 567.8 565.4 562.2 559.1 557.8 558.2 558.2 556.6 555.5 554.7 554.5 552 549.6 546 541.7 536 531.1 526.4 525.2 528.4 528.5 525.8 521.5 514.7 502.3 499.2 494.9 496.4 499.4 499.2 492.3 482.3 470.3 452 434.8 413.7 408.4 407.2 401.6 405.8 412.7 426 429.6 428.4 428.6 427.9 422.6 420.4 416.2 408.1 392.8 377.7 372 362.3 355.3 350.8 342.9 349.4 358.4 354.7 353.5 352.6 346.2 338.6 330.4 330.1 329.4 323 319 318.7 317.9 319.4 319.9 320.2 318.2 325.7 343.9 367.9 367.9 367.4 360.7 357.5 356.5 353.6 347.8 341.5 335.1 330.1 324.7 320.1 315.9 312.7 310.1 307.9 305.1 299.7 296.2 293.8 291.8 290.5 289.9 290.4 289.5 289.1 289.1 288.5 288.7 290 289.2 284.9 282.9 292.5 303.2 306.3 302.2 301.9 301.5 297.1 290 280.9 280.9 280.9 302.1 329.5 352.2 368.6 375.1 379.9 381 380.3 377.9 372.3 369.2 367.4 368.6 370 372.6 376.2 381.1 389.1 396.1 400.5 401 401.1 400.8 401.2 402.1 401.4
457.4 455.4 458.2 457.8 456.5 456.7 454.8 450.2 445.5 439.3 436.2 432.4 435.2 433.9 432.6 434.5 434.9 436.7 438.3 438.9 439.9 443.1 448.3 457.3 462 467.2 475 481 486.4 491.6 499.4 511.3 524.3 534.1 539.7 546.2 548.1 543.2 534.8 538.1 540.9 541.7 545.2 556.9 566.4 571.9 577.5 577.4 577.2 576.1 576.2 576.6 572.8 571 568.4 565.8 563.4 563 564.4 562.7 560.8 559.7 558.4 555.8 553 548.5 543.6 539.2 530.2 530.7 532.7 531.8 531.9 529.4 525.9 521.3 515 511.3 510.3 508.9 507.1 503.4 496.1 484 472.6 451.7 432 417 414.2 413.6 411.4 417.8 428 438 441.6 440.2 434 428.4 416.9 405.6 394.7 385.8 375.7 369.7 364.7 357.5 352.4 355.5 355.2 348.1 341.3 336.6 330.9 331.6 331.7 329.1 324.6 331.3 336.1 330 327.8 331.3 327 333.4 331.9 327.6 319.9 315.9 320.7 346.5 354.5 353.7 350.3 349.8 348.5 343.6 337.9 332.3 327.1 323 319.2 315.8 311.8 308.1 305.4 303.5 301.3 298.3 294 291.3 290.2 289.2 289.2 289.6 289 288.9 289.2 289.2 290.7 295.9 294.9 291.6 281.3 282.9 298.4 297 292.8 292.9 293.7 290 282.6 280.9 280.9 280.9 300 336.3 359.7 370.7 379 383.2 383.6 380.3 377.2 371.3 368.5 366.3 366.7 368.5 370.1 375.2 381.7 390.9 397.7 401 400.9 400.6 400.2 399.9 400.5 399
451.9 447.2 442.6 441.5 437.2 435.5 433.4 431.5 432.2 431 430.9 430.5 430.9 429.2 430 433 433.7 434 437 439.5 443.5 448 453.5 463.2 468.9 475.1 485 492.6 499.1 501.3 509.7 521.8 535.3 544.5 552.3 565 561.8 558.1 559.9 554.5 554.2 555.1 554.9 562 570 574.4 577.6 580.7 581.9 581.8 581.4 582.3 580.8 578.1 575.7 573.5 570.6 570.1 570.2 570.3 568.7 564.5 561.8 559.9 555.8 551.2 543.4 539.7 539.6 538.2 538.1 536.4 534.1 531.3 527.6 524.1 520.8 517.8 515.4 514.3 511.6 506.3 498.8 485.8 473.1 450.2 424.3 422.8 422.5 421.4 420 428.5 437.7 445.3 447.8 443.8 436.6 426.5 409.9 395.3 387.7 380.6 381.5 375.4 368.9 366.4 369.7 373.5 371.5 364.9 359.5 355.1 347.4 347.5 346.3 346.5 343 343.1 340.2 337.2 337.1 335.5 330.8 337.2 335 329.4 323 318.7 308.9 317.6 333.3 340.5 343.3 343.3 339.8 335.2 330.1 325.8 321.8 315.9 312.4 310.8 307.2 303.2 301.7 300.2 298 294.3 290.6 289.1 289.4 289.5 288.5 288.7 288.2 288.5 289.1 292.8 300.8 300.4 300.2 298.1 290.5 280.9 284.4 283 280.9 280.9 280.9 280.9 280.9 280.9 280.9 280.9 298.9 335.5 360.7 373 380.7 383.1 382.3 379.1 373.9 370 366.7 364.1 364.7 367.2 372.1 377.2 384.7 392.8 398.5 399.1 400 398.8 397.5 396.7 399.1 399
448 439.1 434.6 433.1 429 427.9 427.9 427.9 428 428.1 428.1 428 429.1 431.6 432.6 433.3 433.7 435.5 439 444 448 454.2 461.6 473.4 479.8 488.9 496 503.4 509.7 515.7 520.5 534.2 544.2 555.7 566.1 579.2 575.9 578.8 576.7 568.3 569.8 565.8 564.1 568 574.2 578.6 580.1 584.3 585.9 588.8 589.3 590.2 588.5 585.2 582.7 580.9 577.8 577.7 576.8 574.8 572.4 568.5 564.6 560.6 554.9 550 547.5 545.8 544.3 543.1 540.8 538.3 535.5 532.5 529.9 526.1 523.8 521 521 518.5 512.8 505.6 498 483.4 472.3 450.8 431.7 435.1 432.4 429.8 427.8 438.7 445 450.7 454.1 447.7 441.1 426.3 410.9 392.9 391.5 389.1 391.4 391.4 387.2 391.3 393 391.6 387.4 383.9 378.4 372.1 368.6 362.8 359.3 355.8 356.7 357.1 348 344.4 342.8 339.4 338.7 341 339.2 329.9 329 327.1 321 314 313.6 332.1 334.9 334.2 330.6 325.9 321.9 318.5 313.9 308.7 305.4 302.9 301 297.6 299 297.4 294.6 291.6 289.8 289.2 289.9 290.1 288.6 288.3 288.7 289 291.8 299 301.2 302 302.6 301.4 298.7 291.3 280.9 280.9 280.9 280.9 280.9 280.9 280.9 280.9 280.9 280.9 301.9 338.2 361.3 374.4 381 381.6 380.4 377 372 366.9 360.8 358.9 359.9 365.3 373.1 380.1 388.8 395.1 399.5 399.5 398.2 396.1 393.4 391.7 396.7 398.8
445.9 435.3 429.5 428.6 427.9 427.9 427.9 428 427.9 428.5 428.2 428.4 429.1 432.8 433.3 434.1 436 438.7 443.8 448.9 455.3 461.8 472.2 483.9 492.3 501.4 507.8 513.7 523.8 528.9 531.7 546 560.2 567.1 579.2 587.6 586.7 588 585.6 581.4 581.2 576.2 573.2 576.4 578.5 583.5 585.5 588.6 590.9 593.5 594.3 593.7 593.4 595.7 591.6 588.8 585.4 583.7 581.1 578.8 575 570.5 565.3 559.3 554 551 550.7 550.1 547.4 544 542.1 539.5 536.2 533 529.7 527.5 524.1 520.8 520.5 518.5 513 505.3 495.9 483.3 474.3 454.6 448 448.3 449.6 440.6 438.7 448.2 454.9 461 459.6 451.9 438.1 421.1 408.9 408.7 414.3 404.1 407.4 411.1 414.3 417.1 417.9 416.3 411 404.9 398.8 391.3 385.3 381.5 373.2 364.7 363 359.9 349.2 347.6 346.3 346.1 344.7 342.5 339.6 337.5 338.3 334.5 329.1 321.9 309.8 323.2 322 322.8 319.3 316.7 312.8 309 303.8 300.7 298.7 296.8 294.5 293.8 295.3 294.1 291.7 290.7 290.4 289.2 290 290.7 288.9 288.8 289.6 292.8 296.2 300.2 302.9 304.2 305.1 305.7 304.3 301 295.5 288.4 282.6 281.6 286.7 291.4 294 283.6 280.9 280.9 312.5 344.4 365.8 377.8 381.9 381.6 379.7 375.1 369.4 362.4 359.6 358.1 359.3 369.4 375.9 382.9 390.4 396 399.4 399.7 396.8 393.2 391.1 390 396.8 400.2
444.6 434.5 430.3 421.6 425.1 428.8 434.1 429.9 437.5 438.5 432.1 431.5 432.9 434.2 434.7 435.7 440.3 446.9 451.9 458.5 464.8 471.5 480.8 494.4 504.2 512.9 518.8 526.5 533.7 538.3 543.5 558.7 569.2 575.4 586.1 590.9 590.8 590.8 589.6 587.2 588.4 584.5 580.3 583.8 585.4 589.9 591.8 593.6 596.2 599.6 599.6 599.3 600 602.1 599.2 594.6 589.8 589.3 587.4 583 577.6 570.9 564.9 559.4 555.4 553.9 551.7 551 548 542.8 540.9 539.5 536.4 533 530.1 527.3 523.9 520.6 518.8 515.3 510.7 505.5 495.2 481.6 469.1 459.2 459.6 457.9 459.1 455.1 451.7 460.5 468.4 469.5 464.9 455 435.7 430.4 422.3 434 424.5 429.7 430.7 435 438.7 438.2 436.1 432.6 427.4 419.9 412.3 403.6 395 387.4 379.6 370.2 365.3 359.3 351.2 349 350.4 353.5 352 348.3 344.4 347.7 347 341.9 334.4 324.8 310 309.9 307.6 302.9 305.5 304.9 303.8 299.6 297.8 295.6 293.3 294.3 293.7 292.7 291.9 292.3 292.1 290.8 289.6 290.3 289.7 290.6 291 290 292 295.6 299.2 302.3 305.3 306.6 307.7 310.8 309.5 307.3 304 300.7 298.3 296.6 298.8 299.2 300.2 280.9 280.9 280.9 316 347.1 369.4 377.2 381 380.4 377.2 371 365.2 359.1 356.9 356.9 365.4 375.3 381.3 386.7 390.8 395 397.9 397.9 394.3 390.7 388.8 391.7 402.2 406.3
437.8 429.8 419.5 419.8 425.4 436.5 441.7 440.7 449.5 449.6 444.4 441.8 437.9 436.8 436.6 439.5 445.4 454.9 465.2 470.7 477 483 495.2 504.1 513.7 522.2 529.9 536.7 543.7 548.2 552.5 569.2 576.1 579.9 586.8 590.5 593.4 594.6 592.4 591.2 591.7 589.8 590.4 590.5 589.8 594 598.6 598 601.4 603.8 606.1 607.8 609.7 610.3 605.5 600.3 594.5 592.7 590.7 585.9 578.3 569.6 563.8 559.3 556.9 554.5 552.3 550.4 543.8 539.9 539.7 537.5 534 530.5 527.7 525.2 522.2 519.5 516.6 512.9 508.2 501.1 491 482.9 475 473.4 473.3 471.6 468.4 465.5 462.1 467.6 476 474.3 468.7 459.9 451.1 439.1 448.2 453.1 454.3 456.7 455.9 458.4 459.6 455.9 448.6 439.8 433.3 424.8 418.2 412.8 399 387.7 381 373.6 367.7 360.4 355.9 357.7 363.4 364.2 360.1 358.3 355.4 356.7 354.1 346.3 337.1 319.1 316.2 312.7 309 306.8 300.7 299.7 299.4 298.6 297.5 300.9 301.8 297.1 294.2 298.3 297.5 296 295 294.6 293.1 292.3 292.4 293.3 294 294.2 296.3 299.3 302.6 305.5 306.9 307.9 311.5 313.9 314.9 312.8 309.9 307 305.3 305.6 307.2 307.2 304.9 280.9 280.9 280.9 301.6 337.7 368.7 378.9 380.1 379.5 373.3 367.4 360.5 354.2 351.1 356.4 369 382.9 386.9 389.6 391.4 393.5 396.4 395.3 391.3 388.1 381.4 392.4 406.7 410.5
430.7 420.2 419.6 421.7 429.6 439.5 446.8 454.1 460.5 460.2 456.1 450.3 444.2 441.5 440.1 444.1 452.6 464.7 471.9 479.8 487 494.7 507.2 513.5 521.9 529.6 538.1 546.5 553.3 558.4 563.2 574.3 580.2 583 586.6 591.6 596.4 598 596.6 598 598.6 595.2 594.1 594.1 595.2 600.1 602.6 603.7 607.3 611.9 614.1 613.6 616.1 614.9 610.3 602.9 599.7 596.5 592.1 586.8 576.6 567.7 562.7 560.1 558.6 555.4 553.2 548.7 539.6 538 535.6 533.5 531.5 528.3 524.3 521.6 520.9 518 515 511.4 510.7 505.1 498.8 488.9 480.8 480.3 480.6 478 476.3 474.6 474.3 475 479.9 476.8 470.4 465.8 458.9 451.7 464.9 465.7 466.8 466.7 467.2 469.9 468.6 462 452.1 440.2 428.8 420.1 411.6 402.1 391.4 382.4 379.4 376.7 372.1 366.3 362.1 369.1 374.5 375.8 373.3 370.1 368.2 366.9 362.3 351.5 341.7 326.5 326.2 324.6 324.7 321.1 312.1 310.3 309.3 310.3 311.6 311.7 310.7 308.8 304.4 302 300.2 298.5 298 297.9 296.7 295.7 295.7 296.7 297.3 298.9 301.8 305 308.7 311 312.8 314 316.9 319 319.7 318.9 318.2 317.8 315.9 316 315.6 313.5 309.5 285.1 280.9 280.9 286.3 319.7 357.1 377.9 379.8 379.4 373.3 365.5 356.7 349.9 349.5 363.3 376.6 390.1 392.7 391 392.2 393.3 394.4 392 388.2 383.2 379.2 394.5 411.2 411.6
422 419.4 419.8 423 431.2 444 457.4 467 471.8 472.3 467.7 458.8 451 449 450.1 448.1 455 466.1 476.5 484.5 494.1 502.8 515.2 523.1 529.9 536.8 544.6 552.4 559 566.1 574.6 580.6 585.3 588.3 591.5 598.6 599.7 600.7 599.7 600.9 601.5 599.3 600 599.4 599.3 602.6 606.6 609 612.7 616.8 620.1 620 621.3 618.8 612.1 606.1 601.8 600 593 583 572.3 568 563.8 560.3 560.5 557.5 553.9 548.5 539 534.9 532.1 529.7 528 526 522.2 518.8 516.2 514.9 512.9 510.4 510.9 509.4 502.9 492.7 487.4 485 484.6 482 481.8 481.2 480.7 480 481.2 478.3 475.9 472.3 469.5 468.9 473.7 474.7 476 474.8 474.2 474 469.4 460.3 448.7 432 414.5 408.3 398.3 396.4 388.9 385.4 387.8 383.2 379.2 375.6 377.7 379.7 384.3 384.8 381.5 377.9 377.5 374.6 370.3 361.1 337.9 337.8 337.1 337.2 337.9 333.5 327.5 326.2 322.6 324.5 320.6 317.4 315.2 312.4 307.8 304.8 302.6 300.6 302 299.9 299 298.2 298.8 300.7 299.3 302.1 306.5 311.6 315 318.6 320.8 321.8 325.4 326.7 328.2 328.4 328.7 327.9 325.4 324 321.4 319.4 311.2 301.6 280.9 280.9 280.9 307.2 344.4 377.5 385.2 379.6 373 362.9 352.3 348.4 352.8 370.9 384.3 395.8 398.4 391.6 392.6 392.2 390.5 386.2 379.8 376.4 382.4 398.8 412.5 412.8
423.4 419.6 420.7 425.9 433.1 447.6 463.8 476.2 479.5 481.4 478.6 468.5 461 457.8 457.3 449.4 458.8 471.1 480.2 487.7 499 510.8 522.8 531 538.8 542.4 549.8 557.8 563.8 571.7 580.6 586.7 590.5 591.1 597.7 602.2 603.2 603.9 600.5 605.5 606.4 602.3 603.8 606.6 607.4 609 610.6 612.8 617.2 619.6 620.7 620.4 620 616.2 611.1 606.6 602 598.6 588.6 577.1 570.5 570 567.7 563.6 559.3 559.6 554.7 547.6 538 534 530.2 528.1 524.5 521 515.7 512.2 510.8 510.2 509.9 508.5 509.1 510.7 503.8 493.8 488 485.7 484.4 483.6 484 484.4 484.1 483.7 481.9 479.9 479.2 478.9 474.9 478.5 479.9 479.8 480.7 482.1 479.6 475.7 469.3 455.8 438.7 429.4 424.7 419.4 415.4 410.9 404.7 402.9 400.7 390.8 379.3 385.2 388.3 393.7 396.8 393.6 389.5 389 386.5 380.7 374.6 356.5 350.3 358.2 348 350.6 348.5 347.5 348.3 348.4 344.7 340.6 334.9 326.2 321.1 315.2 310.8 307.5 305 303.4 302.9 300.1 299.5 299.2 301.4 303.6 302 307.6 314.2 319.7 323.9 328.2 331.4 334.2 337.1 339.8 338.5 337 335.3 332.9 330.5 327.9 324.2 319.2 310.3 300.4 284.2 280.9 280.9 304.7 343.7 379.7 380.4 377.1 368.4 358.5 349.4 348.5 362.7 376.2 388.4 399.1 398.6 390.5 390.5 389.3 384.5 378.4 369.3 375.5 386.5 400 408.1 411.6
