ncols 200
nrows 82
xllcorner 290000
yllcorner 201100
cellsize 50
243.9 235.4 230.7 229.7 231.8 234.8 234.3 232.4 226.8 218.6 207.9 200 217.1 229.6 250.2 261.1 264 262.3 263.1 263.3 263.5 263 263.6 265 262.4 259.7 256.1 250.8 243.8 237.7 237.8 240.4 243.4 246.1 248.1 249.3 250.5 251.6 251 250.8 250.5 250.3 249.3 248.8 249.2 248.2 245.5 241.6 240.1 246.3 249.9 252.1 253 253.8 254.7 254.2 252.6 253.2 254.8 256.1 259.2 262 263.5 263.3 261.6 260.6 258.7 258.4 258 258 256.8 256.3 256.1 256.2 257 258 258.8 250.5 247.7 246.8 246.4 245.8 245 244.9 245.9 243.2 242.8 248.8 253.5 256.8 257.9 256.1 253.4 249.6 244.5 238.6 228.2 222 222.4 221.4 220.8 219.3 218.8 217.8 216.3 214.4 212.9 210.3 211.9 210.5 210.5 208.9 207.6 205.3 204.1 202.6 201 201.8 199.6 197.7 197.8 196.2 195.5 194.6 190.8 191.7 193.7 194.9 195.4 185.2 184.4 182.6 181 179.5 178.7 176.2 176.5 175.6 181.1 169.8 167.6 165.6 163.9 165.1 164.9 167.1 174.7 177.7 177.5 178.4 178.4 177.7 177.7 179.2 179.2 177.8 173.9 171.4 166.8 162.3 167 175.1 176.7 178.5 174.5 174.1 175 177.9 178.1 177.1 178.6 179.7 180 178 180.4 181.9 176.3 170.8 184.6 190.1 187.6 191.1 197.9 201.9 205.1 207.6 208.8 209.4 210.7 214.3 214.2 216.9 220.5 221.3 222.6 221.7 222.4 223.3 234.5 233.5
259.8 254.7 249.9 250.3 252.4 253.4 254.1 254 247.5 235.4 226.2 207.7 217.6 230.5 250 261.8 264.7 263.3 263.1 263.5 264.6 264.5 264.7 265.8 265.8 263.2 258.4 251.6 244.7 241.2 236.1 237.1 240.8 242.2 243.6 246.3 246.8 247.8 248.4 248.7 249.5 249.8 249.9 250.2 250 248.4 246.4 243.3 242.2 249.8 253.2 255.7 256.5 258.6 259.8 260.7 262.5 263.8 265.4 266.8 268.8 269.7 267.9 266.7 265.1 264.1 263.6 262.7 261.7 261.2 260.6 261.1 259.2 259.5 261 260.6 259.7 252 251.1 249.7 249.2 248.5 248.4 247.4 247 247.4 250.1 256.8 262.6 265.3 265 264.8 261.8 258.9 253.8 245.6 236.9 227.6 224.9 222.9 220.9 219.3 219.4 218.7 218 216.2 213 213.4 212.6 211.7 211.1 210.1 207.6 206.8 206.2 205.6 203.5 202.2 200 198.8 199.4 197.2 196 195.4 195 194.8 194.6 195.3 192.5 187.4 186.4 184.4 182.7 181.8 182.4 181.2 183.3 182.3 181.7 180.1 177.4 176.7 166.1 165.2 164.2 164 164 171.7 173.4 173.4 173.6 173.1 174.1 175.6 176 174.5 172.4 170.3 169.5 160 160.4 172 173.4 174.5 172.7 172.7 173.9 171.2 171.9 173.5 173.9 175.3 175.7 176 178.2 178.3 177.3 171.3 181 184.7 180.6 188.4 197.1 200.2 201.7 204.5 206.5 208.3 210.4 211.4 213 215.5 217.6 219.2 220.8 220.4 219.3 224.3 231.3 228.2
277.8 273.3 268.8 270.7 271 272.2 273.3 271.6 266.6 255.2 242.2 224 217.3 228.7 251.9 262.6 265.4 264.6 264.3 263.4 265.3 266.2 266.1 266.2 266.4 264.9 259.9 253.6 246.1 242 237.5 237.2 237.5 240.6 243.5 243.7 245.7 246.5 248.3 249.8 249.8 249.5 249 249.9 250.9 250.4 248.7 243.8 248.3 254.4 256.7 258.7 259.9 263.9 267.3 268.9 270.3 271.8 273.3 274.6 275.8 273.8 270.9 270.9 269.6 267.5 265.8 267.1 266.7 266.6 267 264.4 262.2 261.5 261.5 261.4 260.1 254 255.3 253.4 253.2 253.2 250.2 250 248.9 248.7 251.4 260.3 267.3 271.7 272.7 270 268.4 264.2 262 253.5 244.4 234.6 227.5 225.5 223.3 220.1 221.2 220.8 220 219.5 218.2 216.6 213.6 212.5 211.4 211.2 209.7 209 208.4 207.4 205.3 204.2 201.7 199.8 198.1 196.4 195.7 195.4 194.6 194 195.8 195.8 191.3 193.6 189.7 186.2 184.7 187.4 190.4 184.6 183.2 183.4 183.3 182.2 182.6 177.5 171.7 172.2 163.2 164.2 163.8 162.3 161.5 163.6 166.9 170.6 171.8 172.9 172.8 171.4 170.2 170 170.9 166.8 161.6 166.1 169.3 174.7 169.4 170 170.2 169 169.7 169.7 170.4 171.9 171.9 173 171.5 173.5 174.8 175.4 177.2 179.5 179.9 185.2 193.5 195.9 198 200.7 202.1 203.7 208.3 209.5 211 213.6 216.1 216.9 217.5 218.7 218 218.2 223.9 222.7
294.4 290.4 286.7 286.3 284.7 284.3 283.9 283.2 279.2 263.4 256.6 239.7 226.7 233.7 255.1 263.3 267 265.1 266.8 266.3 266.9 267.8 267.4 267.2 266.8 264.8 260.8 255.3 247.7 243.2 239.3 240.3 240.5 241.4 244.2 244.5 244.8 246.2 249.3 251.5 251.1 250.9 250.6 250.4 250.6 249.7 248.6 247.8 253.8 256.9 259.7 261.3 264 267 271.8 275 276.3 277.7 279.1 279 277.9 276 275.1 274.5 273.3 274.1 269.8 271.6 271.5 271.5 268.9 268.3 266.9 265.1 261.9 262.8 262.9 264 263 258.8 257 255.7 255.3 256.4 250.7 250.7 252 260.8 268.5 271.8 273.4 272.2 272.4 271.1 266.7 261.3 252.1 242.5 230.2 226.6 225.8 224.1 223.1 222.2 221.6 218.6 218 217.6 216.3 215 215.8 216.1 211.7 211 210 208.7 206.5 206.1 204.6 202.8 201 199.3 197.4 199.6 198.7 197.3 194.5 194.6 195.6 193 190.3 188.5 187 194.5 198.6 191.4 185.3 184.2 183.6 182.9 182.4 182.5 181.7 179.9 179.6 174 164 161.7 163.7 161.8 161.5 161.2 160.8 160.7 163.8 168 166 161.2 162.5 162.8 159.1 158.5 161.4 163.6 161.3 164.3 170.9 169.2 170 166.9 167.6 171.1 170.4 168.6 167 166.9 169 171.2 172.3 169.5 177.3 182.4 188.3 191.5 193.7 196 197.9 201.6 204.8 207.6 208.9 211.4 213.7 214.6 215.2 216.5 217.8 214.5 215.5 217.9
301.5 299.7 294.7 289.8 288.8 287.4 284.8 283.9 278.8 270.7 266.8 250.6 236.7 241.4 257.5 264.1 269.9 269.2 270.5 271 269 272.2 269.7 267.7 268.1 267.2 264 257.8 250 244.6 242 242.9 243.6 243.2 245.5 246.9 248.8 250.5 251.1 251.9 251.9 252.4 252.9 252.1 252.6 253 248.4 252 255.8 259.3 262 265.1 267.8 269.6 274.2 277.5 279.7 281 281.2 280.5 280.1 279 280 279.3 276.4 276.3 276.8 276.7 277 275.5 273.8 271.3 271.6 268.6 266.2 264.6 264.3 264.7 265.2 265.5 262.6 262.3 259.5 258.7 253.4 252.7 255 259.7 263.7 270.4 273.9 273.7 274.1 273.2 271.8 265.8 258.6 249.7 240.2 232.5 228.1 227.1 225.7 225.3 223.2 222.4 221.4 220 218.5 217.1 217.4 219 213 212.4 211.3 210.4 209.5 207.2 205.5 204.6 203.1 201.6 199.7 200.3 199.5 197.7 196.2 194.3 194.4 193.9 190.6 189.8 189.2 200.4 200.8 201.2 198.3 190.4 185.1 184.4 183.3 181.2 182 182.1 181.1 179.7 178.1 174.1 178.1 174.4 168 165.9 162.1 159.1 159.2 157.3 157.6 157.4 157.3 157 158 158.6 157.9 156.2 154.7 153.7 152.2 161.2 168.3 166.2 163.7 166.8 167.9 166.1 163.9 164.4 166.2 167.5 167.8 169.4 174.4 180.6 181.1 184.5 187.6 189.6 192.4 197.8 201.3 204.2 206.9 209.2 210.7 212.1 212.9 213.8 213 212.5 210.1 211
305 303.2 301.3 293 290.4 288.5 285 282.3 275.2 278.8 272.5 260.9 246.4 251.8 254.7 255 265.6 266 268.7 271 274.5 277.1 274.8 271.5 271 270.2 268.4 261.7 256.7 250.6 245.6 246 245.9 246.3 247.4 249 251.2 253.7 253.4 254.4 253.8 255.8 255.9 255.3 255.1 253 250.2 253.6 257 260.5 263.2 266.9 269.4 273.3 277.1 280.2 281.8 282.3 282.9 283 282.7 283.4 284.7 285.7 285.4 285.4 285.2 284.4 283.3 283.8 281 278.5 276.1 274 271.7 269.9 268.2 267.6 266.8 265.9 265 262.1 261.5 264 260.1 259.3 262 261.5 261.8 268.5 273.9 274 274.2 274.2 271.3 270.3 263.4 255 244.5 240.7 232.7 231.6 229.6 228 225 226.6 224.5 222.3 221.1 219.3 216.1 216 215 215.3 214.3 213 211.4 209.6 207.7 206.4 203.7 201.7 201.8 203.5 200.8 199.5 198.5 196.3 195.6 195 193.5 192.7 190.5 201.2 202.5 202.3 201.5 194.9 192.2 186.6 182.9 180 184.9 184.5 183 181.5 179.3 178.5 180.2 179.3 178.6 178.3 177 174.5 174.2 174.4 170.2 164.9 162.6 163.3 164.2 162.5 162.1 161.1 160.5 155.2 154.2 152.8 160.9 162.4 162.2 161.5 166.2 163.4 162.3 166 166.7 164.1 163.6 168.8 173.6 178.1 178.8 179.9 182.1 185.5 190.3 193.7 197.9 201.5 203.9 206 205.6 208 209.9 208.8 208.8 208.9 207.1 207.4
308.6 306.9 305.6 297.6 290.7 289.7 282.5 277.2 282.4 285.3 279.2 266.1 257.4 256.3 257.8 258.7 264.5 278 278.7 272.4 272.3 274.6 276.9 276.8 275 272.5 273.1 267.7 262.4 256.5 251 251.1 250.3 250.1 250.5 251.2 253.2 254.7 256.1 257.8 258.5 258.2 258.1 258 257 252.3 251.4 254.4 258 261.6 264.4 268.2 271.2 276.1 280 283.7 285.7 287.3 287.1 290.1 289.1 288.7 292.1 294.2 296.4 296.7 297.2 295.8 293.4 293.5 290.1 284.1 282.6 282 278.5 277.2 275.4 272.9 271.7 269.8 268.8 268.2 265.7 265.7 266.2 264.2 264.4 264.7 263.2 268.8 271.2 272.5 272.3 275.6 273.5 271.6 267.5 260.8 254 248.5 241.8 235.6 232.6 230.9 231.5 229.9 227.5 225.6 223.9 221.9 218.4 218 217.4 217.6 217.3 216.3 213.5 210.4 210.4 207.9 204.8 203.6 202.9 205.1 204.8 202 199 199.6 198.5 196.6 195.7 195.2 201.6 201 201.9 201.6 202.1 193.2 192.6 192.8 188.5 186.6 187.5 187 186 184.2 181.6 181.4 182 181.3 180 178.6 178.3 176.2 176.3 175.2 173.4 172 169.2 167.9 166.9 166.2 165.3 172.4 160.5 155.1 154 153.2 157.8 160.5 161.3 161.6 159.6 160.3 162.2 159.2 159.9 158.6 158.8 163.2 171.9 173.5 173.9 176.8 178.4 182.9 188.9 190.6 195.1 198.9 200.8 200.6 200.1 200.8 203.2 203 203.6 204.9 202.2 200.5
318 315.3 310.1 299.4 288.9 288.6 281.6 284.2 292.3 298.2 291.3 278.3 260.2 256.3 271.8 285.1 288.6 296.1 296.5 287.3 277.1 274.5 278.1 280.2 279.1 277.3 275.4 273.9 268.2 262.9 256.2 256.1 255.5 255.2 255.2 254.3 255 255.8 258 260.2 262.2 260.7 259.9 260.3 257.7 252.6 253.6 256.4 259.9 263.4 266.7 270.8 274.8 278.7 283 287.1 290 292.9 295.2 296.8 298 296.6 299.8 304 306.6 310 309.2 306.8 303.6 303.4 299.2 292.3 290.5 289.9 287.2 283.8 282.2 280.2 276.7 274.3 272.1 271.1 271.2 269 271.3 269.7 268.2 268 267 267.7 272.7 275.5 276.6 278.5 276 272.7 270.3 266.4 261.6 255.3 250.7 245.6 235.5 234.6 234.4 232.7 230.9 229.2 227.4 224.8 221.8 220.3 220.3 220.3 220.6 219.2 215.8 212.8 210.2 208.4 214.9 213.2 209.5 206.3 205.5 204.9 203.6 201.5 199.4 198.5 198 198.3 198.1 200.7 198.7 199 201.4 195.7 192.9 192.9 190.2 190.6 191.4 191.2 189.7 187.3 186.6 185.9 184.9 184.2 182.7 179.7 177.6 176.5 176.7 176.1 176 173.9 172.7 169.7 167.5 167 165.5 174.5 161 155.5 153.4 152.2 154.9 158.9 159.5 157.6 156.1 155.7 153.6 160.5 155.5 153.2 155.9 160 167 172 170.6 171.7 175.5 180.8 182.6 186.3 189.7 194.4 198.5 198.1 198.8 198.1 197.5 197.2 199.4 201.3 199.1 200
318.2 314.9 311.9 294.4 284.9 280.9 281.5 291.8 301 309.5 304.1 290.5 273.5 272.1 283.1 294.6 302.9 304.5 305.3 305.6 296.3 283.5 282 279 281.9 282.6 280.9 279.2 274.2 269.1 262.6 260.2 260 259.8 260.1 258.7 257.9 259.8 261.9 263.1 264.2 265.2 265.1 261.5 257 252.9 255.3 258.3 261.8 265.6 268 273.5 277 282.1 287 291.2 294.6 299.3 303.7 305.7 306.6 305.9 309.2 315.8 326.2 327.6 323.7 318.1 314.7 310.5 310.5 307.7 299.1 300.4 296.3 291.2 286.2 284.5 282.8 281.6 277.1 274.5 274 275.5 275.8 274.8 273.4 271.3 272.7 272.2 276.1 277.4 279.9 280.4 277.9 273.8 272.6 269.7 266.2 259.5 253.3 249.4 241.8 237.1 237.4 235.4 233.6 231.8 230 228.6 226.1 224.1 224.4 223.4 222.1 220.8 218.1 216.5 214.2 211.7 216.4 214.9 210.7 208.1 208.6 207.7 206.9 204.4 201.3 200.6 200.1 200.6 200.1 200.2 200.4 199.5 201 199.3 200 199.5 194.8 195.1 195.8 196.1 194.4 192.8 191.1 189.8 188.1 187.1 185.9 183.5 180.7 179.1 179.3 178.6 178.2 177 177.1 173.7 168.9 168.5 167.4 172.9 161.4 158.7 157.8 155.6 153.1 153.4 153.6 151.2 149.9 149.3 149.8 153.1 156.6 153.3 154.8 158 163.1 167.4 169.8 169 171.9 176.4 179.8 182.6 184.1 189 190.2 193.4 194.5 194 192.4 190.9 193.8 197.9 198.7 200.8
318.7 305.8 295.5 283.3 278.7 282.6 289.5 295.3 298.7 302.1 310.1 290.9 274.8 281.5 289.9 303.9 313.4 315.7 314.8 315.2 314.7 309 297.4 291.5 287.2 282.7 285.2 284.7 282.4 277 275.1 264.3 265.5 265.8 264.3 265 261.8 265.5 266.4 267 268.1 267.9 265.8 261 257.1 254.9 256.7 259.8 263.3 267.9 273.3 277.6 282 286.8 290 294.1 299.1 305.1 308.8 311 313 315.1 322.6 335 342.2 343.7 342.3 337.3 331.8 323.8 321 322.9 312.2 310 306.1 298.3 293 291.1 291.2 288.7 287.1 285.9 281.3 280.1 278.2 279.5 280 278.1 276.3 276 278.4 279 278.7 281.1 280.5 276.3 273.9 272.5 269.4 263.1 256.1 251.7 241.6 240 239.9 237.9 236 234.2 232.4 229.4 230.4 228.4 227.7 226.4 225.5 224.6 220.3 219.9 218.2 216.2 219 215.3 212.5 212.2 212.1 211.1 209.8 207.5 204.8 204.5 202.8 201.5 203.4 202.7 202.2 202.8 202.4 201.7 201.1 199.5 199.1 200.2 201.1 198.7 198 197 195.1 193.8 192.7 191.7 189.5 187.1 185.2 182.7 182.4 181.1 179.9 178.1 177.9 174.8 171.6 171.7 170 172.2 163.4 161.3 160.2 154.6 150.3 149.3 150 149 149.2 149.4 149.6 152.3 153.1 154.6 155.1 155.2 159.4 162.7 164.9 167.8 168.4 173.1 175.7 181.1 186.9 186.4 186.6 188.6 189.9 189.2 187.8 187.5 187.8 189.8 193.2 197.1
304.3 293.2 294 297.2 300.5 302.5 301.3 301.7 305.2 309.5 307.2 284.4 298.8 295 295.2 310.6 326.3 329.1 326.6 324.3 320.5 318.7 315.1 308.8 300.4 297.2 289.8 289 290 288.5 281.7 268.7 271.2 272.9 267.3 272.9 272.9 272.8 273.2 276.2 277 271.6 267.4 262 258.3 257 259.6 260.2 264.5 270.1 277.1 282.6 287.9 291.8 294.9 298.3 301.8 308.6 311.7 316.1 322.8 328.9 339.8 353.1 360.6 359.8 357 351.2 348.2 342.8 337.7 330.7 320.4 319.2 317.4 312.6 305.1 300.9 301.7 299 296.3 295.5 293.2 291.4 290.9 288.7 290.8 284.3 281.1 278.3 277.9 277.7 277.2 281.4 281.5 277.5 274.2 273.5 269.9 263 258.1 253.1 244.6 244.9 242.4 240.5 238.4 236.6 233.9 231.3 231.2 231.5 231 229.3 228.6 228.5 224.3 223.3 221.3 220.7 219.9 217.6 217.8 214.3 213.7 212.4 212.8 210.7 209 209.1 209 206 207.1 206.8 207.3 206.6 205.9 204.4 203.5 202.6 201.7 202.6 202.9 202.2 201.3 200.2 199.3 198.2 196.7 195.6 194.5 191.5 188.3 186.7 185 184.1 183.4 178.1 177.8 175.1 174.5 173.2 170.2 174.6 167.7 165.3 162.8 157 151.6 150 149.4 151.6 153.6 149.8 149.7 150.1 149.9 149.1 152.2 154.9 153.7 158.3 161.3 164.1 167 170.6 173.7 173.4 184.8 182 183.6 185.5 186.3 185.1 184.9 185 186.5 188.7 191.5 194.5
309.2 303.4 305 306.3 308.8 310.8 309.2 308 311.4 314.4 305.5 303.4 309.9 306.4 313.2 319.6 336 338.2 337.3 335.7 331.4 328.8 323.1 317.9 309.9 306.5 303.6 298.6 290.3 294.5 294.5 277.2 282.3 282.8 279.9 282.9 284.5 282.2 283 287.3 283.3 276.5 272.6 265.7 260.8 258.4 261.4 263.6 266.2 270.5 278.3 286.3 290.3 293.7 297.4 300.7 307.2 313.5 316.6 320.2 329.1 341.1 355.9 374.9 380.5 379.5 377.6 370.5 364.8 358.4 355.7 351.3 340.8 336 331.1 328.5 323.5 316.3 317.7 314.1 309.9 306.8 306.4 305.9 305.4 299.3 299 292.5 289 286.3 282.2 278.5 275 279.1 278.7 276.1 273.7 271.5 270.2 265.1 262.2 253.5 250.2 246.5 244.4 242.6 240.8 238.5 236.1 233.8 233.2 233.3 233.2 232.2 232.1 231.6 229.6 228.2 226.8 226.3 223.9 219.6 220.3 218.4 218 217.1 216.4 214.6 211.5 211.4 211.4 210 210.5 210.7 210.7 208.5 208.4 207.8 207 204.3 204.4 205.3 205.6 205.6 204.8 203.3 203 202 200.3 199.9 198.9 194.2 193.7 192.5 187.9 186.7 185.3 181.3 176.8 175.6 176.2 174 173 174.6 172.7 169.7 166.5 158.8 159.2 155.5 154.3 155.2 157 154.6 150.2 147.2 149.7 148 148.6 148.9 154.3 155.7 159 162.5 165.8 168.8 172.4 171.4 177 179.1 179.1 180.9 182.5 184.5 184.3 183.6 185.1 187.6 190.3 192.8
327.8 318.9 316.1 314.9 314.1 316.8 318.3 321.3 322.2 320.4 308.6 318.1 319.6 313.5 322.6 333.4 342.9 355 355.2 351.5 343.6 339.8 335.1 326.3 318.8 313.6 311.5 310.1 307.3 293.4 282.9 289.3 293.8 293.3 292.8 295.2 296.2 293.6 293.4 295.2 289.1 283.1 279.3 273.4 267.6 264.4 262 265.4 268.3 271 279.6 287.7 292.4 296.1 300.1 303.8 309.8 315.8 319.8 325.7 336.1 350.8 371.8 384.8 388.2 388.3 386.9 385.1 381.9 377.4 373.8 366.7 359.9 358.8 350.9 343.7 340.5 337 335.4 332.5 329.4 328 326.4 324 319.7 316.8 312.3 303.9 296.3 292.6 288.4 284.3 281.4 280.7 277.2 276.1 272.4 271 270.4 270.9 266.1 256.3 253.6 251.5 248.1 245.6 243.3 240.9 238.8 236.3 235.4 234.8 234.6 234.1 233.8 233.3 232.5 232.3 232 231.3 228.6 224.8 226.4 223.9 223.1 221.8 219.4 218.5 215.9 215.7 215 213.5 212.4 212.6 211.9 211.7 211.9 212.4 212.3 208.1 207.6 208.6 208.5 209 207.1 207.5 206 206.8 205 204.8 207.3 202.4 195.6 195.5 192.8 190.1 187.3 185.8 182.8 179.7 178.9 175.7 175.1 174.9 174.4 172.3 170.2 163.7 159.9 164.7 162.7 159.8 157.8 156.4 152.2 149.3 147 146.6 145.8 142.2 148.3 153.7 155.5 158.6 163 168.8 171.4 171.9 174.9 176.6 178 177.5 180.4 180.4 181.1 183.6 183.8 186.4 188.1 190.2
348.2 333.3 326.5 321.5 319 321.6 324.2 332.1 333.5 331.2 315 327.7 330.4 323.6 332.2 346.5 359.2 368.9 370.7 371.1 363.7 346.8 339.8 332.9 325.8 320 316.3 313.6 310.5 303.5 287 302.4 304.8 302.3 303.5 305.9 306.8 305 303.9 300.4 296.3 291 286 280.3 275.2 271.3 268.4 266.1 269.4 273.5 281.4 288 294.6 298.2 302 306.5 310.7 316.7 321.3 330.7 343 359.9 379.4 389.9 392.1 394 392.1 391.4 392.1 393.7 389.5 389.1 385.9 381.3 374.9 367.5 357.5 356.3 356.7 355.2 350.5 346.6 349.7 343.2 338.4 332.4 325.2 315.2 305.3 300.5 294.7 290.2 288 285.8 284.3 281.6 278.8 275.5 274.1 273.1 270.2 260.3 264.4 259.5 255.1 250.3 247.4 246.6 244.9 242.9 242.3 240.1 237.3 235.8 236 236.1 235.6 235.4 234.9 233.1 230.6 228.1 228.1 228.8 227.4 225.2 223.3 221.3 219.9 218.3 217.1 216.1 215 214.3 214.3 215.1 213.7 214.9 215.6 212.2 212.2 212.2 212.2 211.3 210 210.9 210.1 210 209.7 207.8 206.8 207 206.8 200.7 197.5 193.9 190.7 188.1 185.6 183.4 180.9 179.3 177.2 176.4 175.8 172.2 169.3 169.7 169.7 168.4 165.2 164.3 161.5 157.5 154.2 150.8 146.9 145.6 146.6 140.9 145.1 149.6 154 155.9 157.3 164.5 172 171.5 172.5 173.9 174.9 175.1 174.9 176.9 179.2 181.4 182.2 182.8 184.4 186.6
363.7 349.5 338.6 333.2 329.5 328.3 333.1 342.8 344 334.5 326.1 338.7 336 333.4 344.9 356.7 369 382.1 386.5 387 375.8 359.9 345.9 337.9 331.6 326.2 321 316.5 312.3 310.6 296.5 312.8 310.5 310.4 314 315.2 314.4 312.6 312.1 310.4 304.7 298.8 292.8 286.9 280.9 276.2 272.6 270 271.3 276.3 282.2 288.2 294.8 300.8 304.6 309.1 314 317.5 324.1 336.6 350.8 366.4 381.3 392.1 395.5 397.9 399 401.4 403.3 406.8 406.1 407.1 405.4 402.6 397.4 390.6 384.3 374.7 377.8 379.1 378.9 371.4 373.1 367.7 356.5 344.1 332.9 324.2 316 309 302.1 298.3 294.6 290.4 289.2 285.2 283.3 278.9 278.1 278.2 276.4 268.7 272.2 268.1 264 259.9 256.3 253.9 252.9 252.4 248.7 246 242.8 239.7 239.7 239.8 240.2 238.6 236.5 234.6 232.3 232.1 232.4 231 231.2 228.9 226.6 224.4 223.5 222.4 219.9 218.5 217.9 217.2 217.1 218.4 217.4 217 216.6 215 215.2 217.1 216.7 216.1 214.8 213.9 213.8 213.7 213.5 213.2 211.5 208.7 206.2 206.6 202.5 197.9 196.9 196.2 192 187.6 185.5 183.9 181.2 179.6 179.5 174.5 171.7 171.5 170.8 172.6 170 167.6 165.8 161.6 158.8 152.2 147.7 145.4 149.1 143.3 143.6 147.5 151.2 154.4 150.4 158.7 168.7 167.7 169.7 171.1 174 173.6 173.4 174.7 177.7 176.6 176.8 174.2 180.1 181.4
382.4 368 353.3 343.6 339.5 342.3 350.4 362.4 359.9 348.1 338.6 348.4 345.7 348.3 349.9 362.8 378.1 392.2 395.7 395.2 385.9 369.6 353.5 342.6 336 330.1 324.3 319.6 318.9 314.2 310.8 308.4 312.2 315.5 319.2 320.4 320.5 319.4 320.1 318.5 313.5 306.3 300 293.7 287.4 281 275.4 274.5 275.9 280 285.7 291.4 297.1 302.9 307 312.6 317.9 320.6 328.4 339.9 353.9 370.5 385.5 393.8 399.5 405.3 407.7 411.2 416.5 421.7 422.9 423.5 420.4 417.7 413.2 405.7 403 393.7 404.9 406.5 402.5 398.7 394.3 386.1 367 353.5 339.3 329.6 327.2 311.4 309.2 305.6 298.2 299.2 293.2 289.3 286.5 284.7 284.1 284.4 281.2 274.8 278.4 273.8 271 267.9 264.3 263.7 263.3 265.3 261.7 252.9 249.6 246 244.5 244.8 245 243.6 240.7 237.7 236.8 236.2 236.4 235.6 234.3 232 229.7 227.4 226.7 227.2 226.4 225.5 223.2 221.9 222.3 223.7 223.1 220.8 218.5 218.1 217.5 218.5 218.1 218.8 218.4 217.6 217.5 217.4 215.8 215.8 215.6 214.2 212.1 208.9 207 202.9 201.7 200.1 197.7 193.1 189.7 187.1 181.7 182.7 178.2 175.2 177.1 180.2 172.6 173.5 170.7 167.4 165.6 163 159.1 157.3 151.4 146.5 147.7 146 144.4 146.9 148.6 151.7 149.8 150.1 163.2 168.1 168.6 169.2 168.8 172.5 175.7 176.2 172.8 165 162.4 166.8 176.5 180.6
401 390.1 371.7 357.4 353.6 364.7 373.6 378.6 381.5 355.3 360.3 360.3 356 356.8 357.9 366.4 384.9 398.4 403.9 403.2 395 376.7 361.1 350.4 341.9 332.9 326.2 322.2 319.7 317 312.5 313.2 317 320.8 322.3 324.3 326.3 327.4 328 327.8 323.3 316.2 307.6 300.8 293.8 287 281 276.7 276.5 281.9 288.5 295.2 300.3 304.3 309.3 314 319.2 324.5 330.7 342.5 358 374.4 388.8 396.2 405.7 412.9 417.8 422.4 428.4 434.4 439.4 441.6 439.6 434.7 430.4 426.1 421.7 417.2 424.4 426 424.2 413.6 403.3 392.3 376.1 361.2 346.1 338.8 332.4 329.2 324.2 309.3 308.4 313.5 298.5 295.4 292.3 291.3 291.3 291.8 290.3 272.6 284.4 281.2 277.9 273.6 269.5 269.5 270.9 270 267.4 261.5 258.3 254.4 250.4 250.2 249.8 248.8 247.4 244.1 241.8 240.7 240.4 239.3 237.4 235.2 232.9 230.5 230.6 231.8 231.8 232 231.2 229.3 230.3 231.5 230.8 228.8 225.6 225.4 224.4 222.9 224.1 224.1 224.5 222.6 222.2 221.1 219.3 219.1 218.7 218.6 216.7 214.3 212.2 209.7 207.8 203.7 200.7 197.6 194 191.6 187.7 185.6 180.3 184.5 183.2 179.9 178 174.8 170.5 169.1 164.3 159 159 157.8 157.2 153.3 147.4 147.2 144.8 144.5 143.7 146.3 149 149 155.2 168.2 168.9 168.3 165.5 171.3 174.1 169.9 161.9 157.5 164.2 168.8 173.1 177.9
418.7 405.7 391.5 374.7 369.3 382.6 389.3 393.2 392.5 376 379.7 374.6 371.4 370.5 369.9 370.8 388.6 402 408.8 410.8 402.2 382.3 367.1 354.8 344.3 336.5 328.8 325.3 322.7 320.2 317.7 318.3 318.6 320.8 322.7 326.2 329.1 332.1 333.3 334.6 332.5 326.7 318.1 308.3 301.1 295 287.1 281.6 279.8 284.3 293.4 301.3 302.4 303.9 308.5 313.5 318.6 325.4 333 344.7 360.6 379 391.5 399.8 410.4 418.8 426 431.4 437.6 449.1 462.9 470.3 466.4 459.8 449.4 444.9 442.6 439.3 439.1 439.6 435.2 428.8 415.2 400.2 384.5 365.5 351.3 344.3 338.1 332.4 325.1 319.7 323.3 320.2 306 303 301 299.1 298.6 298.9 295.9 276.6 289.9 288.1 284.6 280 275.4 273.2 271.6 270.7 269.4 264.5 260.7 260 260.2 261.5 259.8 259.3 255.2 251.1 247.6 246 244.1 242.3 240.4 238.4 236.1 235.2 235.7 236.6 236.5 236.6 236.2 233.2 233.7 234.7 236.4 233.6 235.7 235.8 233.2 232 232.2 232.4 230.8 228.8 229 228.6 225.1 223.7 223.6 222.4 221.2 220.1 217.9 215.1 211.2 208.2 205.9 201.5 198.2 195.3 193 189 187.9 186.2 184.8 182.7 179.4 175.6 171.7 168.6 164.9 165.6 162.3 160.9 161.1 157 153.6 150.2 145.6 141.1 139.1 139.6 144.2 149.5 150.6 153 169.5 161.3 160.2 163.9 164 160.5 158.5 162 160.7 165.7 170.3 172.9
422.3 408.6 395.6 386.7 383.4 393.5 398.1 403.7 405.2 390.6 388.3 389.2 384.4 380.7 381.7 382.9 390 405.4 415 418.1 409.5 392.7 368.6 356.7 347.1 340.8 334.4 328 325.4 323 319.8 318.5 318.6 319.1 322.5 327.3 330.7 334.4 338.2 340.6 341.8 336.4 328.1 318 308.6 301.8 298.6 288.8 281.9 286.8 297.3 303.2 303.1 304.6 309 313.5 320.1 326.8 334.8 347.9 363.3 382.4 394 405 416.4 425.5 434.5 439.9 452.8 472.4 484 487.9 488.3 485.6 475.6 470.6 460.8 456.1 455 450.4 444.2 439.6 427 408.3 390.3 367.7 356.1 349.8 344.1 338.8 332.2 326.5 321.7 318.5 310 309.8 306.6 306.2 305.1 303.3 300.6 284.4 296.3 293.7 290.7 286.2 281.7 278.7 275.9 269.2 269.2 267.1 260.9 258.9 262.3 266.1 265.4 263.1 260.2 257.6 252.9 249.2 245.8 243.8 242.6 241.4 240.9 240 240.6 239.7 239.1 239.3 240.4 237.6 236.9 237.5 240.2 238.5 240.2 241 239.5 240.5 241.1 239.1 237 236.8 237.1 236.6 232.3 230.8 229.2 227.8 227 225.6 222.2 218.5 214.4 210.4 206.8 204.3 201.9 200.3 196.5 191.6 192.3 187.1 183.9 181.7 181.9 179.5 176.5 170.4 171.1 169.5 165.2 160.2 159.2 158.5 155.1 152 150 143.5 141.3 140.7 139.1 146.1 149.6 149.6 153.5 156 155.2 157.3 157.9 156.7 157.2 158.7 158.8 161.7 163.6 166.4
426.7 408.9 401 394.7 395.9 401.6 405.4 408.8 413.9 394.2 399.3 403.9 398.5 397.2 398.9 397.2 399.5 410.3 419.1 420.9 414 399.1 376.5 361.9 353 346 340.3 332.8 328.6 325.7 321.8 320 318.6 319.1 321.5 326.8 330.8 336.3 340 344.6 346.8 345.6 337.7 327.1 320 310.7 300.7 295.7 286.4 290.2 298 301.5 304.1 306.9 310.5 315.9 320.7 328.5 337.4 352.4 367 382.1 396 408.4 419.6 431.3 442 455.4 477.3 483.9 487.7 488.6 489.3 487.9 486.4 486.7 481.3 480.6 477.7 466.8 456.3 446.6 434.3 413.9 393.5 371.1 361.3 360.2 352.1 347.3 340.8 335.2 329.7 321.6 319.1 317.9 314.9 312.2 310.2 306.4 305.7 291.4 301.7 299.3 296.4 292 287.9 284.7 281.1 274.9 273.8 272.6 268.1 263.8 268.3 270.8 269.1 266.1 263.5 260.5 256.9 253.4 248.1 246.3 244.9 243.8 243.4 243.1 243.3 241.9 240.3 239.9 241.8 240.9 239.5 240.2 240.7 239.4 239.1 240 241 241.5 241 240.2 239.3 242.8 246.6 247.3 244.9 242.1 240.6 238.2 236.4 230.6 226.1 222.3 218.5 214 209.8 206.8 205.6 202 199.2 197.3 193.5 189.8 186.8 181.9 179.2 179.6 177.4 173.8 172.7 169.3 164.9 162.4 161.4 159.4 155.4 152.3 151.8 149.6 145.1 142.3 140.4 141.6 146 147.5 146.5 152 152.2 151.5 151.8 152.4 153.8 155.3 157 158.7 160.2 161.2
435.6 415.7 406.8 404.4 406.3 409.7 413.4 417.2 418.7 405.3 413.7 420 416.4 414.1 414.1 414.6 414.9 418.2 426.3 426.7 420.2 405.7 382.8 366 357.8 352.2 346 339 332.9 329.4 325.4 322 319.7 318.7 321.6 325.2 330.6 336.4 342.5 348.6 352 352.3 347.7 336 328.9 320.3 306.8 298.3 291.9 288.7 295.6 301.4 305.2 308.6 313.4 318 323.1 330.1 338.4 354.6 369.7 386.3 398.6 411.6 423.3 436.8 454.8 472.3 485.6 487.7 488.1 489 489.1 488 487.5 489.3 489.1 488.5 485.3 478.6 470.5 452.9 432.2 415.1 395.3 378.2 369.7 363.6 357.9 355 349.7 345.1 336.6 329.7 325.7 324.7 321.2 316.5 311.1 309.5 307.3 297.7 308.1 305.6 301.7 296.6 293.7 291.1 288.3 284 281 281.2 277.2 274.3 273.7 271.6 271.9 269.5 268.9 264.2 262.4 261.2 255.9 250.7 248.6 246.4 246.1 246 246.6 245.6 245 243.8 244.3 243.6 241.9 242.9 244 241.9 241.6 242 242.5 243.6 243.2 242.9 239.6 247.2 251 251.6 251.3 251.2 251.2 251 248.3 242 233.9 228.3 224.3 220.6 214.3 211.6 208.9 205.8 201.7 198.6 196.6 194.6 190.8 185.4 181.2 178.5 175.8 173 172.6 168.6 165.3 163.6 164 160.6 157.6 154.4 153.3 152.6 148.8 145.1 140.7 139.4 140.2 145 146.1 147 149.9 149.2 150.5 151 152.1 152.9 153.6 154.8 155.6 156.5
446.4 426.3 419.2 416.4 418.1 420.8 424.1 427.4 427.2 422.2 417 428.8 427.5 425.6 427 428.9 428 429.5 435.3 435 428.4 411.7 391.5 375.2 364.7 358.4 351.9 345.7 339 333.1 329.4 326.3 323.4 321.2 323.8 329.4 330.9 337.3 343.4 351 356.3 357.2 355.1 345.4 337.7 328.3 315.2 304.7 297.9 293.7 295.8 299.3 303.9 309.2 315.5 321.3 324.1 331.4 340 357.4 375.3 392.1 402.5 417.2 428.2 447.8 477.9 484.5 486.8 489 492 492.7 493.3 492.4 491.6 490.8 493.3 492.2 489.7 485 476.2 451.1 427 415 398.6 383.4 373.8 367.7 363.8 360 355.8 352.3 346.7 341.2 334 331.4 325.9 319.3 313.8 310.2 303.7 310.2 310.1 310 307.2 301.6 298.8 297.7 295.8 295.4 293.4 291.9 292.4 287 278.6 273.7 273.1 271.8 271.2 268.7 269.9 270.8 265.3 259.1 254.2 252.4 251.4 251 251.7 251 249.1 248.9 247.1 245.6 244.5 245.5 246.8 248 247.6 247.2 246.3 247.2 247.3 246.9 245.3 249 250.9 252.5 251.7 252.2 253 251.5 252.3 251.1 245.6 240.1 234 229.4 221.6 216.9 212.6 209.5 204.9 202 199.4 195.1 192.7 189.6 186.1 182.6 177.6 172.2 170.8 169.5 168.6 167.5 166.6 163 160.3 157.5 154 150.3 149.2 145.7 142.8 139.9 138.9 138.6 145.2 144.2 144.7 146.9 150 150.6 150.9 151.7 150.1 150.1 150.8 151.6
456.8 441.5 432.7 431.3 430 434 435.9 434.2 433.5 432.7 423.4 427.9 430.9 434.1 436.5 438.9 439.7 439 444.6 443.9 437.1 422.1 403.5 391.5 375.5 367.4 359.6 352.4 345.7 338.2 333.4 330.4 328.1 326 327.5 330 332.8 338.3 344.5 352.3 359.7 362.7 361.3 355.8 346.3 336.4 323.2 312.8 305.8 299.7 300 298.7 302.4 308.4 313.5 320.6 323.7 331.8 343.3 360.7 380.2 396 410.7 423.9 439 459.2 484.3 488.7 490.8 493.3 495.3 496.5 496 497.6 496.5 494.9 497.7 496.9 494.3 488.4 481.1 453.8 427 412.5 399 386.7 378.7 373.3 369.4 365.4 360.9 356.7 353.2 346.2 338.3 332 326.2 320.5 316.1 315.4 310.6 312.4 312.5 312.8 310.9 306.9 304.9 303.5 303.2 303.9 304.6 302.3 303.4 297.6 288.5 281.5 276 273.3 271.2 270.2 272 274.6 270.8 266.1 262.9 259.8 258.3 257.8 259.3 256.9 253.7 254.1 252.3 249.8 248.8 249.9 251.3 252.1 251.7 250.3 250.2 251 251.3 249.4 249.7 249 247.5 248.8 250.4 251.8 252.2 253.4 255.2 254.8 255.6 251.5 245.8 239.3 232.2 227 220.3 215.5 209 205.6 200.8 197.3 196 193 190.4 186.6 181.3 174.3 170.7 170.5 171 169.5 166 162.2 160.1 157.7 155.6 150.4 149.6 147.6 144.3 141.6 138.7 138.7 137.7 138.9 141.5 140.1 138.8 147.1 148.2 143.6 145 145.4 146.1 146.8
470.9 456.5 447.9 444.4 441.9 442.1 443 440.7 437.3 435.3 431.9 428.5 433 439.2 443.5 446.8 449.7 453 456 456.9 447.4 435.8 422.2 408.8 396.4 386.9 378.5 365.9 353.1 343.6 337.5 333.4 331.3 330.7 330.3 330.3 332.8 339.6 344.9 352.3 360.3 365.4 368.1 365.7 358.6 344.5 329.6 319.3 314 310.6 306.5 301.4 306.3 311.6 315.5 319 324.4 332.7 346 363.3 386.7 402 416.5 436.3 454.2 477.4 487.8 493.2 494.5 497.1 498 498.5 499.8 501.1 500.7 499 500.9 500.9 498.6 492.8 485.5 456.5 428.9 412.7 402.2 391.9 384.5 378.3 374.1 369.9 365.7 362.7 356.1 348.5 339.2 333.1 327.7 321.6 318.4 310.8 314.1 314 315 315.8 314.5 311.1 310.9 308.5 308 307.3 309.5 311.6 310.3 308 304 297.2 289.2 281.5 276.8 276.1 276.5 275 273.7 271.3 268.6 264.8 264.2 262.6 263.1 263.7 260 260.1 257.2 254.5 254.2 254 253.5 254.4 252.5 251.8 253.2 251.4 252.4 254.7 256.8 250.9 247.3 247.7 248.8 250 253.9 256.6 259.3 259.5 259.3 256.3 251.2 243 236.6 231.7 229.1 223.6 218.5 210.8 206 202.8 199 195.6 192.5 190.4 185.4 179.7 175.8 174.1 173.2 171.5 169.1 164.5 161.9 160.7 157.3 151.2 149 149.7 145.6 143.4 141.7 140.5 140.1 138.7 144.8 139.1 139.3 138.9 138.9 139.1 141.2 142.4 142.3 143.5
490.8 473.9 463 457.1 451.9 448.7 448.2 445.6 440.4 441 436.6 433.4 436.9 441.9 447.2 452.1 456.3 461.3 467.9 475.5 466.1 450.5 440.1 431.8 424.9 417.5 406.3 387.2 368 350.5 341.1 337.3 338.1 338.6 341.8 338.3 337.4 341.2 346.5 353.1 361.1 368.6 371.9 371.4 365.1 352.3 338.7 328.3 323.8 319.6 313.8 307.2 312 316.8 320.2 322.2 327.9 334.9 347.5 365.8 388.7 411.3 430 452.4 479.1 488.3 491.8 492.9 493.3 496.1 499.2 500.6 501.1 501.3 501.4 502.8 505.8 506.1 503.1 497.5 487.2 458.3 430.2 416.4 407.7 399.5 391.9 385 378.4 374.9 371.8 365.6 357.4 348.6 339 334 327.5 321.9 320.1 320.9 318.6 317.7 318.6 319.4 319.3 317.7 316.1 315.1 314 313.5 314.5 316.2 315.5 314.6 313.6 307.8 301.7 294.9 288.4 285.7 283.6 278.7 277.9 277.5 277.5 274.9 270.9 268 268.4 272.1 271 269.3 262.1 262.9 260.7 262.7 261.4 261.5 257.5 257.4 260.6 256.8 257.8 260.8 266.3 253.7 261.9 268 259.2 259.6 272.2 268.1 270 264.8 260.9 258.3 249.2 243.1 234.2 230.5 230.8 226.7 221.1 215.3 210 204.7 201.1 197.6 195.3 191.1 187 184.4 181.8 178.1 175.9 173.7 171.9 169.8 165.8 162.7 158.8 155.2 152.5 150.6 147.5 144.4 141.5 140.2 138.5 139 138.2 143 138.3 138.4 138.5 137.9 139.3 140.2 140.2 142.2
513.4 495.5 479.1 463.4 456.2 451.8 451.2 451.2 447.9 443.9 442.1 441.1 438.5 442.5 449 453.9 459 466.8 478.3 492.9 492.1 473.5 461.8 455.7 450.8 444.8 433.3 408.8 379.1 358 347 341.7 345.4 346.2 346.3 343.3 341.4 344.8 348.2 354.1 361.7 369.1 376.2 376.7 370.7 359.3 345.9 337.8 333.2 326.8 318.9 310.9 318.3 322.8 324.6 327.6 331.6 338.7 347.1 364.5 387.4 413.7 442.2 473 488.5 491.1 490.8 490.6 491.2 494.3 497.2 500.9 501.1 501.2 501.7 505.7 509.3 509.7 507.6 501.1 488.9 466.3 437.4 421.4 410.9 403.8 396.5 390.1 383.9 379.9 377.6 371.3 360.1 350.1 343.6 338.6 332.6 325.5 320.2 322.5 324.4 324.3 324 324.9 325.7 324.2 323.2 322 319.9 320.6 320.8 322.4 321.3 320.6 320 315.9 312.1 307.9 302 297.6 294.8 291.5 289 287.8 288.9 287.9 285.5 282.9 283.5 283.8 283.5 285.2 284.9 284.7 286.4 281.1 286.8 283.7 282.1 282.4 281.5 282.8 283.1 287.7 292.2 295 294.4 293.7 292.3 289.3 288.2 285.2 280.1 272.9 262.9 259.3 249.4 242 232.3 229.5 227 222.5 220.4 215.5 210.8 206.5 202.4 200.5 198 193.6 189.4 186.8 184.1 181.4 178.5 175.5 173.8 171.7 167.9 165 162 160.6 157.3 153.4 147.5 145.8 142.2 140.9 139.9 137.6 138.2 135.9 137.9 138 138.1 137.8 137.2 138 139.3 141.2
527.8 515.4 497.8 475.1 458.2 450.8 451.1 451.2 451.2 451.2 450.9 449.9 445 446.2 451.3 453.5 462.2 473.9 490 506.8 513.4 503.5 490.7 483.8 479.9 468.4 446.1 414.2 385.4 366 351.7 349 352.1 350.1 349.1 347.8 347.5 348.7 349 355.7 362.4 369.3 380.2 379.9 376.3 364.5 351.7 343.7 338.3 332.5 322.4 318.2 323.7 329 331.3 333.7 338.1 342.9 349.4 366.6 386.9 415.1 447.2 479.2 488.5 489.9 489.6 489 489.5 491.2 494.5 497.5 499.6 500.8 502 505.5 509.2 509.8 506.7 500.3 489.9 475.5 441 428.3 417.6 407.7 401.5 396.2 390 386.8 383 375.3 362.8 356.4 349.3 346 336.8 328.9 327.1 329.4 331.5 331.4 331.1 331.9 332.4 331.3 328.3 329 328.8 330.2 330.3 330.4 328.7 329 331 328.5 326.1 324.9 319.1 313.1 307.5 304.3 301 299.3 298.2 297.8 299.6 298.9 300 300.4 302.2 299.3 302.6 301.9 302.6 302.4 300.8 300.4 302.5 306 306.1 308.9 308 311.7 312.4 313.4 311.1 310.2 306.5 303.3 301.5 298.1 295.4 285.5 268.5 255.9 252.8 245.3 234.9 228 221.7 220.4 219.4 216.3 211 206.8 202.6 200.8 199.8 195.2 190.9 189.3 185.2 183.9 180.8 176.7 174.1 173.3 168.9 166.1 166.7 163.2 159.7 156.4 149.4 147.9 144.9 143.2 141.8 139.5 136.2 138 137.7 137.8 137.7 137.4 136.9 136.5 137.4 138.2
543.9 538.3 527.6 499.7 468.2 454.2 448.8 449.8 450.4 447.3 447.3 447.3 449.2 450.4 452.3 455.7 466.1 485.7 502.6 520.5 536.4 536.7 523.5 519.3 515.5 488.2 451.7 419.5 392.4 369.5 356.9 351.1 356.6 353 350 348.8 351.4 349 351.4 358.3 364.9 370.5 380.7 384.2 380.4 366.5 354.2 347.3 341.8 335.3 329.1 324.4 330.5 335.8 340.2 343.1 346.7 350.1 355.9 365.1 386 412.7 441.9 472.8 487.3 487.5 486 486.1 486.9 489.2 491.1 494.1 496.6 499.1 500.7 502.2 506 507.7 505.9 502.3 496.3 482.1 456.2 435.2 425 415.5 408.7 405.3 399.8 393.7 387.4 381.1 370.4 365.3 358 352.1 342.3 333.4 334.8 338.8 340 342.1 339.3 342.6 342.7 339.3 339 339.7 341.4 340.8 342.2 342.5 338.2 339.6 342.1 342.4 337.1 334.9 330.5 324.5 320.1 317.6 316.1 314.7 312.6 311.2 313.1 315.1 316 317.4 318 316.1 319.3 321.3 323 323.9 328.1 325 325.3 331.4 330.9 332 329.3 330.8 330.8 325.5 320.8 317.1 312.1 306.7 301.6 299.7 296.6 293.4 280.6 267.4 258.3 253.1 247.1 231.2 222.8 219.1 219.6 220.2 215 210.5 205.5 203 200.6 195.7 191.4 189.2 186.6 183.5 182.4 177.3 174.5 173.6 170 166.4 164.5 162.6 160.4 155.1 150.9 150.4 151.7 149 144.2 141.4 136.8 135.6 138.2 138.8 136.9 136.8 136.4 134.3 133.7 134.5
557.8 557 546.1 521.5 490 462.1 449.4 447.5 447.3 447.3 447.3 447.3 447.3 450.8 458.2 460.6 469.4 494.4 515.3 540.3 552 554 554.2 551.8 536.8 493.2 456.4 428.8 398.8 370.8 360.6 360 359.4 355.4 350.8 350.8 354.9 354.8 355.7 360.9 367 373 383.7 388.7 384.2 369.8 356.1 350.3 344.9 340 330.8 331.1 338.7 343.1 347.7 349.7 352.5 359 365.2 370.3 385.9 407.4 429.2 465.7 482.2 482.4 482.5 482.8 484.4 487.3 488.8 491.8 494.4 496.7 498.6 500.4 502.1 503.5 503.8 504.1 498.7 489.1 475.5 447.1 431.6 421.8 414.1 412.4 405.1 396.4 388.9 381.3 376.1 370.7 365.9 358.8 344.8 342.2 343.2 346.8 350.6 352.9 354.2 355.3 356.5 355 353 354 355.4 353.4 354.2 353 353.2 351 349.7 346.9 344.8 342.9 341.8 340.2 340 337.9 334.3 334 332.2 331.8 331.2 336.6 338.4 340.5 343 342.5 344.7 349.9 353.3 357.1 355.2 351.7 351 352.8 350.3 345.6 342.4 340.6 337 332.5 326.7 319.6 311.6 305.1 299.4 296.4 294 291.3 285.9 275.6 266 257.7 251.1 237 231.5 229.7 225.3 222.6 219.8 214.9 209.3 204.1 202 197.2 192.9 189.5 185.9 184.3 180.7 178.8 175.7 173.8 171 168 163.5 160.5 157.9 155.8 156.2 157.1 152.4 147.5 145.5 142.2 140.5 135.8 136.2 134.3 136.7 136.8 134.4 133.1 133 132.8
559.3 561 558.3 540.2 514.3 484.7 463.1 448.2 447.3 447.3 447.3 447.3 447.3 447.3 460 468.6 479.9 501.9 532.6 554.8 554.3 554.2 554.3 553.5 545.2 498.8 458.9 434 404 375.9 363.1 361.6 362.7 357.1 355.9 358.9 360.9 360.7 359 363.6 369 376.5 384.9 391.2 387.7 372.7 359.8 354.7 349.2 344.8 332.8 338.1 344.5 351.7 353.2 355.7 361.3 368.8 378.6 387.5 390.6 406.7 421.1 456.4 475.9 477.9 479.6 480.1 481.8 484.1 486.9 489.9 492.1 494.2 496.2 497.7 499.7 501 504.3 504.8 502 496.2 490.7 470.8 445.3 428.4 418.5 414 408.7 399.1 396.7 392.5 390.4 379.2 370.9 362.7 357.5 353.2 353.3 360.1 361.2 363.6 366.3 366.6 368 367.4 368.9 375.8 379.1 377.2 370.3 363.4 358.7 356.1 358.9 358.6 357.1 357.1 355.4 359.5 358.3 356.2 355.9 357.5 356.3 357.3 358.2 362.4 366.8 369.1 371 376.7 377.9 378.1 376.2 374.2 372.7 365.8 362.2 361.9 357.9 353.1 348 344.2 340 333.4 326.2 316.6 307.9 300.2 294 290.3 287.9 285.2 284 277.2 269.4 259.5 252.6 245.9 238.1 234 229.5 224 220 216 210.3 205 201.1 197.5 196 190.4 186 184.2 181.5 178.3 176.9 175.7 173.5 171.2 166.4 161 158.9 157.3 155.5 153.9 151.8 149.7 148.6 148.3 140.8 137.3 134.4 137.2 135.4 134.1 132.7 132.5 132.4 132.1
561.1 561.6 562.4 560.4 526 514.9 492.6 459.2 448.8 448.6 449.7 447.9 447.8 450.4 462.5 477.8 491.7 516.2 544.8 556.9 557.4 558.3 557.8 555.1 545.9 507.1 463.2 433.8 406.9 384.5 367.4 367.5 369.8 365.1 367.5 365.7 364.7 364.7 366.4 367.9 373 377.8 385.3 391.2 390 374.9 363.4 359.7 353.7 349.7 339 346 353.3 358 361.4 366.2 374.2 386.9 398.3 405.1 412.7 417.9 428.5 449.7 470.8 474.3 476.1 478.1 479.9 481.5 484.6 488.7 490.7 491.7 492.5 493.7 497.3 500.7 505.2 505.2 504.1 502 496.4 486.2 468.1 439.8 425.2 415.1 410.2 400.2 398.2 394 394 390.8 380.4 375.3 369.9 367.6 367.1 372.2 372.5 372.9 375.7 375.9 380.5 387.7 400.6 408.2 414.2 408.8 398.7 383.3 377.3 375.3 377.4 376.4 375 376.6 375.6 372.3 376.4 377.7 375.5 375.7 374.5 376.8 380.1 384.4 390.8 391.2 392.2 389.7 388.6 386.7 384.2 381.5 378.5 374.8 371.1 367.5 362.3 357.2 351.7 344.8 337 329.7 321.9 312.5 302.7 296.7 288 284.4 282.2 279.8 277.2 274.8 270.8 260.6 255.1 248.1 241 236.7 230.7 224.7 220.8 216.6 211.4 207.6 203.3 200.8 196 192.8 188.9 186.2 182.4 178.9 178.1 177.4 176.3 171.5 167.4 163.7 160.9 159.7 158.5 156.4 155 153.2 152 150.7 144.9 139 136.5 133.3 135.9 135.1 132.8 132.2 131.9 131.5
562.6 564.3 566.1 567.2 549.2 527.2 515.6 493.4 469.2 459.4 454.2 455.5 455.6 456.4 470 493.9 515.1 545.4 553.9 559.4 559.8 560.6 560.1 557.2 546.6 511.5 473 444.1 422.5 400.2 372.5 367.4 367.4 367.4 367.4 369.2 369.2 368.8 369 371.1 374.1 378.6 384.9 391 390.2 379.8 367.9 361.7 355.1 348.8 346.9 353.5 360.3 364.8 372.3 379.1 394.4 408.9 421.2 429.8 434.9 449 465.3 465.3 466.7 470.4 474 476.3 477.9 479.5 481.9 484.8 487 488.5 488.8 490.4 494.1 498.9 504.7 506.5 506.5 505.1 500.5 495.7 489.8 469.2 436.8 423.4 415 404 396.1 392.7 393.4 397.4 397.3 393.3 388.3 384.7 378.1 384.1 387.7 392.3 397 404.3 411.2 421.3 434.7 446 447 442.6 427.7 415.7 405.4 402.6 405.6 410.2 403 397.3 394.9 391.2 390.5 393.9 398 396.1 395.7 395.1 393.6 394.5 398.1 398.3 397.3 394 392.4 390.2 388 386.1 382.9 379.8 376 372.2 368.9 362.8 354.4 345.1 335.6 326.3 317.8 309.1 299.3 293.6 287.7 282.8 278.1 274.2 272.2 269.4 265.7 261.9 255.9 249.8 242.3 235.2 230.4 225.5 221.3 217.1 212.5 208.9 205.3 202.3 199.4 195.6 192.1 187.7 183.1 180.3 178.4 177.1 176.8 172.4 169.2 166.7 164.1 162.8 160.8 158.6 157.1 154.8 152.9 151.4 150.5 147.6 141.8 136.1 132 131.9 131.5 129.6 131.4 130.5
562.7 565.2 567.5 568 569.3 554.7 537.1 524.3 514.1 492.6 478.5 471.1 473.3 481.7 493.9 530.5 554.6 556.1 560.3 561.3 562.3 563.1 562.7 559 555.8 535.6 481.3 448.2 427 407.6 378.7 367.4 367.4 367.4 367.4 367.4 367.4 367.4 371.1 372.6 375.7 379.2 384.2 390.1 390.4 381.1 376.4 366.9 358.6 351 355.3 361.5 366.2 374.1 383.1 395.4 410.4 428 446.2 459.1 462.2 472.6 473.3 470.9 469.3 472.7 475.6 476.2 477.2 478.6 479 480.3 481.5 483.7 485.2 487.9 490.8 497.8 504.5 506.2 507.5 508.7 508.5 508.4 503.5 495.4 470.2 439.1 423.7 414.7 404.2 398.7 397.7 398.7 408.1 410.1 411.6 414.1 411.8 414.2 413.2 421.4 425.6 439.3 448.2 457.3 458.4 464.7 458.8 458 454.5 445.1 443.1 438.7 432.4 434.3 427.4 417.3 417.6 406.6 404.2 407.1 408.4 405.5 401.9 400.7 399.9 400.3 400.6 400.3 396.8 394.5 392.5 391.3 388.6 385.7 383.8 381.8 379.7 376.2 371.8 366.2 359.4 349.4 335.1 323.3 316.2 303.2 297.3 291.4 286.1 278.5 272 265.2 262 261.3 260.1 258.3 256.2 250.7 243.3 235.4 230.9 226.9 221.9 217.7 213.4 209.6 207.2 204 202 199.1 194.5 189.6 184.4 180.2 179.3 176 176 175.2 170.8 169.6 168.2 164.1 161.9 159.5 157.6 155.8 154.3 153.1 150.8 149.5 145.3 144.5 143.1 135.6 133.2 130.9 131.5 127.3
563.6 566.6 568.5 569.4 570.4 573.5 573.3 553.5 540.7 527.2 514.6 497.7 494.2 509 530.6 563.9 562.9 560.7 561.7 565.5 565.9 565.8 566.6 562 561.6 551.4 501.8 457.6 436.1 412.4 391.4 367.4 367.4 367.4 367.4 367.4 367.4 367.4 369.8 372.7 375.8 379.1 383 388.3 390.8 386.4 380.2 372.3 365 362.2 363.5 367.7 373.3 384.2 395.3 407.7 430.5 454.8 468.2 483.6 478.7 476.4 474.8 475 473.5 474.5 476.2 476.4 476.5 476 476.5 477.7 478.8 479.9 482.7 486.6 490.4 495.7 502.1 506 508.5 510.4 512.2 514.3 514.4 512 507 488.8 443.4 428.7 418.4 413.5 408.1 410.3 422.2 429.8 437.1 435.1 438.7 439.7 441.7 446.6 451.9 463.4 469.9 474.8 472.1 469 461.9 456.1 453.6 447.7 443.7 441.1 434.7 430.8 430.3 424.5 422.6 420.2 413.7 412.3 410.3 407.8 406.3 405.2 402.1 401.8 401.5 399.9 397.6 393.5 390.7 388.7 386.2 383.1 381.8 381.5 379.7 377.1 372.9 368.1 364.4 356.5 340.5 318.6 310.7 300.6 291.6 288 284.9 276.2 267.2 259.8 256.5 254 252.9 251.7 250.3 249.4 243.5 238 232.4 229.3 223.7 218.1 214.4 210 207.2 205.1 203.4 201.5 197.9 193.5 189.7 182.3 178.8 176.8 176.3 175.9 174.3 170.8 168.1 163.8 161.9 159.8 158.4 157.1 155 153.6 152.1 150.7 146.5 145.2 141.5 134.1 133.2 131.1 131.3 131.2
562.9 567.4 570.8 572.7 574.7 576.7 578.2 577.2 574.3 559.5 555.8 536.4 536.2 541 559.6 564.8 564.9 564.2 566.2 569.9 568.6 568.1 567 563.4 559.8 555.4 514.5 469.7 446.2 420.9 397.3 379.3 367.4 367.4 367.4 367.4 367.4 367.4 368.8 373 375.8 378.9 381.3 386.9 391.5 390.1 384.4 375 370.9 369.7 370.6 375.2 381.7 392.1 402.9 420.6 447.2 474.4 485.9 486.5 482 479.3 477.6 476.6 477 477.4 477.3 475.7 475.2 474.4 473.6 474.7 475.7 477.1 480.5 485.9 490.9 495.4 500.4 503.5 506.3 509.4 511.1 511.9 514.4 515.1 515.9 511.7 498.7 468 438.2 430.2 433.8 435.8 437.1 451.7 453.8 458.8 461.1 461 459.8 464.7 474.9 486.4 489.2 486.1 479.3 472.4 462.5 455.5 450.1 442.9 438.2 433.7 429.4 427.8 424.7 421.5 420.2 419.1 414.9 412 411.2 410.1 408.5 406.3 403.6 401.6 399.5 397.4 394.1 390.8 388 385.9 383.7 381.5 380.3 379 376.6 374.6 372.6 369.2 364.9 359 348 319.8 304.3 293.3 286.2 282.1 277.9 272.4 264.1 255.3 252.8 249.9 249.2 247.1 244.9 244.2 243.9 239.4 235 230.2 225.1 221.4 215.9 210.3 207.6 205.3 204.1 202.7 200.4 195.7 193.7 188.2 181.1 178.2 177.2 176.2 172.9 169 166.2 163.6 161.5 160.5 159.2 156.1 154.5 152.7 152.3 151 149 146.5 144.1 135.5 132.5 132.7 131 130.5
562.8 567.3 570.9 573.9 577.2 579.9 581.2 583.5 583.1 579.5 576.6 573 566.7 559.8 567.4 568.7 569.6 570.2 571 570.9 571.1 569 567 564.5 561.4 560.9 543.6 498.3 457.4 434 410.9 388 374 367.4 367.4 367.4 367.4 367.4 369.3 374.9 377.4 378.8 380 385.2 389.7 392.2 389 381.4 377.7 376.7 379.1 384.9 394.5 402.5 409.2 431.7 459.9 479.7 488.7 488.9 485.7 481.1 479.8 479.1 480.7 481.1 479.4 475.8 473.4 472.1 470.8 471.4 472.6 475.1 478.9 483.9 490.1 494 497.8 501.2 504.4 508 510.5 511.1 512.5 515 515.9 515.7 514.6 503.6 495.6 482.5 468.4 454.4 455 474 487.9 499.6 504.8 497.4 495.1 493.9 502.9 504.2 499.6 493.1 485.2 473.3 463.4 453.8 445.1 438.7 433.4 428.2 424.3 421.2 419.5 417.2 413.8 412.3 411.3 409.7 411 409.3 407.9 406.2 403.6 401 397.6 394.1 390.8 387.5 384.8 380.1 377.6 375.4 375.2 376.3 375.6 372.3 369.4 366.5 362.9 357.6 352.6 327.4 305.7 289.2 279 273.6 271.5 267.3 259.7 251.9 247.9 245.9 245.6 242.6 239.5 238.7 239.6 238.5 235.2 232.6 228.3 223.1 217.1 212.5 208.4 206 204.6 203.3 202 196.7 195.1 193.6 191.8 182.6 178.3 176.7 173.1 169.7 167 162.8 162.4 162.7 159.6 157.2 155.3 153.8 151.3 147.2 145.2 142.6 140.9 140.5 132.6 130.9 131.1 130.4
559.9 565.5 571.2 576.4 579.8 581.1 584.7 588.6 587.3 585.1 580.9 579.7 573.6 571.3 572 570.9 574.6 575.2 574.8 574.7 572.4 570.2 570.3 566.4 563.3 559.2 549.8 524.8 487.1 455.2 431.5 404.5 386 369.2 367.4 367.4 367.4 367.4 367.8 375.6 378.7 380.8 382.7 386.3 390.6 392.4 394.8 390 385.5 385.5 389.6 395.5 403.9 410.1 420.3 443.1 466.2 482.4 494 493.7 489 484.8 482.5 480.7 481.1 481.3 480 476.4 472 470.3 469.2 468.8 470.7 473.1 476.9 482.1 488.1 492 495.6 498.9 502 505.6 507.8 509.7 510.9 511.6 514.6 513.2 510.5 510.1 509 506.9 500.1 489.8 497.9 509.7 510.3 514.2 514.7 514.3 512 509.5 507.9 504.8 500.4 495.3 487.1 477 464.4 453.6 441.7 435.2 429.7 422.9 419.2 415.5 413.8 411.7 407.8 405.7 403.8 404.4 405.7 405.8 405.6 403.5 401.6 398.2 394.6 390.9 387.4 383.8 379.7 375.1 371.3 369 366.7 365.4 365.2 363.8 363.5 360.5 357.3 357 351.3 328.3 308 290.3 276.9 267 264.7 261 255.7 249.1 244.9 241.2 241.4 238.6 235.6 234 234.3 235.1 235.4 232.6 231.6 228.4 222.5 217.6 212.8 209.8 206.1 203.2 201.6 200.7 196.1 194.7 193 191.8 183.3 178.3 175.2 171.5 173.9 167 167 166.2 162.9 157.9 156.4 153.3 151 147.1 144 140.9 138.9 139.6 135 131.1 129.8 130.3
556.5 560.7 570.1 575.5 580 583.4 585.5 588.3 587.8 588.1 587.1 587.7 585.3 585.2 586 586.2 582.9 581.6 581.8 581.7 578.9 576.4 578.3 573.3 564.9 560.6 558 547.3 522.3 482.2 455.4 424.2 406.4 385.6 367.4 367.4 367.4 367.4 367.4 375.3 380.6 384.3 385.9 387.4 392.8 397.4 403 398.6 396.6 396 400.1 407.1 416.7 425.9 437.6 449.1 470.4 480.3 494.5 495.9 490 485.8 484.1 481.7 481.1 481.2 479.4 475.1 470.7 469 467.3 467 469.1 472.1 475.9 480.1 485.3 489.3 494.7 498.7 500 503.6 505.3 507.1 508.8 510.1 511.1 510.6 509.5 509.2 505.9 503.4 500.8 497.2 499.3 501.2 505.7 510.7 511 511.8 511.3 510.1 508.7 506.5 502 496.1 489.3 478.9 467.6 454.8 440.4 432.3 423 416.2 413.6 410.2 408.5 406.2 402.6 399.4 398.2 398.2 399.8 401.3 401.4 399.8 398.6 393.4 389.4 386.5 381.3 377.3 374.7 372.2 363.4 360.8 357.5 354.9 354.4 354.7 355.6 354.5 352.9 351.1 343.1 323.9 302.6 289 276.4 264.6 259.5 255.3 252.4 247.3 242.5 238.6 234.7 235.7 232.1 229.7 228.2 228.8 232.3 231.3 232 231.4 230.7 226.2 220.3 214.9 211 206.5 202.2 200.2 199.3 195.5 194.1 192.4 186.5 180 177.3 176.3 175.3 172.3 168.5 167.3 164.4 159.6 156.1 153.7 151.2 146.9 143.8 139.9 137.9 137 137 132.1 130.2 130.2
552.5 557.4 567 575 581.4 585 587.6 589 590.8 591.4 592.2 592.9 593.5 595.2 596.6 592.4 589.3 587.7 587 588.2 586.2 581.5 579.7 577.8 569.5 563.5 559.1 557 539.8 520.8 475.5 457.9 435.7 414.4 393.4 377.9 367.4 367.4 369.8 378.9 385.7 388.8 390.9 390.8 396.2 403.9 404.9 405.5 407.4 408.7 413.7 420.9 430.4 441 454.8 466.9 474.8 484.3 491.3 492.9 487.4 486.8 484.7 482 481 479.7 476.9 473 469.2 466.5 464.8 464.4 467.2 470.9 475.2 480.1 485.7 490.6 494.5 499.1 500.8 501.7 502.9 504.5 506.4 507.2 509 508 506.6 506.5 505.8 501.9 498.1 492.8 494.9 497.1 500.6 505.8 508.5 510.4 511.3 510.4 509.4 507.2 504 499.8 493.4 483.6 472.6 453.2 446.5 433.8 420.2 410.9 408.6 406.1 404.3 401.4 398.1 395.4 394.5 394.8 395 395.9 394 392.5 391.3 389.1 382.7 379.5 374.4 370 368.2 362.6 355.7 348.8 346.9 346.3 346 347.4 348.6 347.9 348.7 347.5 341.8 322.6 302 282.2 270.5 262.5 252.7 252.2 248.6 244.4 240 234.6 230.4 230.1 226.9 225.3 225.2 225 225.2 226.5 225.1 227.5 229.1 226.5 225.1 219 216.6 211.4 205.9 201.6 199.2 198.1 194.7 189.9 187.1 184 178.4 176.6 175.7 174.3 169.8 167 164.1 159.9 157.1 153.4 150.2 149.5 145.4 141 136.7 135.3 135 133.3 133.2 130.2
548.7 551.4 558.7 569.6 578.9 583.8 587.9 589.9 591.1 592.2 594.4 596.1 597 597.8 598.7 596.8 594.2 592.5 591 586.2 583.1 581.6 579.6 576.3 572.3 570 562.8 556.4 550.2 540.7 518.1 508.5 477.1 444.1 420 404.3 390.7 382.5 379 386.1 390.5 394.5 396.5 396.6 402.4 405.7 411.8 413.6 418.1 422.9 426.5 434.5 443.7 459.8 473.2 477.7 479.7 486.8 490.9 487.4 488.4 486.1 483.2 481 476.6 476.4 473.9 470.8 467.4 464.2 461.4 460.9 464 468.6 474.1 479.9 485 489.2 493.3 497.5 499.3 498.9 500.2 500.2 503 505.9 507.8 506.1 504.7 503.7 504.4 500.6 496.6 491.3 489.6 492.4 496.6 500.9 505.5 507.6 510.3 510 508.4 507.1 505.8 503 497.9 489.9 480.2 456.7 449.3 436.6 427 412.3 406.3 402.5 399.8 396.2 392.8 389.4 387.7 387.6 389 389.2 387.2 384.1 382.9 378.7 374.8 371.5 368 360.6 357 353 346.7 336.2 336.8 337.8 338 338.1 339.7 341.2 343.1 341.3 329.1 313.5 295.2 273 264.9 258.8 251.6 244.6 241.9 240.8 236.9 229.5 226.2 224.4 222.5 221.6 218.2 216.4 218.1 221.1 220.2 220.5 223 223.7 224.3 221.5 219.8 215.8 210.2 205.7 201.8 198.5 194.9 191.2 188.7 182.9 182.5 177 176 174.9 171.6 167.6 162.5 158.8 157.7 153.9 150.7 150.6 147.8 144.3 142.7 136.6 135.5 134.4 134 133.3
546.4 547.2 549.9 562.5 574.8 582 585.9 588.3 590.5 592.1 594.8 597.7 598.7 600.4 599.2 597.8 595 593.1 591.7 589.2 583.3 579.2 577.7 573.7 571.2 568.4 564.4 559.5 557.1 551.8 545.2 535.5 523.6 490 454.5 438.5 426.1 411.6 403.2 402.8 400.1 405.3 405.5 407.8 410.7 414.4 419.9 425.9 430.7 438.9 445.7 455.7 461.9 470.6 479.3 481.2 484 487.2 486.7 488.2 486.5 484.5 482.4 480.2 475.8 473.8 471.1 468.1 464.8 462.3 459.9 458.8 461.8 466.1 472.3 477.6 482.7 486.8 490.7 495 498.2 498.2 497.9 498.7 499.4 502.6 505.2 504 502.8 501.3 501.1 497.9 493.2 488.3 484.8 487.3 491.8 496.9 501.9 504.6 506.5 507.6 507.2 507.5 507.8 506.1 501.7 495.3 487.1 472.7 455.4 438.7 430.7 419.8 407.5 401.6 389.9 388.8 380.1 378.1 375.4 375.1 379.5 380.1 379 375 371.8 365.2 363 358 353.4 347.8 343.4 339.2 334.3 328.6 329.1 329.3 328.7 330.7 333.6 335 330 320.2 308.3 296 281.1 264.9 256.8 251.3 245.3 235.5 232.7 232 227.5 222.1 218.1 215.5 213.5 213.3 212.5 209.4 213.3 215.9 214.4 214.4 216.5 218.2 220.2 220.5 218.8 217.3 212.2 208.4 203.5 200.3 197.3 192.6 189.6 183.8 183.3 182 176.3 174.7 172.2 166.2 160.7 157.5 156.2 156.1 151.6 149.3 147.6 145 142.6 139.4 136.9 135.1 133.6 131.3
543.7 544.6 545 556.7 570.1 580 585 587.4 588.7 590.9 593.9 597.4 599.7 600.8 599.1 597.3 594.1 590.7 590.1 586.9 583.3 580.1 574.9 570.9 567 563.9 561.2 557.1 554.5 550 547.5 543.2 540.1 527 511.3 489.8 468.6 448.6 438.4 431.7 427.4 426.9 427.1 431.9 431.3 433.9 441.2 449.7 456.7 463.7 470 475.3 482.1 484.8 484.7 486.4 485.4 485.3 486.5 485.9 484 481.8 480.4 477.9 473.7 471.9 468.3 463.7 460.8 459.3 457.9 458.4 459.4 463.9 470.3 476 481 485.4 488.2 492 495.6 496.1 495.4 496.3 497.3 498.7 501.9 501.7 501.4 499.2 497.4 494.4 489.7 485 479.3 481.1 485.6 490.7 496.9 501.1 502.7 504.5 506.7 507.9 509.3 508.1 505 499.8 493.5 485.6 471.4 449 432.7 421.3 412.7 402.6 388.2 380.1 376.1 368.3 365.7 363.9 364 362.6 361.2 359.2 356.2 352.2 347.2 342.7 337 335.5 331.1 328.2 322.8 320.4 318.8 318.8 318.9 322.6 323.3 317.4 309.7 299.8 285.7 277.1 263.8 254.4 249.1 243.7 237 231.4 225.5 222.5 217.3 211.9 208.5 206 206.9 205.2 206.9 207.4 208.1 208.4 208.1 209.1 210.2 212.1 214.3 214.6 216.3 215.7 215.4 209.4 202.7 201.2 199.4 193.1 188.6 186.5 185.1 181.7 179.1 176 170.6 166 161 157.4 156.1 156.1 154.2 149.4 147.2 144.2 142.5 140.5 138.2 137.4 137.5 130.3
540.6 542 542.7 554.9 566.8 576.4 584 586.2 588.3 589.5 592.7 595.5 597.2 597.6 597.4 595.2 592.6 590.3 587 584.3 581.1 579.5 574.9 570.2 565.4 561.1 557.1 554.1 552.3 547.9 543.4 540.7 537.9 534.3 519.5 511.4 514 493.5 480.9 470.5 468.2 464 465.9 467.5 470.3 465.9 474.9 482.2 492.3 498.7 498.3 495.5 493.6 493 491.3 487.8 486.8 485.3 484.8 483.2 481.6 478.9 477.8 474.6 472.1 469 464.6 459 457.9 456.6 456.1 457.1 459 463.2 470.4 474.8 479.2 483.7 486.7 490.9 493.5 493.7 492.5 492.6 493.5 493.8 496.4 499.4 498.5 496.1 493.8 490.7 486.5 482.2 477.6 476.1 480.2 484.3 491.3 496.3 500.4 502.2 504.8 507.8 509.2 510.8 507.8 504.7 500.3 492.7 482.8 466.9 440.9 423.6 414.6 405.6 400.9 382 371.8 366 360.5 355.4 352.4 350.4 349.3 347.8 344.2 340.4 334.8 327.8 323.2 325.3 320.3 314.5 308 304.4 301.1 299.4 299.1 300.1 300 293.6 284.2 277.7 264.3 269.5 251.7 243.3 238.6 234 229.5 226.4 223.4 217.9 212.4 207.5 203.5 201.3 200.5 198.7 199.6 201 200 205 203.4 204.7 206.1 206.8 207.5 208.8 211.8 216 214.8 210.3 203.3 198.9 197.3 194.8 189.9 186.8 182.8 179.8 178.1 174.9 169.2 162.7 158.2 156.3 155.9 155.6 152.6 149.8 147 143.5 143.2 141.6 141.4 140.4 140.1 129.9
538.1 539.5 540.5 551.6 564.2 572.4 579.6 584.4 586.7 589.2 590.7 591.4 593 593.6 594.2 592.4 591.2 588.9 583.4 580.5 577.7 575.6 572.6 567.4 562.9 560.5 554.3 550.4 549.3 546.3 541.9 538.6 536.9 534.7 527.6 508.6 509.6 509.1 506.8 503.9 499.1 501.3 500.7 498.9 497 492.2 495.8 502.8 505 505 503.7 500.5 495.9 494.3 490.9 489.7 488.5 486 482.8 480.2 478.8 476 474.4 472.9 470.8 468.2 462.6 460.7 458.5 455.1 454.3 454.2 456.5 459.6 466 472.5 476.9 481.3 485.7 489.1 491 491.3 490.3 489.7 490.1 489.2 490.6 494.2 496.2 493.9 490.9 488.3 484 478.4 472.7 471 476.3 480.1 486.9 491 494.9 500.3 503.2 507.2 509.4 510.9 509.7 507.4 504.5 499.2 490.4 479.6 454.6 425.5 413.1 409.5 403.8 385.2 373.6 366 359.4 352.5 347.3 339.7 337.1 336.2 332.9 328.7 324.1 317.2 312.2 310.2 307.8 302.5 295.5 287.9 284.5 282.1 281.8 279.4 276.2 269.8 266.1 259 252.5 253.8 240.4 234.4 230.5 227.3 226.5 224.8 222 216.7 209.6 204.3 200.1 197 195.5 194.3 194.3 194.2 196.4 200.5 198.1 198.8 200.8 202.1 200.8 200.3 204.6 207.1 208.6 208 201.6 193.9 195.9 196.2 190.6 186.3 181 177.5 174.9 171.6 165.9 160.3 156.9 155 155.2 155.1 153.1 150.5 147.2 144.3 143.5 143.4 142.7 142.4 142.8 143
535.5 536.4 536.9 546.2 560.4 569.8 575.4 579.3 583.4 586.7 588.2 589.2 590 590.4 591 590.5 586.9 585 580.8 577.2 573.7 571.2 568.2 564.4 561.4 556.8 552.6 548.3 546.7 545.5 541.6 538.4 536 532.8 528.6 513.8 505.6 502.3 506.2 504.2 501.6 504.1 504.4 504.6 502.2 499 500.6 502.9 505.3 506 505.7 503.1 500.5 496.8 492.1 488.8 488.5 487.9 484.1 479.8 476.5 471.9 471.3 470.2 468.6 466.4 463.9 461.2 459.1 454.3 452.1 452 452 457.4 464.5 470.3 474.7 479.1 482.8 486.7 488.9 488.5 488.4 488.7 489.8 487.5 486.8 489.6 491.7 490.6 487.7 485.3 482 476.3 469.6 466.5 472.3 476.9 483.1 487 490.8 496.5 500.7 504.4 508.2 510.2 510 508 505.9 505.1 497.1 485.2 464.7 431.4 413.2 410.3 406.8 396.9 380 369.9 362.7 356.4 349.9 341.2 330.7 328.4 323.9 320.9 315.7 305.7 300.6 295.8 291.6 286 278.6 273.9 268.7 265.5 267.8 265.2 261.1 256.7 251.6 246 240.9 235.8 229.7 228.2 225.7 224.8 223.3 221.6 217.4 211.9 205.9 201.1 197.1 193.3 189.5 191 189.1 190.1 190.7 191.7 196 193.6 195.1 194.3 195.5 194.6 196.5 200.1 201.2 203.2 198.7 191.4 192 193.9 190.9 186 180.9 175.3 171.8 168.6 163 159.6 156.1 153.5 154.6 153.3 151.5 149.2 146.3 144.5 143.3 143.5 142.8 143.4 144.4 144.5
532.3 533 537.2 544.6 558.5 566.9 571.6 575.6 579.2 582.1 584.4 585.8 586.7 586.3 586.1 587.6 582.8 580.1 576.5 572.6 568.8 565.2 561.7 558.8 555.3 551.9 548.8 546.5 544.1 542.6 542 539.7 535.9 530.9 525.8 519.5 505.7 498.7 500.8 500.7 499.5 500.3 500.6 501.9 502.7 501.9 502.8 502.6 504.6 505.1 504.5 502.6 501.7 499.7 495.2 491.1 488.8 488.4 485.9 480.8 476.3 470.7 468.6 465.9 465.6 463.4 462.1 460.3 456.8 453.7 451.2 449.2 448.8 455.1 462.8 468.1 472.4 476.3 479.7 483.9 486.9 485.9 485.4 484.6 486.1 485.2 482.1 484.4 485.6 484.9 484.3 482 479.7 474 465 459.4 468.1 474.1 479.7 484.4 488.8 492.8 496.9 501.4 505.6 509.2 510.1 508.9 506.1 507.4 501.2 491.3 476.3 443 416.6 408.9 406.7 403.1 384.8 372.6 367.8 360.3 352.4 343.1 335.4 327.5 319.4 318.1 310.1 304.8 300.3 296.3 289.1 283.9 278.6 274.9 264.4 259.9 258.9 255.4 250.2 245.1 242.9 237.2 232.2 229.2 225.7 224.5 222.9 222.6 219.4 216.8 212.5 208.3 203.3 200.3 197.2 191.8 189.7 188.6 179.6 179.4 181.8 185.3 187.5 188.7 189.8 188.9 189.5 188.3 190.6 192.6 193.6 193.3 193.1 189.8 190.6 192.3 191.8 183.7 178.8 175.3 172.9 168.2 162.5 157.4 154.3 153 150.6 149.8 148.8 146.5 146.5 142.9 143 143.8 143.3 144.2 141 140.4
530.9 532.7 536 544.7 557.1 563.1 567.8 571.9 575.5 576.9 578.3 578.3 579.8 582.5 586.2 586.2 581 577.5 571.3 567 562.8 558.4 555.8 553.5 549.4 545.2 543 541.6 541.2 540.6 538.9 537.3 534.5 529.3 526.3 520.4 508.3 496.5 497.1 495.5 497.4 498.1 498.9 501.1 501.1 501.5 502.4 502.5 503.2 503.9 503.7 504.8 502.5 499.9 496.9 494.2 491.7 489.9 487.7 481.3 476.6 473.4 470.2 465.7 463.2 461.5 460.2 459.4 457.7 454.6 451.8 451.3 448.8 453.4 461.5 465.7 469.5 473.2 477.8 480.4 482.5 482.8 482.4 481.6 482.4 481.3 478.4 478.9 479.9 480.4 480.5 478.5 476.3 472.6 464.9 458.8 463 470.5 475 479.1 483.8 488.5 492.4 498 502.8 506.9 507.9 508.1 507.1 504.4 503.5 495 486.7 459.8 424.6 407.9 404 402.9 390.9 376.9 373.5 365.3 356.1 346.5 338 329.6 324.2 320 317 313 307 300 295.8 291.5 286 280.4 273.6 268.7 262.3 254.9 246.5 240 236.8 231.1 228 224.3 223.9 222.9 221 219.6 217.2 214 209.2 208.1 207.5 204.6 199.3 195.2 191 187.9 182.1 178.3 178.1 180.9 182.7 182.4 182.1 181.9 180.8 179.9 181.4 185 186.1 185.3 185.4 184.9 183.1 191.6 188.9 183.9 179.4 175.4 172.1 168.7 162.9 156.6 154.4 153.4 152.8 150.6 147.9 145.3 143.9 144.1 144.3 143.1 141.2 138.7 135.2 132.5
530.4 532.5 535.5 543.7 555.1 559.6 563.9 568.1 571.1 572.7 574.1 575.1 577.6 581.3 584.6 583.1 580.5 575.2 567.1 560.1 556 552.2 549 545.7 542.2 538.7 537.6 538.1 539.9 538.4 537 535.4 533.1 530.6 525.2 518.9 513.7 505 494.4 490 491.5 494.1 497 499.2 499.3 500 501.1 501.3 502.1 503.6 504.9 504.7 502.7 499.2 498.1 496.1 494.2 492.1 490.9 484.8 481.3 478.8 475.5 470.1 465.2 465.7 460.2 458.9 458.8 455.7 452.9 451.4 448.8 448.8 457.6 463.4 466.7 470.8 475.5 476.6 478 478.3 478.2 478.5 478.2 477.2 474.7 472.1 474 475.3 476.3 475.1 473.5 470 464.2 458.6 459.9 466.5 470.3 474.3 478.1 482.5 487 492.3 499 503 505.3 505.4 506.1 502.8 501.3 496.1 488.6 475.6 450.1 421.8 407.5 400.2 397.3 386.8 376.7 368.1 358.5 350 343.2 336.6 329.4 324.8 321.8 318 313.7 306.6 304.2 299.6 292 284 276.8 271.8 265.9 258.5 250.4 241.7 235.9 228.6 223.2 220.4 221 220 218.6 216.6 214 211 207.8 206.4 206.4 206.2 202.6 198.3 198.4 194.1 189.9 183 174 173.5 173.3 171.6 170.8 171.2 169.3 174.1 176.7 177.3 180.4 179.5 179.5 178.5 177.5 186.1 184.1 180.9 177.5 172.4 169.2 167.3 162.1 155.9 154.3 153.7 152.8 150.9 154.7 160 145.9 144.6 144 143.4 141.1 135.5 132.7 131.6
530.8 533.2 535.9 542.2 552 556.7 560.3 564.8 566.9 568.5 569.5 572.1 575.2 580.1 580 578.3 575.7 571 563.8 556.1 550.1 545 541.1 537.4 534.8 533.1 533.7 535.1 536.5 535.9 535.4 534 532.3 530.2 527.5 521.4 515.7 510.7 502.1 492.2 489 491.1 492.2 494.4 495.6 496.5 498.8 499.2 501.1 503.8 505 504.7 503.6 500.6 499.3 497.2 495.4 493.7 492 488.2 486.2 482.5 478.7 474.5 471.3 470 468.6 463 460.4 457.4 454.5 451.7 449.5 448.8 452 459.3 462.6 467.8 472.5 472.2 473.6 473.5 473.7 474.6 474.4 473.8 472 469.1 469.2 469.9 471.1 471.7 470.7 467.7 462.7 458.8 458 462.3 467.8 470.8 474.2 478.3 482.9 487.9 494 500.7 502.1 502.1 502.4 501 500.2 498.4 492.5 481.9 468.5 449.7 425.6 402.8 393.9 390.1 379.2 368.4 363.4 357 350.2 340.5 335.2 328.7 325.9 323 319.9 314.9 308.8 304.2 297.6 289.7 281.3 273.6 265.7 257.6 250.5 243.6 237.5 231.6 224.1 217.1 217.5 216.9 214.8 212.6 212 208.6 206.4 206.4 206.4 205.9 203.9 203 202.1 199.9 196.8 191.4 183.4 179 176.6 173 175.2 171.4 165.2 165.4 166.8 170.4 172.3 172.4 174.6 174.2 171 173.8 176.1 177.3 173.2 170 166.7 164.7 160.8 155.6 153.1 153.2 151.9 148.5 148.4 159.9 156.9 145.8 146.1 144.8 139.8 135 133.2 131.9
532.3 534.8 537.6 541.7 549.5 554.4 559.6 561.6 562.6 564.4 566.6 569 571.2 575.7 575.2 573.6 571.1 567.2 560 553.4 546.4 536.9 532.9 529.9 528.8 528.5 530.3 531.7 533.2 533.6 534 532.4 530.8 529.4 526.4 523.4 518.4 513.4 506.1 496.8 487.3 488 488.7 490.4 491.1 492.7 494.4 496.5 498 501.1 501 502.7 502.3 502.4 499.8 498.4 497.2 495.1 493.3 492.3 490.3 485.8 481 477.4 474.2 471.1 468.9 465.7 462.5 459.4 456.5 452.9 451.4 446.4 448.3 454.1 459.3 463.4 468.7 470.7 470.2 468.9 469.4 471.8 470.6 470 468.4 465.6 462.4 465.2 466.4 466.8 466.6 464.2 461.1 457.6 449.3 460.2 462.9 466 469.4 473 477 481.2 487.9 494.7 497.4 498.3 499.2 499.3 497.8 495.5 492.1 485.1 476 465.1 450 405.5 395.1 392.2 382.9 374.8 368.9 364.1 358.5 350.5 342.4 338.6 334.3 328.8 325.2 320.3 313.4 308.1 302.3 294.4 285.8 276 265.3 254.2 249 242.4 236.4 229.3 221.3 217.1 217.2 216.3 214 212.4 211.4 210.2 208.9 209.5 209.4 208.5 206.6 206.9 206.2 203.9 200.2 198.8 197.7 193.7 190.4 190.1 187.6 183.8 174.6 166.3 163.3 163.6 164.4 164.8 165.3 167.6 166.4 167.9 169.8 171.4 169.6 166.4 163.2 160.8 158.2 154.7 153.1 151.9 151.2 145.9 145.3 157 158.3 150.7 147.5 146.6 142.4 139.4 135 131.4
533.2 536.4 539.3 544 549.2 553.5 557.1 558.5 559.8 561.6 562.5 565.9 569.2 570.3 570.6 568 564.9 561.1 556.7 550.5 541.8 532.4 526.1 523.5 523.6 525.9 528.4 529.5 529.9 532.1 532.1 530.9 529.8 527 524.1 522.6 519.5 513 506.5 500.6 490.2 485.8 486.3 487.2 488 489.2 490.7 495.7 498.8 499.2 498.7 501 499.9 498.7 498.7 498.9 495.9 496.2 495.3 494.6 493.2 489.1 484.2 479.3 475.9 472.9 470.9 467.8 463.6 461.3 457.8 454.1 451.6 444.6 444.7 450.4 455.5 458.8 463.3 466.6 467 465.1 464.8 466.5 466.8 466.1 464.6 462.2 459.6 461.2 461.1 459.8 461.5 459.2 456.7 453.5 449 453.5 458.6 462.3 465.1 468.8 472.8 476.9 483.5 490 493.4 494.6 495.3 495.2 494.2 492.9 489.3 485.7 480.6 471.5 461.5 439.8 424.6 396.3 384.8 382.9 373.4 367.5 363.3 356.6 348.1 343.9 340.7 338 330.7 328.3 318.4 311.5 305.5 298.6 290.1 277.9 263.5 252.4 244.5 239.3 233.4 226.7 219.9 217.1 216.9 216.3 212.1 212.7 211.6 210.2 211.6 212.8 212.6 211.1 210.8 211.6 211.7 209.8 207.4 204.4 201.9 199.8 197.7 196.9 192.8 191.7 188.9 184.8 176.1 166.5 161.1 159.7 158 157.1 155.1 152.8 155.2 162 163.4 161.5 157.6 150.9 146.4 144.6 142.6 141.8 141 143 142.3 146.6 148.2 149 148.7 147.8 143.9 142.4 134.7 131.2
533 535.5 538.5 543.6 548.3 551.9 554.2 555.7 557.1 557.9 559.1 562.7 564.8 565.9 566.4 562.5 560.4 557 554 548.7 538.6 526.7 520.6 518 518.7 522.8 525.7 527.3 529.2 530.2 530.5 528.6 526.9 524.5 521.7 521.3 519.8 513.7 508.3 502.1 500.5 485.6 485.5 484.7 485.2 486.5 494 498 500.3 500.5 500.1 497.8 496.8 495.3 494.4 493.6 490.2 491.2 490 489.7 488.3 487.1 484.9 481.7 476.8 474.6 471.4 469 465.3 461 459.5 453.7 451.8 446.7 441.4 446.5 451.5 455.4 458.8 461.8 463.9 461.1 460.2 460.9 461.7 461.9 460.9 459.4 458.7 457.9 458.2 458 457.5 456.4 454.7 452 448.5 448.4 452.7 457.4 460.7 464.7 468.5 472.4 478.2 484.7 489.1 490.8 491.2 491.3 490.5 489.9 486.8 483.4 479.3 473.9 465.8 454.8 444.5 417 405.2 389.1 376.9 371.1 368.1 360.6 348.5 344.8 343.9 342.4 339.1 335.5 327.7 316.9 311.3 303.2 294.2 277.7 263.8 252.2 243.6 237.6 230.2 223.5 219.9 217.7 215.7 214.7 215.1 214.5 213.7 216.2 216.5 218.1 217.5 216.5 216.7 217.5 219.1 217.1 213.8 211.3 207.8 204.5 202.1 200.3 198.3 196.1 192.1 188.5 188.3 185.7 176.2 170.5 161.5 159.3 158.2 155.7 151.5 149.9 149 146.9 146.6 146 148.9 151 150.1 147.1 139.6 136.7 138.4 146.7 147.5 148.3 147.1 145.6 142.2 137.5 132.7 131.1
531.8 534.5 537.8 542.2 546.1 550.7 550.3 551.7 553.2 555 557.3 560.5 561.3 561.5 561.4 559.1 556.4 553.5 551.3 546.1 537.4 525.7 516.5 513.1 518.4 521.9 523.7 524.9 525.8 525.5 525.3 524.4 523.4 521.1 521.1 519.6 516.4 512.7 507.9 501.7 500.2 488.7 482.9 484 486.4 491.3 493.3 499 499.8 500.1 501.1 500.3 498.4 497.1 496.5 498.1 495 488.8 484.4 481.8 480.3 480 480 479.6 477 473.8 470.5 468.5 465.3 461.4 459.1 453.5 448.3 445.5 437.6 440 445.2 449.5 455 458.4 456.7 455.2 455 456.5 457.3 458 458 455.5 453.8 454.2 454.8 454.7 454.5 452.9 451 448.8 443.4 442.1 446.9 450.5 456.3 459.9 463.5 468.1 474 479.7 483.4 486.1 487.1 487.5 486.7 485.4 483.3 479.9 475.4 471.7 466.3 460 451.4 441.9 434.9 413.2 382.7 374.8 370.2 364.7 355.1 346.8 344.5 342.2 341 340.3 337.3 329.7 317.8 307.9 293.6 275.3 260.4 248.9 238.7 230.7 228.8 222.3 219 217.9 215.6 216.4 217.7 219.1 220.2 223.1 225.7 227.2 228.4 228.9 230.1 229.6 231.3 227.6 227 219.4 214.5 209.7 206.2 203.6 201 199 195.7 191 188.1 186.7 185.5 183.7 172.3 164.7 168.5 166.4 158.7 152.8 154.8 151 148.7 155 162 161.4 159.1 157.6 154.4 153.3 149.8 143.8 143 141.7 139.5 137.7 138.2 135.9 131.5 130.6
530.6 533.2 536.2 539.9 543.7 546.7 546.9 547.7 549.7 549.8 553.3 555.1 556 557.5 556.4 554.4 552.2 550 548.1 543.4 537.1 530 515.2 508.8 512.2 518.3 521.6 521.7 522.5 521.9 520.6 519.3 520.7 518.1 514.7 514.3 512.3 510.1 505.7 499 494.5 488.8 481.8 485.5 489.4 491 489.6 492.4 495.9 500.1 501.1 501.1 499.8 501.1 501.1 501.1 499.6 493.4 490.3 487.1 480.8 476 475.9 476.4 475.3 471.9 469.1 466.4 463.1 460.5 457.3 451.5 446.1 444.3 436.3 435.3 438.3 442.6 446.8 452.2 454.4 450.6 450.3 453.1 454.2 453.6 453.1 452.2 450 451.5 451.5 451.1 451.1 449.5 447.2 445 441.2 438.8 443.3 446.9 451.3 454.4 458.1 463.6 469.9 474.9 478.2 480.3 483 483.7 482.5 480.8 479.5 474.6 470.5 466.7 463.2 458.5 454.3 447.3 444.8 430.8 400.6 380.6 372.8 365.8 359.9 348.6 343.7 341.5 341 341.4 341.5 336 320.1 307.4 286.2 271.3 254.1 242.8 233.7 230 223.3 220.5 218.3 218.4 218.2 220.7 223 225.8 228.3 232 237.8 240.1 245.8 247.8 247 244.8 241.3 238 235.3 229.4 223.1 215.7 210.8 207.2 203.7 201.3 199.1 193.7 191.5 189.3 185.8 180.6 167.2 171 174 172.6 170.6 165.3 161 159.4 161.3 162.1 163.3 164.4 163.5 160.7 159.6 157.8 156.5 149.7 146.2 149.5 145.8 140.1 148.5 147.1 144.6 144.1
528.8 531.1 533.5 537.4 541.3 542.4 543 544.4 546.3 549.6 550.9 551.2 550.6 552.4 552.3 550.5 547.7 545.2 542.7 540 535.2 529.3 518.4 508.7 509 513.1 517.5 518.5 518.6 518.9 520 518.7 516.3 513.4 509.6 511.1 509.4 506.2 502.2 499.9 490.2 481.1 479.5 482.6 486.7 489.4 488.7 488.9 490.1 493.5 498.2 499.3 500.5 501.1 501.1 501.1 499.1 496.6 493.8 492.1 490.7 487.7 479.8 475.8 473.6 470.9 467.9 463.8 460.4 458.2 454.5 451.7 450.7 447 438.8 434 431.1 435.3 439.6 443.3 446.1 445.2 446 449.3 450.9 450 448.4 446.3 446.5 448.3 449 448.7 447.4 446.3 444.6 442.2 438.7 438.1 441.2 443.5 447 449.6 452.1 457.5 464.2 470.5 474.2 476.6 478.8 479.7 478 476.5 475.1 470.4 465.5 461.7 460.2 456.3 452.1 447.3 444.2 436.6 419.1 391.1 377.2 367.8 360.7 347.8 341.1 338 337.9 339.4 340.1 329.4 306 295.8 276.5 263.5 250.8 234.9 229.7 225.8 219 218.6 219.9 219.3 222.8 226.6 232.2 236.5 243.6 251.6 260.5 264.8 267.6 265.1 259.7 253.4 248.8 245.1 242.1 236.8 228.3 221.3 216.2 212.4 207.9 203.7 200.2 196.9 196.5 185.9 177.9 183.2 181.5 179.3 177.5 176.4 172.9 168.5 163.4 167 168 167.9 167.8 167.8 167.3 167.4 164.3 161.7 159.7 148 157.5 158.6 155.5 153.7 151.6 148.5 146.5 144.3
525.7 528.8 531.2 534.7 537.5 538.7 540.6 540.7 541.7 546.7 549.2 547.7 546.8 548.4 547.7 546.2 542.8 540.4 537.9 535.8 532.5 527.9 521.9 512.3 505.1 509.2 512.2 514 513.2 514 514.5 512.3 511.3 509.7 507.3 506.7 505 501.6 497.7 495.2 485.2 472.6 477.5 481 483.7 488 489.7 489.6 488.7 489.7 492.6 496 497.6 498.5 499.4 499.1 498.8 499.3 497.4 494.9 491.1 490.9 488.9 481.3 479.9 474 469.7 464 459.4 457.6 455.5 454 452.1 449.5 442.7 437.2 433.4 430.6 428.2 434 437.6 438.3 439.9 443.1 447.6 445.2 443.5 440.4 441.8 445.4 447 446.6 445 442.9 441.7 438.7 435.1 433.3 436.3 439.6 442.4 445.1 447.4 451.6 458.9 465.2 469.5 473.1 474.8 475.4 474.2 471.9 470.2 467.8 460.4 456.2 453.7 450.1 447.1 444.6 442 436.5 431.3 408.3 382 372.9 363.6 354.2 339.2 334.1 332.6 331.1 326.9 316.4 297.5 282.1 263.6 256.5 244.2 228.6 228.1 220.8 219.5 225.7 231.5 232.7 229.9 239.5 247.3 259.7 273.8 284.7 287.9 287.2 284.4 279.5 272.9 266.9 257.9 253.1 247.2 240.9 232.1 224.9 221.8 218.6 212 206.9 203.2 195.5 186.8 190.6 188.8 187.2 186.7 184.4 182 179.5 178.7 177.4 176 174.8 173.2 171.4 170.5 169.5 169.7 169.3 166.6 161.5 158.9 156.7 161.4 161.7 161.1 158.4 155.9 153.2 149.3 146.5
523.1 526 528.7 531.5 533 534.5 536.4 538 538.8 544.4 544.3 544.6 543.2 545 542.9 541.2 538.1 535.5 533.3 532 529.3 525.1 519.8 512.8 503.4 505.3 507.5 509.7 508.1 508.5 508.2 508 505.6 504.1 503 501.8 500.5 497.2 494.6 490.3 480.1 469 474.1 480.4 484.7 489.1 491.1 491.1 490.8 489.2 491.6 491.5 492.5 492.3 493.6 496.5 497.8 500.5 497.3 495.2 491.6 491.1 487.7 482 478.1 474.3 470.6 467.1 463 462.5 458.6 456.5 454.2 451.4 448.3 442.4 439 435.9 430.7 426.6 428.7 429.2 431.8 435.1 437.8 437.8 434.9 433.8 440.3 442.3 444.9 444.2 442.6 440.6 438.8 434.9 431.2 430.5 432.8 436.4 439 441.1 443.1 446.9 454.5 461.3 465.8 469 470.3 470.7 470.1 467.8 464.8 462 456.2 451.4 447.2 443.9 441.5 440.1 436.1 433.3 429.8 403.5 379.5 375.9 363.2 355.1 346.3 330.9 327.6 324.4 317.9 305.7 286.9 270.4 255.9 250.2 240.1 229.6 227.6 225.9 227.2 231.3 238 244.9 248.6 257.1 270.6 288.3 296.4 301.2 300.8 297.2 295.2 290.5 283 274.7 266.4 256.8 251.9 245 235.7 228.1 224.4 220.1 214.5 209.3 196.6 200.1 201.9 197.3 193.4 193 191 187.7 185 183.8 183.9 180.3 178.8 177.2 176.3 175.5 173.7 170.7 169.8 169.7 166.2 162.8 160.7 159 160.6 162.8 164.9 162.8 160.6 157.8 153.2 148.6
520 523.1 525.6 527.2 529.2 530.3 532 534.3 538.5 539.8 540.4 541.2 541.3 541.1 538.6 537.2 534.1 531.1 529 528.1 525.6 522 517.2 511.4 506.5 493.4 498.2 504.1 505.2 504.9 504.8 503.9 501.6 498.3 499.5 496.8 495.8 491.9 488.2 484.1 474.5 468.3 473.9 481.6 488.9 491.1 491.1 491 491.1 491.5 491.2 491.7 492 491.5 490.3 492.7 494.6 495.2 494.5 492.8 491.3 489.3 486.1 478.7 478.1 473.6 469.5 468 468.4 467.2 463.2 459.2 457 453.4 451 446.1 442.4 438.5 434.2 429.6 424.2 421.8 423.9 426.7 429 430.1 428.8 435.1 441.2 441.2 442.5 441.9 440.4 438.2 435.4 432.3 429.5 429 430.5 433.6 436.5 438 439.2 441.7 449.2 456.6 461.2 464 465.6 466 465.3 463.1 459.9 456.2 452.3 448.3 444.1 439.7 435.3 432.8 429.5 426.8 423.5 402.3 374.3 366.3 359.9 352.1 342.5 319.4 318.6 315.9 306.2 294 274.6 259.8 246.8 240 232 228.9 230.2 232.7 233.5 236.2 244.2 257 265.8 272.5 295.2 305.1 306.1 307.3 306.5 303.7 301.1 295.8 289.2 279.1 270.9 261.5 254.3 246.5 236.7 231.1 226.9 222 212.4 205.7 208.1 206.6 206.2 203.7 202.3 198.7 196.4 192.4 188.2 185.8 188.3 186.6 186.1 184.8 181.4 179.5 177.2 174.2 172.1 169.8 170.1 169.5 167.7 163.9 162.3 164.5 166.1 166.9 164.1 161.4 157.5 153.3
514 519.5 521 523.4 526.1 528.5 528.6 530 535.6 537.3 538 538.8 537.8 537.3 535.7 533.7 532.1 528.8 526 524.2 521.9 518.7 515.2 510.8 505.6 490.6 488.4 496.4 500 503 501.5 499.6 498.1 494.7 491.4 490.7 490 486.3 482.3 478.1 466 461 471.8 479.9 488 490.5 490.4 489.8 488.9 489.6 488.5 488.4 489.1 489.4 491 490.2 490.1 491.1 489.8 488.5 488.6 487.9 486.4 482.3 478.2 476 471.3 469.5 471.1 470.9 467.8 462.8 460.8 457 450.1 448.5 444.9 441 438 434 430.6 427.5 419.4 418.3 420.5 420.1 428.8 436.4 441.2 441.2 441.2 439.2 438.6 435 431.7 429.5 428 426.9 428.3 431.2 434 434.7 435.6 438 444 451.3 455.7 458.7 459.9 460.6 460 457.8 455.2 451.9 449.1 445.2 440.9 436.6 431.5 426.9 423.9 418.6 413.9 397.2 370.8 363.6 355.3 343.8 332.4 309.2 306.2 304.4 294.3 281.7 265.6 250 237.2 230.2 229.2 232.3 236.7 239.2 240.4 243.8 255 268.5 285.1 301 309.9 309.2 310.2 311.1 308.2 304.9 300.1 295.1 287.9 277.3 271.4 263.5 257.1 255.5 261.5 234 230.1 219.1 215.4 217.5 215 214.2 212.4 209.3 208.1 205.6 202.2 197.5 192.3 197 196.8 195.8 194.9 194.1 190.4 186.5 183.4 179.8 177 174.6 175.6 174.5 173.3 177.1 169.2 168.1 168.6 168.7 166.8 164.1 160 155.4
509.5 514.3 518 520.9 523.2 525.6 527.8 528.6 531.7 534.2 535 535.1 534.3 534.2 532.9 531.9 529.9 526.7 523.8 522.6 519.4 516.1 513.1 509 502.8 490.8 482 485.7 490 492.7 493.8 495.4 494.4 490.1 487.5 486.4 484.6 480.5 476.3 469.9 456.2 462.4 471.1 479 485.8 489 491 488.6 486.9 484.9 484.3 484.8 485.5 486.6 487.4 487.9 487.8 487.7 486.7 486.9 487.4 487.6 485.9 483.4 481 480 476 472.5 471 471.1 470.1 466.1 461.4 460.1 458.5 451.4 447.4 442.8 440.9 437.7 434.1 431.5 428.3 420.7 415.1 416.9 423.4 430.8 437.5 441.2 439.3 437.2 435.4 432.1 428.4 426.4 424.5 423.5 426.8 428.5 431.2 432.4 433.3 435 438.7 446.2 450.2 453.3 453.7 454.6 454 452.4 450.6 447.8 443.1 440 436.6 433.1 428.6 422.1 418.1 411.6 405.1 390.9 368.1 358.3 346.9 332.4 314.3 295.4 288.8 291.6 282.3 271.5 258.7 240.5 235.1 235.1 236.2 240.6 247.5 247.4 247.9 255.7 268.8 285.6 305.7 313.4 314.8 314.4 313.6 311 307.9 303.4 298 292.3 285.2 278.5 269.8 265.7 271.7 270.9 263.2 243.5 229.9 224.3 224.5 221.9 219.5 217.3 216.2 215.1 212.9 211.2 208.2 201 204.8 208 206.6 205.3 203.8 202.2 198.1 195.7 191 186.9 182.3 179.8 179.4 183.8 179.9 189.3 193.3 189.7 171.4 169.8 168.9 167.1 163.2 158.5
509.9 516.8 519 519.3 522.1 525.1 526.5 527.8 529.5 531.3 531.8 531.8 531.6 531.7 530.7 528.7 526.8 524.4 521.6 519.1 515.8 513.1 509.2 505.8 499.4 487.8 475.2 479.5 483.8 485.9 484.2 484.1 485.8 483.2 479.2 479.4 479 475.1 470.3 460.2 450 462.6 471.3 477.5 483 485.9 489 489.1 485.1 481.1 481.1 481.3 481.9 482.7 484 485 485.2 484.7 484.9 485.9 486.3 487.5 485.6 484.3 482.1 479.4 477.7 475.5 472.8 470.1 467.9 464.8 460.3 460.6 458.2 453.6 448.2 444 439.4 439.1 437.2 434.6 431.4 426.4 418.7 412.8 417.1 426.1 433.6 436.9 434.7 433.4 431.1 428.3 423.8 421.4 420.7 421.4 425.2 427.4 428.5 430.1 431.1 432.9 435.9 440.9 445.3 448.1 448.6 448.6 447.5 446.2 446.8 442.6 437.6 434.6 431.4 427.3 423.2 417.8 412 406.1 400.2 385.2 357.3 341.9 329 318.5 296.5 282.2 273.9 271 262.7 255.6 246.4 237.5 239.4 241.9 245.4 249.8 256.7 260.4 265.1 275.2 291.4 312.6 328.9 326.9 322.2 318.3 314.9 311.9 307.2 302.9 297.4 291.2 282.5 275.3 267.8 272 272.8 263.5 254.9 246.4 237.1 234.1 229.5 227.4 225 221.3 219.8 218.7 217.1 214.3 209.1 208.1 209.5 213.7 213.4 211.4 209.7 208.4 207.1 204.2 198.9 194.3 189.8 184.9 182.7 185 184.2 192 193.6 182.2 175.3 175.1 174.7 172.1 169.1 165.4
508.4 514.2 513.4 520.4 522.2 524.5 526.5 528.5 529.8 531 530.9 530.2 530 528.8 527.9 525.6 523.6 521.7 519.6 514.7 509.5 507.1 504.3 501 494.1 481.5 471.4 471.8 475.5 478 475.1 475.5 477.3 476.8 476.3 475.1 473.6 469.6 463.5 445.8 449.1 461.4 467.8 474.7 478.4 482.1 484.3 484.2 481.7 479.3 478.3 478.5 479.1 479.9 482.3 482.4 482.2 483.1 484.3 486.5 488 488.7 486.1 485.7 483.6 481 478.7 476.2 473.4 470.7 467.6 463.2 459.3 458.9 457.5 453.5 448.9 444.3 441.1 441.2 440 437.2 433.9 430.3 424.9 417 409.6 415.4 427.3 427.3 427.1 425.9 424.4 422.6 418.5 417 418.6 420.4 424.2 426.8 427.8 427.8 428.9 430.8 431.8 436.2 441.1 443.6 444 443.8 442.5 440.6 440.6 437.8 432.3 430.4 425.4 420.6 415.8 411.6 407.3 402.1 394.2 376.5 353 329.4 316.2 303.4 289.3 275.2 263.7 253.8 249.8 240.6 237.4 237.1 241.4 249.1 256.8 265.3 273.1 278.7 286.7 299.2 319.7 333.7 335.9 334 328.9 320.6 316 312.7 309.2 303.8 297.7 290.9 281.2 275.2 272.7 274.4 263.2 255.3 251.7 246.7 245.6 240.7 235.5 232.9 230.8 227.2 225 223.6 220.6 217.5 215.7 214.6 214.8 215.2 216.6 216.5 215.1 214.4 213.2 211.1 207.2 202 197.8 192.4 189.7 190.5 187.1 192.2 183.1 182.8 179.9 179.8 181.8 179 175.9 172.4
503.2 506.7 516.3 520.9 523.2 526 527.7 528.4 531 531 530.7 530.4 529.7 528.8 527.3 524.7 522.3 519.9 517.1 512.3 506.5 498.5 493.7 487.2 478.9 471.1 468.3 463.6 467.9 469 466.9 469 470.9 471.7 471.3 470 468.4 466.2 457.3 438.8 447.5 458.3 465.3 471.9 476 478.5 479.2 479.4 480.5 476.8 475.4 475.1 475.7 478.4 481.1 479 480.6 482.7 484.2 487.6 490.1 489.5 487.4 485.7 484.2 482.3 479.2 476.8 474 471.3 468.9 464.4 460.5 459.4 455.9 452 450.4 445.7 441.6 441.1 441.3 440.4 436.7 432.8 430.6 422.4 415.4 408 408.9 420.5 423.1 420.3 417.7 414.1 414.7 423.4 423.1 424.7 425.7 427.1 427 425.7 427.2 429 429.4 431.9 437.1 440.1 440 439.9 438 436.7 435.4 432.9 428 424 419.8 414.6 409.5 406 402.1 398.1 392.1 373.2 344 328.5 306.7 295.2 284.5 264.6 255.6 249.2 247.9 241 238.2 243.7 249 263.9 273.5 282.9 292.6 301.6 311.5 323.5 338.4 341.2 341.7 338.2 329.5 325.2 320 315.1 311.5 307.3 297.4 290.8 285.7 279.6 276.1 271.6 265.9 262.1 258.5 255.5 251.1 246.5 241.8 238.5 236.5 233.2 230.3 227.5 223.6 220.6 220.3 219.2 218.4 217.7 219.8 220.8 220.6 219.5 217.9 216.2 214.1 210.1 205.8 199.2 195.9 192.8 189.7 192 189.8 189.8 188.1 188.4 187.6 184.8 180.5 176.6
503.3 512.2 518.7 522.7 525.7 527.7 528.5 529.3 530.7 530.9 530.6 530.4 529.8 528.2 526.7 523.6 521.2 520.3 517.2 513.3 508.1 498.8 488.7 481.9 479.1 478.5 476.7 467.8 456.8 460.1 461.7 460.3 463.9 465.8 466.9 465.8 464.7 460.6 449.5 430.8 444.4 454.9 461.8 467.3 472.5 474.5 474.3 475.4 476 473.3 472.2 471.8 472.8 475.5 477.8 478.9 479 482 485.7 488.2 489.8 488.8 488.6 488.8 487.5 482.8 479 476.8 474.6 471.1 468.6 464.9 460.8 458.8 453.2 448.9 447.8 445.6 441.8 440.6 438.4 438.6 436.8 435.1 432 428.1 422.3 416.7 406.7 410.5 416.8 415.6 413.6 408.6 419.1 426.5 428.7 428.8 427.3 426.3 423.4 424.6 425.8 427.3 428.6 429 432.1 434.9 435.8 435.7 434.1 431.9 430.7 429.6 424.5 419.4 414.8 410 406.1 401.9 397.9 394.2 387.9 371.7 358 326.3 307.9 286.3 271.9 262.1 252.1 248.2 248.2 246.4 244.2 255.8 273.1 284.5 295.6 308.6 318.6 325 332.9 343.6 347.5 350 347.7 341.9 337.2 336.4 329.7 322.6 318 312.7 302.3 295.1 292 283 277.2 274.8 272.4 269.1 266.5 261.9 256.9 252.5 247.1 244.9 242.3 238.9 235 230.8 226.6 223.4 223.6 223.5 223.1 221.7 223.1 224.7 224.8 224.6 223.3 221.6 219.9 216.4 211.9 208.5 205.2 203.5 202.3 198.4 198.1 197.6 196.5 195.6 193.2 190.5 187.2 184
509 519.5 521.3 523.5 526.6 528.3 529 529.7 528.9 530.9 530.3 529.7 528.4 526.7 525.1 524.1 521.4 519.1 517 514.2 511.5 504.8 499.9 495 493.1 487.4 485.4 478 461.2 450.4 448.4 452 454.9 458.8 462.7 462.2 458 448.9 429.8 429.6 444.6 449.7 455.5 460.7 467 469.8 469.4 470.2 469.5 469.1 468.4 469.3 469.9 472.7 476.2 479.8 481.4 483.7 487.2 489.4 490.8 491.1 490.5 491.3 488.7 483.8 480.3 478.2 475.3 471.3 468.1 464 460.1 456.2 451.5 448.1 446.2 444.1 441.1 439.2 437.1 435 433.7 433.4 431.4 428.6 423.7 420.6 407.1 406.7 409.3 410.5 408.5 406.7 414.7 424.8 429 431.7 429.2 427.4 425.5 423.3 424.7 426 427.2 426.6 428.3 429.9 430.7 430.8 429.3 426.9 425.3 424 421.8 417.2 410.6 407.1 403.1 399 396.2 392.5 389.7 386.4 373.8 346.6 320 297.8 280.1 267.3 256.9 248.4 254.8 264.5 265.9 277.2 293.7 305.7 317.1 325.7 332.9 340.9 348.7 352.5 356.9 358.9 360 356.3 349.2 342.5 338.1 332.2 324.7 315.9 312.1 301.5 301.6 290.9 286.9 283.4 279.6 276.6 273.3 268.3 264.6 259 256.4 251 247.8 242.8 239.2 233.1 228.9 226.2 226.7 227.2 226.8 226.3 227.3 228.7 229.2 229.6 229.5 227.8 225.7 222.7 221.6 219.4 215.5 215.2 215.2 214.2 213.7 211.9 212.2 212.6 208.6 206.5 202.6 195.4
512.4 520.2 522.3 524.5 526.8 528.3 529 529.7 528.6 528.9 530.8 529.3 526.9 525.3 523.6 522.2 521.3 518.2 516.2 514.1 511.4 509.6 505.9 502.9 498.1 492.1 486.9 483.3 475.7 464.4 446 439.2 436.6 444.8 456.6 458.4 458 437.1 411.7 435.5 447 448.4 449.4 455.9 461.4 464.7 463 463.1 463.3 463 463.6 466.5 469.4 470.8 474.3 478.4 481.3 483.5 486.9 491.3 491.8 491.7 491.9 491.6 490.7 487 481.8 479.6 476 472.6 469.2 464.6 459.3 454.7 449.9 447.3 445.1 442.6 440 438.4 435.2 432.1 430.2 430.9 430 427.2 422.2 418.9 407.4 406.7 406.7 406.7 406.7 406.7 410.6 418.9 427.4 429.3 428 429.4 427.6 422 423.2 424.6 425.2 423.8 424.7 426.2 425.6 424.8 423.8 421.3 419.5 417.9 418.1 414.5 410.6 406.9 402.1 399.5 397.1 394.6 392.9 392.3 394 379.8 342.9 311.8 288 274.2 264.2 259.2 268.3 275.9 290.7 296.1 311.1 322.9 331.7 338.1 344.1 351.2 356.5 364.5 370.9 377.2 376.9 369.9 357.7 349.5 344.4 339.5 334.7 328.5 319.6 317.2 308.6 298.7 294.9 291.6 286.8 284.2 281.4 276.2 272.2 267 263.8 257.3 252.1 246.7 241.3 237.7 233.8 230.1 231 231.3 231.5 231.4 231.2 232.8 234.3 234.8 234.6 233.8 231.9 232.1 229.5 227.6 226.8 226.3 225.7 226.8 227.3 227.7 227.1 227.9 227.4 225.5 220.5 211.4
513 518.7 521.9 524.2 526.4 528.4 529 529.6 528.6 528.6 529.5 527.4 525.7 524.7 522.6 520.4 519.8 517.9 515.3 513.2 511.2 509.3 505.4 502 499.5 493.3 488.3 484.1 479.3 472.4 462 452.2 441.5 428.8 447.7 454.8 451.8 434.6 406.3 426 443.6 448.8 446 454.5 456.9 458.9 457.7 456.4 457 456.3 457.6 463.8 467 469 471.1 475.3 479.1 481 485.1 489.4 491.7 491.6 492.8 492.2 491.7 489.2 485.3 480.5 477.2 473.8 470.5 465.2 459.5 454 449.4 447.6 444.7 441.9 440.9 437.8 434.3 431.1 429.1 427.2 426.2 423.3 419.9 413.6 408.1 406.7 406.7 406.7 406.7 406.7 406.7 409.5 419.3 427.2 430.4 431.2 429.6 426.6 421.8 422.5 422.7 421.4 420.8 421.4 420.6 420.1 418 415.8 413.7 413.5 412.3 410.7 408 404.5 400.5 400 398.4 396.2 393.4 392.7 393.9 394 388.1 333.6 307 283.2 276.7 274.2 283.2 292.5 300.8 317.1 332 341.4 346.4 352.4 353.4 359.4 367.7 376.5 382.4 384.5 381.7 375.4 364.1 353.3 348.4 343.5 339.2 332.9 329.2 323.2 316.7 310.4 305.9 304.2 299.2 295.5 291.7 289 284.9 277.5 270.4 263.1 257.7 253.4 248.7 244.2 242.3 239.6 237.7 236.3 236.8 237.5 235.4 237.8 239.9 240.9 238.8 239.9 241.5 241.1 239.8 238.8 238.1 238.5 237.8 238.4 240.4 240.4 243 242.6 242.3 239.5 236.4 227.8
512.3 517.4 521.1 522.8 525 528.3 529.1 529.7 529.9 528.6 527.9 526.9 525.5 522.9 521.6 520 517.6 515.9 514.4 512.3 510.1 507.3 502.8 500.4 496.2 492.9 487.9 483.4 479.5 474.4 467.3 458.3 448.3 425 433.8 445.7 446.4 427.6 398.1 409.6 429.4 425.8 432.9 448.2 453.4 451.4 452 451 446.4 444.4 453.2 459.5 462.7 465.2 467.2 470.6 476 479.4 483 487.8 489.8 491.7 493.5 493.7 492.1 491.2 486.7 482.2 479 476.2 472.7 467.9 461.5 455.9 452.5 448.7 445.7 442.7 439.5 437.8 434.3 430.8 427.8 421.2 419.2 418.7 414.3 408.2 406.7 406.7 406.7 406.7 406.7 406.7 406.7 406.7 406.7 411.8 418.9 427.5 427 428.4 423.9 421.2 421.2 419.3 416.8 417.2 416.8 414.4 412 409.9 408.2 408.1 406.5 405 401.9 399.9 400.4 400.5 398.5 395.9 392.9 391.1 391.4 391.2 390.5 362 331.9 312.9 307.2 303.4 311 317 321.8 341.2 361 370.1 373.7 377.9 376.2 377.5 382.2 384.1 384 384.4 381.1 375.3 366.8 360.5 353.3 347.6 343 342.7 341.5 335.5 328.2 320.2 317.1 315.9 315.3 310.3 306.6 303.5 296.3 287.9 280.4 272.6 265.8 262.1 258.5 253.2 250.6 248.1 244.6 244 243.9 244.7 240.2 243.6 246 248.1 247.8 247.6 251.1 251.3 252.1 251.7 251 250.5 250.3 247.5 250 252.6 256.4 255.9 257.4 253.9 248.4 240.3
512.4 516.8 518.8 520.1 523.9 528 528.4 531 531.1 530.7 528.3 526.9 525.2 522.8 520.2 518.2 514.9 513.4 511.7 509.9 505.8 502.8 498.3 495.5 491.8 488.6 487 481.9 478.1 475.1 470.1 461.7 452.2 428.6 414.7 431 434.5 424.2 392.8 393.6 403.3 407.2 414.1 423.2 432.2 443.5 441.9 440.1 430.6 426.9 438.3 452 461.4 467.2 469.4 471.1 474 477.2 480.4 484.1 487.7 491.2 494 494.3 491.8 492.1 490.7 486.6 483.5 479.7 475.2 469.6 463.5 458 453.6 450.2 446.6 443.7 441.3 438.7 434.9 431 423.6 418.8 418.2 414.5 409.7 411 415.4 415.7 419.6 414.8 409.4 406.7 406.7 406.7 406.7 406.7 406.7 411.6 417.9 424.7 423.2 421.1 421.2 415.5 411.8 412.9 410.8 408.4 405.9 403.9 403.6 402.2 400.4 400.2 398.3 397.9 398.4 398.1 396.4 394.2 392.4 390.8 390.4 390.8 391.7 393.7 375.5 360 357.8 343.6 346.2 348.5 353.7 373 387.5 396.4 402 404.4 409.8 410.2 406.6 393.9 385.5 382.3 380.2 375.1 369.9 363.5 359 352.1 349 348.4 349.3 344.8 340.1 334.8 334.7 335.3 338.1 336.6 329.7 320.1 315 306.7 295.1 285.2 275.9 272.5 270.2 266.7 262.3 260.2 257.9 256 257.3 260 254.2 253.3 254.8 255.5 257.2 260.5 261.1 264 265.2 266 265.4 264.9 265.7 264.3 267.3 269.4 272 272.1 271.7 266.8 260.8 252
514 517.3 520.8 522.3 524.4 528.2 529.4 530.4 531.4 532.3 530 527.4 524 520.6 519.1 515.6 512.5 510.1 508.2 504.1 500.3 495.8 491.6 490 489.2 486.2 483.4 480.2 477.6 475.1 470.4 463.9 456.2 442.4 404.7 398.1 404.5 397.1 383.7 380.7 388.2 391.9 395.7 402 411.5 414.9 420.6 421 408.7 402.4 419.3 435.3 454.3 462.1 468.1 471 473 475.3 478.1 481.7 485.3 489.3 492.5 495.1 494.9 494.3 492.8 491.1 487.8 482.9 477.2 471.4 465.4 459.4 455 450.7 447.8 444.9 443 439.8 435.5 431 425 424.1 422.5 420.1 418.9 423 426.4 430.1 434.6 434.5 430.7 418.9 406.7 406.7 406.7 406.7 406.7 407.3 410.4 416.9 418.8 419.4 415.6 409 404.7 409 404.1 402.8 399.9 398.3 399.1 398 393.8 392.1 394 395.2 395.5 395.6 394.5 392.3 391.5 390.2 389.9 389.8 391.3 391.9 393.3 393.6 391.4 380.5 375.7 376.8 385.1 393.2 399.7 407.2 411.3 415.1 419 420 420.8 413.4 394 382.6 379.5 372.6 369.4 365 360.9 357.7 356.4 354.5 355.3 352.3 354.1 359.5 364.5 359.7 361.5 360.4 351.5 334.5 328.6 324.5 310.9 295.9 286.8 280.8 281.8 283.2 283.5 284.4 281.2 277.6 274.1 272 277.3 273 273.4 269.9 273.1 278.2 279.9 281.9 285.4 287.5 286.5 285.4 283.8 284.1 286 286.2 291 288.4 283.1 275.6 266.5 258.4
514.6 518 521.4 524.3 525.6 528.7 531.1 531.1 532.1 533.1 531.7 527.1 523.1 520.2 516.5 513.8 510.7 506.9 504.4 500.3 496.5 491.1 489.3 487.5 483.8 480.4 481.6 478 476.1 473.8 467.9 462 455.5 448.5 426.8 394.6 387.1 382 377.4 373.9 379.1 381.7 383.9 390.9 393.4 393.4 394.2 396.8 389.5 385.4 398.1 408.6 436.1 454.4 463 468.1 469.7 472.1 475.9 480.4 483 487.2 491.7 493.7 495.5 496.1 494.4 491.4 488.9 482.9 479 473.4 467.1 460.9 456.4 452 448.3 445 441.1 440.4 436.2 434.5 434.4 433 431.5 430.9 428.4 433.4 435.8 440.1 444.9 445.8 440.5 429.2 410.6 406.7 406.7 406.7 406.7 406.7 408.2 410.1 409.3 408.7 405.5 401.8 398.7 394.7 395.4 398.5 393.1 392 392.2 390.8 388.7 389.4 390.9 392 392.7 393.5 392.5 390.5 390.6 389.3 389 388.9 389.4 391.2 391.1 394.5 394.8 393.7 391.8 392.3 394.1 397.7 403.7 412.2 415.6 420.2 424.5 426.8 424.9 421.6 412.8 394.1 381 372.9 368.6 365.7 363.7 362.3 363 361.9 363.9 369.7 380.6 385.4 388.4 387 373.6 365 363.7 347.5 338.8 340.6 327.8 313.5 299.7 293.7 296.1 305.8 313.5 315.8 314.5 309.9 300.6 296.8 297.5 297.9 295.4 293.2 296 298 302 306.7 311 311.7 310.7 307.2 306.6 305.5 305.9 305.4 303.6 298.9 291.2 279.8 270.2 257.9
515.4 518.8 522.2 524.3 526.3 529.7 532.3 533.4 533.2 532.1 530.1 527.1 522.6 517.5 514.4 511.6 508.6 503.4 500.5 497.7 495.2 491.6 490.7 485.1 480.5 477.9 476.8 474.7 472.7 469.6 463.5 455.2 447.1 436.5 417.4 395.9 394.8 396.2 390.8 380.6 367.8 368.3 372.5 368 372.7 374.2 373.4 376.2 373.6 372.1 387.1 398.8 405.1 435.8 455.8 465.1 466.3 470 474.1 478.3 480.8 485.4 490.5 491.8 493.4 494.9 496.1 493.4 488.6 484.4 480.7 475.1 468.9 462.6 457.8 453.5 449.5 446.3 443.1 440.1 437.9 436.4 435.6 435.3 434.5 432.3 432.7 435.3 437.9 444.6 451.2 452.9 450 439.7 419.4 406.7 406.7 406.7 406.7 406.7 404.7 403.9 404.1 399.5 394.2 394.6 392 388.2 388.5 390.2 389 387.5 385.8 382.8 383.8 388.4 391.1 391.1 391.5 391.3 390.5 388.1 386.9 386.1 384.7 386.6 388.9 388.4 391.2 392.9 397.8 398.8 397.9 397.1 399 402.1 408.1 414.7 419.2 423.2 427.4 429.2 429.8 425.6 418.7 409.2 392.7 381.9 372.6 372.7 369.7 369.2 371.3 371.9 381.2 395.8 399.3 400.4 401.5 400.4 394.2 380.5 371.9 369.8 359.6 348 335.1 323.8 319 316 323.8 338.2 346.3 349.3 349.5 344.6 336.2 329.3 331.4 327.4 324.4 324.4 323.8 328.7 335.4 339.6 341.4 333.7 333.4 330.4 327.2 326.7 327.4 326.1 317.7 305.7 296.6 282.3 266.7 245.2
517.8 519.8 522.5 525.9 528.9 532.3 534.8 535.6 534.4 532.8 530.3 528 522.8 517.1 513 509.6 505.2 500.1 496 493.7 492.9 489.8 487.4 483.5 479.4 475.5 473.2 471.3 466.8 463.2 453.6 440.5 428 420.9 414.2 415.1 433.6 421.7 400.4 389.7 378.7 360 357.2 350.5 354.4 361.8 360 356.4 355.2 347.2 365.4 383.5 391.8 408.1 433.2 458.3 462.5 468.3 473.1 476.6 479.4 484 488.4 490.1 491.4 493.6 496.8 496.6 491.2 486.8 483.1 477 470.3 465.1 459.5 455.3 451.4 448.6 445.5 443.4 442.6 441.7 439.9 438.5 436.4 434.6 435.1 437 439.6 445.8 452.3 457.1 456.5 448 427.8 408 406.7 406.7 406.7 406.7 400.7 394.5 393.2 388.1 386.4 382.4 380.8 380 382.1 386 386.8 383.5 380.9 378.7 379.1 383.8 388.1 389.6 391.1 391.1 387.7 387.1 385.5 383.1 381 380.6 381.5 384.6 389 393.2 399.5 399.7 400.2 399.8 399.1 403.8 409.5 416.2 422.2 426.3 429.6 431.9 432 430.2 425.2 420.9 407.2 396.3 386.6 381.5 383.1 387.7 391.1 402.1 409.8 411.9 411.2 411 409.1 408.9 406.3 401.6 395.8 392.2 389.9 373.8 356 346.7 345.6 351.3 360.4 367.7 374.1 377 380.8 381.1 373.6 367.4 363.5 358.5 359.5 363.9 357.9 363 356.6 355.8 354.7 348.2 345.5 344.3 342.6 339.2 338.5 333.6 327 307.5 291.6 275.7 256.5 240.9
520.3 522.2 525.5 531.4 532.1 535.5 537.5 537.4 536 533.7 530.8 528.6 523.1 517.3 512.1 507.2 502.3 497.8 492.1 490.3 488.7 486.9 484.1 481.7 477.1 473.3 470.4 464.6 460.6 453 443.2 439.5 442.5 446.4 447.4 448.3 449.7 451.1 432.3 413.6 396.3 379.4 368.5 353.1 339.8 331.8 327.6 329.4 322.4 321.7 338 355.6 378.6 391.3 407.8 434.3 456.5 466.4 470.8 474.7 478.2 482.2 486.4 489.2 491.1 495.4 498.8 500.7 500.4 494.3 488.9 483.4 477.5 470.8 463.4 457.7 456 454.7 451 449.5 449.5 447 445 443.2 439.7 438 437.4 438.1 440.1 445.8 453.7 459.2 459.3 452.6 438.5 421.1 410.7 406.7 406.7 406.7 392.7 385.2 382.8 379.6 378.4 378.3 378.5 377.4 376.7 377.9 378.8 378.2 375.2 375.8 376.2 379.8 383.6 387.3 388.7 389.2 387.2 385.5 382.6 380.5 379.4 381.2 380 380.5 384.9 390.4 397.4 398.7 399.2 400.7 401.6 405.6 412 418.1 421.8 426.8 431.9 434.4 435.7 434.3 430.1 424.9 418.6 412 404.9 398.2 403 409.8 411.9 416.4 420.4 421.7 420.8 418.3 415.9 415.1 412.4 408.1 404.9 400.9 397.7 392.1 383.6 380.3 377 374 376.7 381.1 383.6 384.7 387.9 388.6 386.2 387 381.7 380.6 377.3 375.2 371.6 372.2 367.4 363 361.2 359.5 354.9 351.7 348.1 345.1 341.8 339.2 323.6 308 288 267.6 253.9 241.2
521.7 523.9 529.4 533.1 535.4 537.8 538.9 538.3 536.2 533.3 530.3 527.6 523.2 517 511.2 506 500.9 495.8 489.5 485.3 481.7 481.4 481 477 472.7 470.2 465.4 454.8 448.6 444.7 449.4 454 457.1 459.3 459.2 459.8 460 458.6 456.8 444.7 418.3 396.9 382 368.7 356.5 321 293.8 290.7 293 298.1 320.5 334.7 360.2 379.1 390.5 419.1 439 463.1 467.9 472.7 477.4 482.2 487.1 491 492.4 496.2 499 501.7 501.9 501.2 496.2 491.1 485.3 477.2 470 469.3 467.5 463.8 457.9 458.1 457.5 452.9 450.5 447.7 444.3 441.6 440.5 440.1 443 448.1 455.5 460.4 459.6 453 444.1 430.6 421.4 410.2 406.7 406.4 402.9 399.1 395.5 393.2 391.4 389.4 383.5 377.9 376.7 374.3 372 369.6 370.3 369.5 372 375.3 382.4 385 386.3 386.6 385.1 383.5 381.2 381 381.3 381.4 380.3 379.4 384 389.9 395.9 399.9 401.7 403.6 406.5 409.3 413.9 418.9 421.9 427.4 433.3 434.9 438.1 437 434.5 432.3 429.5 423.7 422.9 419.7 419.4 420.7 422.8 425.2 427.1 427.8 426.2 423 420.2 418.6 415.3 412.1 408.4 404 399.4 396.5 391.2 387.7 385.3 385.2 386 386.2 388.2 390.7 392.6 393.4 391.8 388.6 386.8 389.3 383.8 380.8 379.6 375.6 371.5 367.3 365 361.8 358.4 354 350.4 346.5 342.8 332.8 313.8 302.1 279.7 266.3 252.5 236.9
525.1 526.8 532.2 534.3 536.5 538.4 539 538 534.8 531.6 530.1 524.9 520.5 515.9 510.8 505.9 500.9 495.2 489.4 482 478.7 478.9 474.9 470.8 465.9 461.6 458.2 457.6 460.9 461.2 462.7 464.3 466.3 466.6 465.3 466.3 467 469.2 467 462.4 446.1 418.8 393.1 378.6 366.1 352.2 310.4 295.2 280.7 282.5 302.2 318.8 338.5 358.2 382.1 400.7 421.9 449.2 464.5 471.3 476.6 482.1 487.9 491.8 494.9 498.3 501.1 502 502.7 503 500.2 495.6 490.7 484.3 481.5 479.6 477.3 474.1 470.4 469.6 467.9 462.8 456.3 453.1 449.4 446.2 444.4 444.9 447.1 449.7 454.4 458.1 459 450.8 442.7 432.6 423.2 414.6 417.4 419.3 416.5 413.7 406.8 402.5 398 393.7 390.3 383.8 381.7 381.5 380.3 379.9 376.2 371.3 365.8 367.2 369.8 379.7 382.8 383.7 382.6 382.2 381.1 380.3 380.4 380.8 381.8 382.5 384.7 390 396.5 401.8 404.4 406.9 409.9 412.3 415.9 419.9 422.2 427.3 432.6 433.5 437.9 439.9 438.8 436.4 433.6 431.8 430.9 428.7 426.1 426.9 427.1 428.5 431.4 431.7 429.4 426.7 424.1 420.6 417.3 414 410 406.3 401.8 398.3 395.1 392.4 390.1 389.6 391.2 391.8 392.1 394.4 394.9 394.9 393.5 392.5 389.5 388.1 386.5 383.3 381.5 377.7 374.3 370.5 367 363.6 360.5 356.6 352.3 347.8 343.2 334.5 316.1 296.2 281.6 266.2 251.9 238.9
530.5 532.4 532.4 533.5 535.5 537 536.2 534.8 532.1 529.4 525.9 522 517.9 515 511.9 507.6 502.6 497.1 491.1 484.3 480.7 476.8 470.7 468.7 462.4 463.6 466 466.9 470.1 472.5 471.8 472.1 471.6 472.1 471.5 472.6 474.1 475.4 475 471.3 463 435.3 401.9 382.6 371.5 360.9 340.6 311.2 294.6 294.7 299 309.9 325.6 339.1 364.4 379.5 403 425.5 461.2 469.4 475.4 480.5 485.2 489 493.7 497.9 501.4 502.3 502.4 503.1 501.1 498.6 494.7 491.3 488.9 487 485 482.4 479.7 480.1 478.8 473.9 465 457.9 454 450.4 449.2 448.2 449.5 450.9 451.4 454.3 455 446.9 438.7 430 427 426 427.9 429.7 427.4 423.4 413.9 409.9 403 397.5 393.2 388.6 386.2 386.4 384.4 383.4 381.9 380.8 370.7 370.5 363.6 372.9 379.7 380.7 380.3 380.3 379.6 379.5 380.5 379.8 382.2 384.8 388 393.1 400 404.1 407.4 410.2 412.4 415 417.1 420.6 423.2 427.8 432.6 435.5 437.3 439.9 439.9 438.3 436.7 434.8 434.7 432.3 429 428.8 430 430.8 432 431.6 430.9 428.5 426 422.6 419.3 415.4 411.2 407.2 402.9 399.2 396.7 395.6 394.4 391.2 392.1 391.9 392.6 394.8 394.9 394.9 392.5 392.5 392.1 390 388.2 385.9 382.5 379 375.2 371.1 368.4 365.2 362.1 358.8 355.2 350 343.2 332.4 316.8 298.2 284.6 269.3 253.9 240.9
532.5 534.7 533.8 532.8 533.5 534.6 533.2 531.4 529.4 526.1 523.1 520.9 517.8 515.6 512.7 509.2 504.8 500 494.6 491.7 486.3 481.3 474.8 473.1 473.5 474.4 474.3 475.3 476.4 478.4 478.1 478.2 478.6 480.1 479.7 479.8 479.5 478.9 478.2 476.3 470 442.8 408.4 383.3 371.5 361.8 350.6 318 314.3 313 308.5 309.1 316.3 329.1 341.2 370.8 388.4 410.9 449.6 466.5 473.6 479.1 484 490.2 495.3 499.8 501.4 503.5 504.4 504.7 503.6 500 498.6 497.1 494.4 492.5 490.8 489.3 487.4 487 486.6 482.7 474.1 464.5 458 456.6 454.2 452.7 451.9 453.3 454.1 455.4 450.2 443.4 439.1 433.9 435.7 437.2 440.3 442 437.5 430.8 421.2 413.2 407.1 402.4 397.1 392.4 390.4 389.8 388.4 386.4 384.3 381.2 377.5 373.1 365.8 368 378.2 381 381.1 380.3 380.8 379.8 380.9 380.1 381.9 385.6 389.5 395.5 401.6 406.6 409.7 411.7 414.1 416.7 418.6 423.1 426 430.3 434.1 435.4 436.6 437.1 438.5 438.1 436.9 434.7 434.5 433.4 431.8 430.7 431.9 431.3 432.1 431.5 430.4 429.1 426.9 424 421.3 417.5 412.9 408.5 404.1 399.4 398.5 395.9 393.4 390.9 391.4 390.2 391.2 393.5 394.1 393.7 392.6 393.1 393 390.6 387.3 384 381.8 379.1 373.9 369.5 368.4 365.8 363.4 360.3 356.6 352.2 343.9 331.6 320.9 301 284.4 270.6 256.3 241.1
532.7 533.2 532.6 531.9 531.4 530.5 528.7 527.4 526 523.1 519.8 518.7 517.4 516.3 515 511.3 508.3 503.2 498.3 495.2 491 486.4 482.1 482.1 481.3 481.3 481.4 482.1 481.8 482 483.7 483.9 484 483.9 485 484.1 483.8 483.9 484.9 481.3 474.6 445.2 401.3 379.3 369 361.9 343.3 313.2 311.7 311.7 302.2 297.2 304.9 320.1 335.8 360.7 380.7 401.1 430.9 461 471.2 478.2 485.9 491.7 496.7 501.1 501.2 504.2 505.3 506.5 505.8 503.3 502.6 501.7 500.1 498 496.4 495.1 493.5 492.7 492.6 489.8 482.9 473.9 466.7 463.3 459.3 456.4 454.8 455.8 455.5 455.3 447.7 442.1 442.2 445.5 447.5 447.5 449 448.2 445.8 441.2 432.3 418.9 413 411.6 406.6 400.2 395.7 392.9 389.6 389.5 386.7 381.8 380.8 377.8 370.3 357.3 370.4 379.6 379.4 381 381.2 380.8 380.9 382.6 384.3 387.3 390.3 395.3 404.4 409.4 412.2 414.1 416.2 418.6 421.4 423.8 427.3 430.3 432 433.5 434.1 434.1 434.3 434.2 433.8 433.6 433 432 431.1 433.1 432.2 431.3 431 430.7 429.8 428.5 426.7 423.9 421.7 420.1 414.7 410.7 406.3 400.8 399 395.7 392.8 390.8 389.4 389.6 390.3 391.3 392.2 392.5 392.5 391.4 390.5 388.1 385.1 381.8 380.4 379.1 373.1 369.3 366.7 364.6 363.2 361.4 356.4 351.6 344 324.7 315.9 303.1 285.9 267.8 257.4 250.4
530 530.5 530.6 530.2 529.3 526.1 524.3 522.3 521.6 520 518.7 518.7 518.5 517.6 517.1 516.2 513 508.1 502.7 498.5 496.4 492 490.6 492.3 489.6 488.7 488.4 487.6 487.5 486.1 487.2 487.7 487.8 488.6 488.9 488.2 487.2 489 489.9 484.7 478.3 438.2 400.6 378.4 366.4 358 334.6 313.2 310.4 300.7 293 292.4 295.5 311 333.4 355.6 375.7 394.5 415.5 457.9 469.7 479.4 487.5 493.9 497 498.7 500.9 504 506.7 507.9 507.8 507.2 506.5 505.6 504.7 503.1 501.1 500.1 499.8 499 497.7 494.9 490.8 485.3 478.8 472 466 461 457.6 457.4 456.4 452.9 451.2 451.8 452.2 455.3 457.6 458.8 457.8 455.1 450.8 446 443.1 426.8 419.4 417.4 410.8 404.9 400.5 396.9 393.1 390.7 388.3 382.8 379.1 378 370 356.3 363 369 374.2 379.2 380.2 382.1 383.7 385.7 387.5 390.6 392.3 398.7 406.3 411.6 414 416.4 417.6 418.9 423 423.5 424.6 427.5 429.7 431 431.7 429.6 431.7 432 431.9 431.4 431.2 431.2 431.8 431.1 431.4 430.6 430.1 429.4 428.6 427.8 426.3 424 421.7 421.1 416.8 412.7 408.4 401.8 399.1 394.8 391.3 389.7 387.3 387.5 389.3 390.9 391.4 390.4 388.8 388 387.4 383.1 380 379.3 379 377.4 372.1 368.7 364.8 363.3 362.3 360.8 356.4 351.5 344.9 336.3 325.7 310.1 288.1 277.6 270.9 262.5
526.1 527 527 525.9 524.1 522 519.8 518.2 517.1 516.7 516.4 519 520.8 518.6 520 521.1 517.8 513.8 509.2 504.5 500.8 498 496.5 497.4 497.3 499 495.2 493 492.3 491 490.6 491.6 491.5 491.3 491.3 489.4 489.6 489.9 489.9 489.9 471.5 429.1 395.3 370.3 361.4 352.2 330.5 310.9 299.8 287.8 279.2 285.8 292.2 301.8 319.3 345.8 372.1 384.2 404.5 452.4 467 480.3 487.6 493 496.1 497.8 500.3 504.2 507.6 509.4 509.9 510.4 510.4 508.7 507.8 506.9 505.3 505.1 504.6 503.5 502.9 500.1 497.1 493.2 487.4 481.4 474.4 466.8 460.6 458.7 457.5 460.7 460 461.4 462.8 464.4 466.9 468.5 468 462.1 457.1 449.5 445.9 432 423.2 420 414 409.3 403.3 400 395.8 390.5 388 382.8 380.9 373.5 369.1 355.5 357.6 361.4 372.7 379.5 380.9 382.9 385.6 387.9 389.9 394.4 398.4 402.6 407.9 413.9 416.9 419 421 421.7 423 422.7 423 425.4 427.8 429.4 427.1 423.2 425.4 429.4 429 429.4 429.4 429.7 429.5 430.3 430.7 428.9 428.3 427.8 427.2 426.2 424.2 422.8 421.4 421 416.9 413.3 409.4 403.7 399.8 395.1 390.1 388 385.7 385.2 386.2 387.6 387.5 386.6 384.6 383.5 383.2 381.6 378.5 377.2 375.5 373.1 370.9 368.1 362 361.4 360.9 358.9 356.4 351.7 345.3 337.5 327.1 315 295.2 296.5 292.9 291.4
521 521.6 520.7 521 519.1 517.2 514.5 512.5 511.2 512.4 513.2 516.1 519.4 519.1 519.8 520.8 520.4 516.5 512.5 508.8 505.3 503.7 502.7 502.2 502.3 503.2 500.8 499.5 498.5 497.4 495.8 495.7 494.1 492.3 492.3 490.3 489.7 489.6 489.8 489.1 461.9 418.6 387.1 367.4 356.6 344.8 321.4 301.2 291.4 283 262.8 280.1 290.5 294.8 312.6 330.6 362 384.6 400.2 442.6 465.9 478 486.8 491.3 495.7 498.2 500.7 504.5 508.5 510.4 511.4 511.5 512.4 511.1 510.8 510.2 509.1 510.5 509.2 509.3 507.7 505.5 502.4 498.1 493.5 487.8 481 472.6 465.1 459.5 461.8 467.8 466.2 465.5 466.9 467.7 470.4 471.1 469.1 466 460.6 453.9 448 436.1 423.1 419.9 414.9 410.5 405.8 401.9 398.2 391.6 387.4 381.8 376.9 371.7 367.9 360.1 352.3 360.4 370.2 381.1 380.5 382.7 385.2 388.1 391.2 395.3 400 405.4 410 413.7 416.7 420.2 421 421.6 422.6 421.9 421.5 423.8 425.6 424.4 421.6 419.8 421.2 424.2 425.6 425.3 425.3 425.2 425.9 426.7 427.2 426 425.1 424.3 423.9 423.6 421.8 420.5 420.5 418.7 416 412.2 408.3 403.1 399.5 394.3 389.4 386.8 381.9 380.8 379.3 381.3 383 383.1 380.5 379.9 380.7 379.2 377.4 374.7 372.7 370.4 369.6 365.8 358.8 359.7 358.8 356.5 354.5 352 346 339.1 330.3 316.8 319.9 322.2 322.2 321.8
