ncols 200
nrows 82
xllcorner 290000
yllcorner 262700
cellsize 50
353.7 355.3 360 367.1 376 387 399.9 410.7 419.4 429.8 434.1 437.9 438.5 437.5 436.2 433.7 430.7 428 426 422.7 413.6 406 401.1 384.1 360 337.3 314.9 301.3 281 264.3 253.9 253.9 261 290 324.7 363.8 418.4 445.8 456.8 461 464.7 466.7 468.1 468.8 469.1 469.3 470.8 476.1 479 478.9 478.9 478.7 481 481.1 483.7 488.5 489.2 490.2 486.2 484.4 481.6 481.1 477.5 467.2 457.6 433 413.7 398.6 387.9 378.5 371.3 365.9 359 346.7 361 379.6 399.7 397.5 387.6 361.4 343.2 329.2 319.7 312.4 301 290.4 284.1 279.8 274.7 267.6 262.4 256.1 250.3 241.9 230 224.3 218.8 212 205.7 200.1 197.4 195.3 193.8 194.5 193.9 193.9 191.3 189.1 189.8 191 191 191 189.5 189.6 190.8 192.4 196.9 203.1 209.6 210.8 210.9 212.9 215.2 216.8 219.7 221.8 224.6 226.8 229.4 231.8 235.1 237.9 240 241.6 242.4 243.1 244 245.8 244.7 243.6 232.7 223.5 214.5 200.1 197.8 197.7 197.6 197.7 197.8 197.7 198.1 204.4 213.7 231.3 251.9 273.4 293.9 313.5 333.4 345 355.3 364 370.2 376.3 381.8 385.4 389.3 400.7 407.8 413.5 416.6 418.8 422.7 427.3 430.8 429.9 428.7 428.3 429.2 427.7 426.8 423.2 421.2 421 420.1 417.9 416.6 413.7 411.1 405.3 395.8 384.9 373.3 359.1 347.8 339.5 332.4 326 319 312.6
360.7 365.3 373.4 382 391 405.1 413.9 424.3 432.5 436.5 438.4 441.3 441.3 440.6 438.3 434.1 430 427.8 426 420 411.3 400.5 385.3 360.2 341.8 327 304 290.1 272.4 253.9 253.9 253.9 268.5 296.7 328 375.9 408.5 433.8 454.4 463 465.5 467.4 468.6 468.8 469.1 469.4 471.5 476.3 479.6 479 475.8 475.4 474.4 469.4 471.9 470.4 473.2 471.4 472.7 470.2 463.2 460.1 454.6 444.6 431.9 417.2 404.9 393.6 384.3 375.2 368.9 361.9 353.2 340.6 354.8 375.9 393.5 383.3 361.8 344.3 329.8 319.4 308.3 297.9 287.6 279.9 275.2 268.5 263 257.6 251.5 244.4 233.9 226.8 220.6 216 209.7 203.8 198.7 195.7 194.8 193 192.4 192.1 191.8 191 190.2 190.5 191 191 191 191 191 190.2 191 190.3 191.2 198.7 204.4 207.4 209.3 211.5 211.8 214.2 217.1 219.9 222.8 226.3 229.4 230.6 233.1 236.4 239.4 240.6 241.8 242.6 243.7 243.9 242.7 235.9 223.6 210.7 200.6 197.7 197.6 197.6 197.6 197.6 197.7 199.6 207.1 215.5 231.7 252.1 270.8 293.4 311.9 329.5 345.8 356.2 366.3 374.9 382.7 388.3 395.4 399 405.4 413.4 413.8 415.3 419 425.6 429.6 430.8 429.8 427.3 423.9 420 419.5 420.3 420.9 421.6 421.5 421.3 420 420.1 421 415.2 409.3 399.2 390.2 379.3 367 355.3 344.8 338.3 331.1 324.9 319.1 314.4
372 379.2 388.8 398.7 407.9 417.6 427.9 437.4 442.2 443.6 444.3 443.6 441.6 441.3 437.4 433.1 428.8 426.8 424.9 417.4 405.8 383.4 356.9 341.4 326.5 311.1 295.4 274.7 257.4 253.9 253.9 254.8 279.4 307.8 341 388.7 423.2 445.8 462.6 465.5 468 468.8 468.5 468.6 468.8 469.1 470.8 477.6 481.4 472 470.7 470.9 469.2 466.2 463.5 461 459.6 458 454.9 454.7 450.7 444.9 440.1 431.8 422.1 412.6 396.3 384.7 377 368.5 363.6 357.8 347.1 332.4 346.5 371.4 376 361.7 347 332.9 319.1 305.6 293.2 285.5 278.7 271.4 261.1 256.6 252 247 241.5 232.7 224.7 218.9 213.1 207.7 203.7 199 195.3 195.1 193.9 191.8 191.4 191.1 190.2 189.4 190.1 191 191 191 191 191 191 189.1 189.7 189.1 189.6 192.3 199.9 203 205.8 208.2 209.6 212.5 215.2 218.3 220.2 223.1 226.6 229.2 231.8 235.5 238.4 240.6 241.4 242 242.1 242.1 240.5 236.4 226.5 210.5 197.8 197.7 197.6 197.6 197.6 197.6 201.9 208.7 216.6 232.8 251.6 270.9 290 313 331.4 345.5 356.8 367.4 375.6 384.4 393.6 401.8 410.4 414.2 419.9 420.2 418.1 417 424.9 431.4 431.9 430.6 429.2 424.5 419.7 416.3 414.6 414.2 414.6 414.8 414.4 413.4 414.6 416 411.4 406.4 397.8 387.8 379 368.9 358 348.1 339.6 334.8 330.1 323.7 318 314.3
387.8 397 406.4 414.8 423.7 433.7 442.8 450 449.6 449.4 448.4 446.4 443.7 440.5 436.8 431.7 427.1 422.7 419.1 412.1 396.4 367.2 344.2 321.2 309.4 298.2 273.5 260.9 253.9 253.9 253.9 264.2 293.9 324.9 366.2 408.1 433.9 456.2 465 468.3 469.3 469.2 468.7 468.7 468.8 468.9 470.2 474.1 475.7 468.5 471.5 471.2 464.3 461.2 460 455.2 453.1 450.9 444.4 447.2 440.7 435.8 431.3 420.8 407.4 394.7 381.9 372 366.6 362 357 352 342 331.4 332.5 364.4 361.5 344.4 330.9 317.6 303.4 291.5 282.6 275.6 269 263.6 255.7 249.7 245.4 240.2 232.6 225.8 218.8 213.4 209.9 205.5 201.4 197.4 195.4 194.7 193.4 191.5 190.7 189.9 189.1 190.1 191 191 191 191 191 191 190.8 190 189.1 189 189.7 190.6 194.2 200.4 202.2 204.4 208 210.9 214 218 220.7 219.9 224.6 230.4 231.8 234.4 236.6 238.2 239.4 240.3 240.2 239.3 238.1 234.6 228.2 213.3 197.9 197.8 197.7 197.6 197.6 199.5 209.4 215.2 231.5 252.2 271.5 290.6 313.1 328.3 341 353.6 364.1 372.9 383.1 393 403.4 412.6 419.5 423.8 425.9 424.2 422.9 426.3 432.7 435 435.5 432.4 429.5 424.1 417.8 412.7 408.5 406.1 403.3 402 400.2 398.3 398.3 398.1 395.7 390.1 382.1 375.3 366.9 358.3 348.4 341.2 334.5 330.7 326.5 321.2 316.8 312.7
404.4 413.7 422.7 431.5 440.1 449.2 453.3 455.6 453.2 452.1 450.3 447.4 444 441 435.6 429.5 424.4 419.5 415.7 407 386.2 353 321.5 301.1 288.1 271.6 258.7 253.9 253.9 253.9 256.5 277.8 307.7 346 377.7 417.6 443.7 458.8 467.2 471.1 470.7 469.3 468.8 468.9 468.9 468.9 471.1 470.9 465.1 460.6 467.2 456.7 455.3 453.8 449.4 445.1 437.3 432.5 424.7 420.8 414.9 404.9 397.5 391.1 379.4 371.2 365.6 357.7 356.1 352.5 349.9 345.2 331.3 325.2 326.2 350 337 326.9 313.6 301.3 289.4 282.8 276.9 269.6 262 256.5 249.3 241.6 236.7 231.8 226.9 221.3 215.1 209.6 205.9 203.7 201 198.2 194.8 193.5 192 190.5 189.3 189.4 190.7 190.5 190.1 190.2 190.9 190.7 190.7 190.7 190.7 191 189.5 189 188.5 188.2 189.1 196.4 200.4 201.3 206 210.4 213.1 214.9 217.4 220.8 225.1 228.7 230.8 232.1 234.1 235.5 235.8 234.9 235.4 235.3 238.1 238.1 225.5 209.4 197.8 197.8 197.7 197.7 197.6 203.2 213.3 232.1 250.1 271.1 292.4 313.4 329.6 341.6 351.8 362.2 371.7 381.3 391.8 402.5 412.4 422 428.5 432.8 431.5 431.2 436.8 437.3 439.6 439.4 438.6 435 429.7 423.7 417.4 410.6 402.5 395.3 389.9 385.5 382.4 380.1 378.5 380.6 377.4 373.5 369.4 363.2 355.9 347.5 339.6 332.8 328 325.3 322.9 318.3 314.3 309.8
422.5 431.4 438.5 446.8 453.7 458.9 458.4 458.7 457 454 451.1 447.8 443.4 440.9 433.3 427.1 422.6 417.7 412.4 398.8 372.6 340.3 306.3 287.2 271.7 257.9 253.9 253.9 253.9 253.9 268.6 294.3 329.1 369.1 405.9 439.7 456.3 465.2 467.6 469.3 461.7 469.3 469 469 469 468.7 469.8 465 454.5 455.9 456.7 447.5 437 437.9 426.5 419.7 410.5 401.2 394.1 389.9 385.1 381 375.2 369.2 360.9 355.5 351.8 344.9 340.1 338.9 336.9 334.3 321.4 315.7 323 326.6 316.4 309.1 297.4 288.7 280.8 276 270.8 265 256.4 250.5 242.8 234.2 227 222.4 218.3 214.7 209.7 206.1 203 200.8 199.8 196.3 191.9 190.7 189.3 189.2 189.6 190.4 191.9 191.6 191.2 191.1 191.3 190.7 190.1 190.8 190.6 190.3 191 189 188.6 188.2 188 189.7 196.7 199.1 203.5 208.1 210.1 210.6 213.5 219.2 222.4 225.1 226.8 229.1 230.8 231.9 231.3 230.3 230.4 231.3 233.9 233 216.7 198.3 197.7 197.7 197.7 197.6 198.1 206.6 228.3 249.8 270.2 289.2 313.1 331.8 342.5 349.7 359.7 368.9 379.4 392 402.9 415.5 425.7 436 441.2 440.5 440.1 443.9 445.4 446.1 447.6 445.1 442 437.3 431.4 425.4 420.1 414 405.2 394.7 385.1 378.9 371.7 365.4 361.8 360.7 358.8 358.2 355.3 349.8 343.1 335.2 330.8 325.2 323.4 321 319 314.9 311.7 307.5
440.1 447 452.2 456.7 461.5 462.8 462.9 460.5 458 455.3 452 448 442.3 437.3 431.8 425.9 419.5 413.6 406.2 390.7 359.6 327.6 295.9 274.8 260.6 253.9 253.9 253.9 253.9 263 285.4 309.8 349.2 386.3 427.6 450.5 457.1 460.4 460.3 459.8 459.8 469.4 468.6 468.1 467.6 466.4 464.1 458.2 441.7 444.3 437.8 427.8 420.9 414.6 405.7 399.5 391.8 384.1 371.7 368.2 365.3 359.9 356 349.8 343.7 338.6 335.5 332.6 328.4 325 323.2 319.8 313.6 307.9 310.9 304.9 297.3 290.5 285.1 278.8 274.4 269.5 264.6 259.5 252 243.6 236.7 229.1 220 214.6 211.1 208.2 205.9 203 199.7 197.9 196.7 191.7 189.8 189.1 190.1 190.7 191.1 192 193.2 193.1 192.5 192.4 192.2 191.7 190.6 189.7 189.1 189.1 190.1 189.4 188.9 188.5 187.9 189.3 191.5 197.1 201 204.4 206.8 208.5 210.2 213 217.4 220.4 222.9 225.4 226.8 227.2 225.9 225.9 228.6 230.1 229.9 222.3 202.4 197.6 197.6 197.6 197.6 197.6 201.8 220.7 247.6 267.4 286.6 308.6 324.6 337.7 348.8 359.4 370.2 381.6 390.9 401.7 415.9 428.3 438.6 443.4 448.8 450.9 450.5 452.1 452 452 451.4 448.8 445.1 440.1 434.8 428.4 427.7 423 416 404.9 392.4 378.8 371.5 361.1 354 347.4 341.7 339.3 337.6 334.1 329 323.8 323.1 321 319.1 316.1 313.1 310.6 308.4 305.8
454.9 459.7 460.5 461.6 463.9 464.7 461.6 460.4 458 455 451.3 447.8 441.8 435.1 428.6 421.4 413.9 407.6 397.6 383.7 343.9 309.2 284.8 266 255.2 253.9 253.9 253.9 260.9 279.3 301.7 335.9 372.9 416.2 450.5 451.7 451 458.6 458.8 461.1 465.3 469.3 468.5 467.4 466.6 463.9 460.5 446 436 430.4 423.9 418 410.4 405.3 398 387.8 376.2 367.2 360.6 349.7 346.6 340.9 334.8 330.2 325.7 322.4 321.6 319.2 315.6 314 312.8 308.2 302.8 297 298.7 291.6 285.3 280.5 278.1 272.9 268.1 264.3 260 253.1 247 240.3 231.9 224.1 217.9 209.4 205.9 204.6 203.3 200.6 197.9 193.9 191.1 190.8 190.4 192.9 193.6 194.1 193.6 194.3 195.2 194.6 194.1 193.3 192.9 191.9 189.9 189.1 189 188.8 188.9 188.9 188.7 188.2 188.4 189 189.6 193.8 199.1 201.6 203.7 204.6 204.7 208.8 213.4 219.2 220.5 220.7 221 220.7 220.3 221.5 224.2 225.8 223.6 213.3 197.6 197.6 197.6 197.6 197.6 197.8 206.9 225.7 250 271.8 295.4 317.1 333.4 345.2 356.4 365.6 375 385.4 394.4 406.5 423.9 435.5 443.5 448.6 454.6 456.6 456.3 456.6 456.4 455.9 453.8 451 447.5 443.2 439.9 437 435.8 431.1 424.3 414.5 401.5 379 369.1 359 347.4 340.1 334 322.7 320.4 319.7 317.1 316 317.7 315.8 312.9 310.1 308.7 307 306.1 305.2
465.5 467.5 465.9 464.2 464.3 463.4 462.1 459.5 455.8 452.6 448.6 445.5 439.4 432 423.4 412.8 399.2 391.8 385.2 364.8 327.5 297.8 279 260.4 253.9 253.9 253.9 258.8 278.1 297.2 326.9 367.1 398.9 437.7 447.1 450 451.7 457.7 464.1 470.5 471 470.1 469.3 466.7 463.9 461.7 453.2 440.8 438.4 439.1 425.7 418.8 420.3 422.4 405.8 393.2 378.8 368.3 354.5 341.6 337.3 326.9 319.7 315.7 310.8 309 307.8 305.7 303.6 302.7 300.1 295.3 293.9 290.4 288.6 282.9 276.6 272.7 270.6 268.5 264.6 260.9 255.4 249 242.9 235.4 227.1 219.5 213.2 208.3 204.9 202.8 201.3 198.7 195.3 190.9 189.5 191.6 195.3 197.8 197.8 197.3 197.1 197.3 196.9 196.4 195.9 194.4 192.8 191.6 190.5 189.3 188.7 188.3 188.5 188.5 188.1 187.8 187.9 188.2 188.5 190.1 195 199.1 201.1 201.1 200.9 204.8 208.5 212 214.5 215.1 213.5 216.6 219.7 220.8 221.3 222.9 220.6 201.8 192 191.9 191.9 194.8 197.6 206 227.8 247.6 266.7 283.3 298.6 320.3 337.8 350 359.7 367.9 376.1 387.4 399.1 418.5 429 438.3 448.7 460.3 464.3 463.7 460.1 458.4 456.9 455.8 454.9 453.8 451.3 448.1 447.6 448.1 445.9 439.9 431.5 422.5 407.9 380.3 365.3 353.2 342.7 336.6 329.6 320.9 313.6 313.5 312.8 311.9 312.2 310.6 306.5 303.9 303.1 304.5 304.6 304
471.2 471.1 470.5 467.8 466.1 462.5 460.9 457.5 453.1 449.5 445.3 441.7 433.6 424.5 414.8 401.8 382.4 369.9 364.3 342.2 311 287.8 270.9 256.8 253.9 253.9 254.9 270.4 293.8 319.6 361.5 392.7 429.9 441.5 440 448.3 454.6 461.2 468.4 471.5 470.6 469.7 469.2 469.7 461.1 458 450.8 439 440.2 441.2 430.7 433.2 436.6 436 422.7 405 392.1 381.4 364.9 347.8 336.3 330.3 322.4 314.8 309.8 305.3 299.5 294.7 293.5 292.4 291.1 284.5 283.7 287 278.3 273.5 268.7 266 263.4 262.4 261.1 257.3 250.9 244.7 238.3 231.7 225 217.7 210.2 206 203.5 201.3 199.6 196.7 192.2 189.3 190.2 194.2 199.1 201 200.5 200.2 199.5 198.9 199 198.2 197.6 195.6 193.9 192.3 190.6 190.1 189 188.4 188.2 188 187.9 187.9 187.9 188.1 188.4 188.6 190.3 195.2 198.2 198.9 198.1 199.4 202.6 206.3 208.5 209.3 210.5 215.1 221.1 220.4 221.3 222 214.3 197.7 192.7 191.9 191.9 191.9 196.3 220.2 247 266.6 287.6 304.2 320.4 334.5 344.6 353.7 360.8 370.6 384.1 397.2 410 420.2 432.2 449.6 462.1 470.5 471.1 468.9 461.1 458.4 456.8 456.5 457.3 456.8 455.6 455.3 457.1 458 455 447.3 438.2 426.3 408.1 387.1 366.2 348.1 338.6 332.5 326.4 318.9 311.5 308.5 307.6 307.8 307.6 304.7 301.2 298.9 299.2 301.6 303.7 303.3
473 471.3 471.1 468.7 465.5 461.7 457.5 453.8 450.2 446.8 442.9 434.4 423.5 410.4 392.8 378.1 361.3 347.2 339 318.2 299.4 278.8 259.5 253.9 253.9 253.9 262 285.2 321.4 350.6 382.8 415.3 432.1 429.4 436.4 445.9 458.6 464.6 470.2 471.1 469.1 469.5 471.1 469.3 457.8 454 449.2 440.5 441.2 441.2 440 441.9 443 441.2 431.9 415.4 404.2 393.9 373.5 353.9 344.6 335.6 326.5 319.5 313.3 309.5 301.9 295.3 289 281.9 281.2 277.7 272.8 278.7 265 264.1 261.9 260.3 257.5 256.8 255.5 252.8 247.7 239.7 232.6 226.1 220.3 214 207.5 203.8 201.2 198.8 196.6 193.1 190.6 189.6 193.5 197.9 200.9 200.8 200.9 200.9 200.5 200 200.3 200.3 198.6 196.5 194.5 192.8 191.1 190 189.2 188.6 187.9 187.9 188 188 188 188.1 188.3 188.5 189.2 191.6 193.1 193.6 193.9 195.1 197.9 201.5 204.7 208 210.9 214 218.3 219.7 221.1 221.1 204.3 194.3 191.7 191.2 191.9 192.1 211.7 241.9 266 285.5 304.7 317.8 331.2 343.4 351.4 357.4 367.4 377.2 391.3 402.5 413.5 426.8 445.7 459.9 468.2 471.3 470 465.6 460 457.9 458.1 458.8 459.5 460.1 461.4 462.8 466.1 464.9 459.3 449.1 438.8 418.9 399.6 379.7 362.3 346.5 334.6 327 321.9 314.9 308.4 305.4 304 303.5 302.4 299.2 296.6 295.1 297.3 300 301 301.1
473 472 470.4 467 463.8 459.7 455.4 451.4 446.7 441.7 435.4 423.3 404.3 388.5 372.2 357.5 344.2 333.1 322.1 303.2 283.4 265.8 255.3 253.9 253.9 254.2 268.5 300.7 357 369.7 394.1 410.9 415.2 418.5 427.3 437.7 450.1 458.8 463.4 463.2 467.2 470.3 462.2 460 455.1 450.5 441.9 438.9 441.5 445.2 444.5 446.3 445.9 442.4 438.2 430.5 415.3 402.1 381.8 371.3 355.8 343 333.1 322.7 315.1 312 306.9 297.3 289.1 281.3 274.6 259.7 263.9 266.3 260.7 255.9 255 253.5 253.3 252.8 250.8 247.9 243.2 237.6 231 223.3 217 211.2 205.9 202.6 200 196.7 193.2 190.9 189.1 191.6 195.8 199.5 200.4 201 200.6 201.2 201.5 201 200.2 199.7 199.3 197.4 195.4 193.3 191.6 190.4 189.2 188.9 188.6 188 188.1 188.1 188.1 188.1 188.2 188 187.9 188.6 189.4 189.6 190.6 192.7 195.5 199.3 202.7 206.1 208.4 210.4 213.1 214.8 217.8 215.4 205.8 192.6 190.5 189.9 190.2 204.9 236.1 260.1 281.2 300.7 314.5 327.4 341.9 354.1 362.4 371.1 380.4 387.5 395.9 408.5 425.2 443.8 459.3 466.4 470.4 469 464.3 460.6 459.4 457.8 458.4 459.1 460.9 466.8 468.7 470.9 471.2 467.5 456.9 443.8 422.4 403.5 385.9 368.7 354.4 340.3 328.7 323.4 318 313.2 307.2 303.2 301.7 301.1 297.8 294.3 292.4 292.2 293 295.5 297.4 299.5
470.8 471.1 466.8 463.7 461.6 457.8 453.1 448.2 442.8 435.3 424.2 406.6 381.7 366.5 350 340.1 331.3 319.2 304.4 288.8 273.8 259.6 254 253.9 253.9 255.3 272.5 304.2 336.6 361.5 397.6 398.8 401.5 405.4 413.7 425.5 436.6 444.8 450.7 454.3 456 454.9 454.6 452.6 450.9 449.9 440.3 438.9 446.4 449.5 448.8 448.4 447.7 446.4 442.6 439.9 424.9 410.9 396.7 386.9 373.1 354.4 342.4 329.5 316.8 311.4 302.9 295.5 286.9 277.2 268.1 252.2 252.9 256.7 254.3 247 247.7 248.3 249.8 249.7 249.1 246.2 241.5 239.1 231.8 224.1 215.5 208.6 203.9 201.1 199.2 196 192.7 190.8 191 195.1 198.6 200.3 201.2 202.1 202.3 202.1 202.7 202 200.9 198.9 199.2 198.3 196.3 194.1 192 190.8 190.5 191 189.3 188.6 188.2 188.1 188.1 188.1 188 188 187.9 187.9 188.5 188.7 189.1 190.3 193.9 198.3 200.7 203 205.3 207.6 209.3 210.4 213.3 210.8 202.7 191.1 189.4 190.5 202.5 230 254.6 275.7 297.9 310.6 323.9 342.4 354.5 366.7 376 389.7 395.7 401.6 407.1 423.7 441.6 453.8 460.4 464.8 465.3 464 460 457.6 457.1 457.7 458.7 459.7 465.4 470.6 473.1 477.1 471.2 462.5 445.1 422.7 405.2 387.7 371.7 357.3 344.9 332.4 323.6 319 314.8 309.8 304.7 300.4 300.3 299.6 294.5 290.3 289.2 288.5 290.1 291.6 292.1 294
467 464.7 461.4 459.7 457.7 453.8 448.1 443.4 436.9 429.2 415.3 388.1 365.2 350.8 336.4 325.6 318.3 306.3 294.5 284 271.9 259.8 254 253.9 253.9 253.9 268.1 293 312.1 346 378.6 376.9 373.9 385.6 395.1 407.2 419.1 427.6 438.1 439.9 442.1 444.8 448.4 446.6 447.9 443.6 438.3 440.6 445.2 449.5 449.5 448.8 448.7 446.9 443.4 439.1 432 425.2 408.6 397.3 382.7 370.7 353 333.8 318.7 305.6 296.8 290.6 282.3 272.2 264.2 254.7 241.3 248.3 245.2 241.8 242.2 242.2 243.6 247.1 247.3 245.4 242.1 234.2 223.2 215.3 207.3 200.9 199.9 199 198.2 197.8 195.3 193.9 195 198.7 200.4 201.4 202.8 203.7 203.9 203.7 203.8 203.2 201.8 199 199.3 199.2 197.1 195 193.3 191.5 189.1 190.5 189.4 189.1 188.7 188.4 188.2 188.1 188 187.9 187.9 187.8 187.8 188.4 189.1 190.1 192.6 196.8 199.5 201.2 202.9 206 209.5 210.5 211.8 203.3 194.5 188.5 189 198.1 227.2 251.1 270.1 290.2 306 316.4 334.3 350.8 366.3 378.3 391.6 401.7 408 412.7 421.3 439.1 448.6 456.2 459.6 459.8 459 458.2 456.4 453.5 453.6 454.7 457.3 460.4 466 471.6 473.6 473.2 461.6 442 420.9 404.6 388.5 372.3 358 345.5 333.2 324 319 314.2 310.6 306.7 301 298.2 297.3 297 293.1 290.2 288.6 285.6 285.7 287.3 288.2 290.4
460.6 457.7 455.2 452.7 451.7 448 441.7 437.1 433.1 422.1 390.4 366.1 344.8 334.4 321.2 314.8 307.2 297.1 290 281.5 273.2 262.4 255.6 253.9 253.9 253.9 256.6 274.9 299.8 332.2 333.3 344.3 352.7 362.1 369.8 384.4 395.1 409.3 417.6 422.8 427.5 432.6 438.2 438.4 438.4 436 434.2 437.4 444 449.1 449 449.3 448.6 446.8 444 440.4 432.5 425.7 416.6 406.7 393.2 375.4 357 338.8 318.9 303.7 295.7 289.6 281.3 271 263 254.8 242.7 236.5 236.1 234.1 234.9 237.8 240.2 243.9 244.2 240 232.2 222.2 211.3 203.5 198.9 198.1 198.2 198.2 198.2 197.9 198.1 197.7 198.2 199.6 200.8 202.8 204.5 205.3 205.6 205.3 205.1 203.4 201.5 200.1 200 200.2 199 197.5 195.7 193.5 191 189.5 189.5 188.9 188.9 188.7 188.5 188.3 188.5 188.4 188.3 188.3 188.1 188.4 189.5 190.4 192.8 195.1 197 198.8 200.8 204.4 208.4 210.9 205.9 196.1 189.7 187.8 195.9 222.6 248.6 267.1 287.4 304.8 314.9 326.1 345.2 365.9 381.5 390.8 403.1 410.2 415.7 423.2 439.9 449.6 452.4 456.6 456.7 455.2 454.4 452.8 450.9 450.3 449.2 452.1 456.9 460.5 463.1 462.2 462.3 450.7 433.6 414.7 400.6 387.5 371.6 356.7 344.9 332.6 324.5 319.1 314.7 310.2 306.5 302.6 298.4 293.7 293.6 293.3 292.6 290.9 287 282.5 281.2 282.5 284.9 286.3
455.4 454.6 449.3 448 445.2 440 434.5 429.5 417.1 403.7 371.9 348.7 333.4 320.4 311.2 304.7 296.9 291.4 286.4 281.9 275.7 268.9 257.9 253.9 253.9 253.9 253.9 256.8 275.1 293.2 300 318.2 328.5 340.7 356.3 369.7 380.3 392.8 402.3 410.7 416.9 422.6 425.7 429 428.2 428 429.6 436.5 443.3 447.7 449 449.9 448.8 446.6 443.4 437.3 430.2 423.7 417.2 408.2 400.1 382.4 365.7 342.9 320.3 303.3 295.3 289.1 284.8 275.8 262.7 251.3 238.1 229.4 227.1 226.8 226.6 229 231.8 232.2 227.8 220.1 211.4 204.7 201.1 198.2 198.2 198 198 198 198.2 198.6 199.2 200.2 200.8 201.5 202.9 204.8 206 207 207.2 207 205 203.7 203.7 202.6 202.1 201.9 201.7 200.2 199.4 198.1 195.1 192.2 189.3 188.7 188.4 188.9 188.7 189.2 189.3 189 188.9 188.6 188.4 188.1 189.5 189.9 191.6 193.5 195.3 197.4 199.5 202.2 204.5 205.4 196.3 191.2 187.8 193.3 217.9 245.5 265.6 283.8 302.6 315.2 328.7 344.5 361.9 377.7 391.6 406.6 414.1 421.5 427.3 438.9 446.3 451.3 451.6 452.2 449.7 447.9 447.9 446.4 443.8 447 450.8 453 456.2 456.7 457.4 453.3 439.8 423.5 408.4 395 383.2 369.5 354.3 343 333.1 325.8 318.8 313.5 308.8 304.9 301 297 293.3 289.3 290.5 289.7 289.6 287.7 284.9 281.3 278.5 279.2 280.1 280.7
451.2 450.8 448.1 444.6 441 438.8 434.8 427.3 418.7 398.3 370.5 349.6 329.2 316.9 310.3 302.2 294.6 290.2 286.6 281.5 271.8 267.5 258.6 253.9 253.9 253.9 253.9 253.9 262.5 288.4 307.8 326.9 345.5 359.4 372.9 376.8 380.1 382.9 391.3 401.4 406.8 413.4 415.6 417.6 419.9 423.2 427.5 433.7 441.2 446.1 449.8 451.1 448.1 444.6 439.6 433.3 425.2 419.6 414.1 407.5 399.5 386.1 375.2 349 319.8 305.1 297.8 293.3 288.4 275.1 259.9 250.3 240 230.6 220.7 215.7 216.1 217.9 217.6 216.3 211.1 205.3 199.4 198.7 198 198 198.3 198.2 198.4 198.7 198.9 199.4 200.9 202.1 202.9 203.8 205.4 207 208.2 209.2 208.3 206.9 204.4 203.5 204.4 205.2 204.6 204.4 204 203.3 202.7 201.4 199.2 196 192.8 191.7 190.8 190.1 189.2 189.1 191 189.1 189 189 188.8 188.6 189.2 190 191.1 192.7 194.8 196.9 198.7 200.3 201.4 197.9 189.1 188.8 190.1 211.5 240.7 262.9 285.2 300.2 312.8 325.7 342.7 364.2 379.3 389.9 401.1 410.9 416.3 421.6 430.8 439.5 444.3 445.5 444.3 441.9 439.9 439.7 439.2 439.3 439.7 445.8 449.7 450 447.7 445.8 441.1 427.7 411.4 398.2 386.8 374.7 361.7 349.3 337.1 329.7 322.2 318.4 314.3 308.6 303 299.2 296.5 291.2 288.5 286.2 285.3 285.8 284.7 283.5 280.9 277 271.8 271.4 274.7 275.3
446.9 446.2 445.2 442 439.3 436.1 432.4 425.3 416.1 397.5 366.1 344.8 329.2 317.3 309.9 303.9 297 292.9 289.1 284.4 279.5 275.8 270.2 264.1 253.9 253.9 253.9 256 272.3 295.4 324.6 347.9 361.3 379.6 388.7 394.8 393.9 389 389.4 397.4 402.5 408.4 410.6 412.8 416.6 420.7 425.8 432.1 439.9 445.2 448.8 447.7 444.6 439.8 431.8 426.2 420.2 410.7 403.7 397.7 392.1 377.8 362.4 339.4 315.6 308.3 300.6 292.3 282.5 270.8 258.9 249.4 240.3 228.5 217.7 209.6 209.2 209.5 207.9 206.4 203.3 199 197.9 198 197.9 198 198.4 198.8 199.2 199.4 200.8 202.9 204.5 205.3 206.1 206.7 208.6 210 211.2 210.9 209.9 206.7 205.2 204.8 206.5 208.7 208.1 208.5 208.4 207.5 206.4 204.5 202.1 199.7 197.6 195.5 194.4 192.4 190.3 190.2 190.3 188.7 188.5 188.7 189 189 189.1 190.2 191.2 191.6 192.9 194.4 195.6 198.9 197.9 188.7 187.9 189.4 205 231.3 256.1 276.9 292.6 301.4 320.4 330.1 345.4 365 380.1 391.6 404 409.8 413.9 418.6 428.5 431.2 434.3 432.9 430.9 427.5 427.4 427.3 427.8 429.9 440.4 448.9 447.2 438.5 430.3 423.1 409.9 396.5 384.8 374 364.1 352.5 340.8 331.7 323.9 320.3 315.2 310.7 306.8 302.9 298.7 294.7 292.4 289.9 284 281.5 280.6 281.7 281 278.6 275.7 271.9 269.1 270.2 271.1 270.7
443.1 442.6 441.6 440.3 437.9 435.2 429.5 424.1 408.4 385.2 359.6 341.6 329.9 318.7 310.3 303.8 299 295 290.9 287.2 283.8 286.9 290 281.3 262.3 253.9 253.9 258.9 280.5 307.1 333.7 363 382.2 396.9 401.8 404.4 400.2 395.5 395.5 400.8 402.7 408 410 410.7 414.3 418.4 424.5 433.9 440.7 442.8 442.5 441.2 439.8 433.6 424.3 417.9 409.3 403.3 392 384.1 377.2 363.5 345.6 325.7 313.7 309.4 300.6 287.4 275.9 264.8 255.6 247.1 235 222.9 214.2 208.8 206.2 204.4 202.9 202.3 201.3 199 198.2 198.1 197.9 197.9 198.4 199.4 201.6 202.4 204.6 207.2 208.7 209.4 210.2 210 211 212.3 211.8 212.6 211.3 211 209.5 209.4 210.1 212.9 214.3 213.9 214.2 214 211 208.6 206.7 204.5 202.7 199.9 196.7 194.6 192.6 190.5 188.9 188.4 188.1 188.3 188.4 188.6 189.1 190.3 190.3 190.7 190.9 191.4 193.4 195.4 192.2 187.8 188.6 200.1 227.5 249.2 267.7 280 295.1 300 325.2 330.1 342.4 359.9 380.1 390 400 403.5 407.8 411.7 416 420.4 418.3 416.5 415.7 414.5 414.3 415.8 423.1 434.9 444 448.8 440 417.3 402 392.6 381.8 370.8 361.2 351.7 342.9 333.6 326.2 319.5 315.7 313.4 310.7 305.8 301.9 298 294.8 290.4 288 284.2 279.9 278 278 278.2 276.3 273.1 270.7 268.3 267.3 267 267.4 268.7
440.3 438.5 437.9 437.6 436.5 434.7 431.5 425.3 414.3 391.4 366.6 344.3 331.2 319.2 311 304.4 300.4 294.5 290.3 287 286 290.2 297.9 273.6 253.9 253.9 254.2 267.9 290 314.4 344.8 378.7 399.4 409.8 416.7 412.5 406.4 402.1 402 406 409.1 409.9 410.2 412 414.6 418.1 425.7 436.6 443.2 445.4 443 439.3 438.5 428.3 420 411.2 397.7 390.3 379.8 369 361.9 350.9 338.2 325.6 317 309.2 298.5 282.3 270.2 260 250.3 240.5 228.8 217 208.8 205 201.8 200.6 200 200.7 200.4 198.6 198.5 198.2 198 198.3 199.6 202.4 206 207.5 208.6 211 212 212.8 213 213.4 214 214.9 217.1 219.4 220.9 222.5 221.5 220.4 218 219.6 221.6 220 221.8 221.5 216.7 214.2 211.9 209.9 208.6 203.9 200.1 198.2 195.6 191.7 188.5 187.8 187.9 187.8 187.8 188.4 189.2 189.6 190.6 189.6 189.5 190.4 191.5 189.9 190.2 188.9 198.3 221.4 239.7 253.9 266.7 279.9 294 300 324.5 330.1 344.9 359.9 380.1 386.4 391.1 394.4 400.5 405.1 407.8 407.4 403.9 401.8 402.2 403.2 407.5 415.7 426.5 438.8 444 443.9 428.9 404.2 381.5 371.1 359.3 348.3 341.1 334.8 329 323.7 315.9 309.2 308.6 307 305.5 301.3 298.2 294.3 290.1 286.1 281.6 278.6 275.9 273.9 273.9 273.8 271.3 269.4 267.3 266 264.3 263.7 264.6 265.5
436.5 434.3 432.6 434.1 435.1 435.1 434.6 428.9 420.3 401.4 378 352.6 332.8 319.2 311.6 305.1 301.2 295.5 289.6 284.9 281.9 285.2 282 258.1 253.9 253.9 253.9 264.6 292 322.7 355.5 389.5 408.5 418.2 421.7 422 418.7 409.2 408.4 410.5 411.5 413.6 414.2 414.8 417.6 422.7 429.6 438.3 446.3 449.8 448.7 450 447.4 430.8 419.7 404.2 394.6 381.5 368 357.3 349.3 343.7 335.6 325.2 317.3 308.7 293.3 277 263.7 254.5 244.1 229.1 218 208.3 203.8 202 200.2 200.4 200.1 200.2 199.8 198.8 198.6 198.3 198 199.6 203.2 207.4 210.4 211.8 212.6 212.9 213.5 214.3 215.4 219 222.1 225.7 230.1 234.2 234.8 235.4 232.6 230.4 227.6 226.7 228.9 226.3 227.6 228.5 223.5 220.8 217.8 215.7 212.1 207.6 205.8 203.7 198.9 194.4 190.5 188.2 187.9 188 187.9 187.8 188.1 188.8 189.8 189.4 188.9 189.4 189.8 189.5 188.2 190.2 212.2 228.4 239.8 251.8 263.6 275.3 282.2 299.2 310.1 330.1 339.9 359.9 371.7 378.1 381.8 389.7 391.6 393.4 392.8 390.2 389.4 389.3 389.1 396.3 407.7 420.2 433.6 442.4 444.2 432.1 410.5 387.3 367.8 349.4 339.5 331.4 327.1 324.9 322.4 317.1 311.2 303.8 301 301.8 299.6 296.1 293.1 290.3 285.5 279.4 276.4 273.6 271.7 270.2 270.4 270.2 268.9 267.1 265.8 264.6 262.7 260.3 261.2 261.8
431.6 430.6 428.4 432 434.8 434.9 434.8 431.7 424.5 408.9 387.6 359.1 335.3 319.9 311.8 305.8 301.1 293.9 289 281.3 275.7 275.2 267.3 253.9 253.9 253.9 253.9 260.6 290.4 325.7 364.8 394.8 415.1 425.3 427.4 428.8 426.4 420.1 411 415.2 414.2 415.9 419.1 419.6 422.1 430.5 434.4 440.6 451.4 453.4 453.5 451.6 447.6 440.3 421.7 409 400.8 387.4 371.1 356.6 346.4 334.6 328.8 317.8 310.6 299 288 272.7 258.2 246.3 231.8 219.4 213.2 206.2 200.5 200.1 200.1 200 200.1 199.9 199.7 198.9 198.4 198.1 198.3 202 207 210.4 212.4 213.7 213.5 216.7 219.1 221.3 225.9 233.1 238.8 241.4 245.5 248.2 246.8 245.8 242.9 238.3 233.8 233.8 235 232.5 233.5 233.2 231.2 227 223.4 221.1 216.8 214.4 211.9 210.3 204.5 199.3 194.3 190.4 188.8 188.5 187.9 187.9 187.8 187.8 188.3 189 188.4 187.5 187.1 186.4 186.7 194.3 214.6 227.5 230.8 241.1 255.4 267.3 278.6 293.7 307.4 330.1 339.9 359.9 360.8 369.7 380.1 379.5 377.5 377.7 376.9 376.5 375.9 379 386.6 398 412.5 426.9 438.5 437.7 427.1 405.5 386.2 366.1 349.3 333.5 324.3 318.8 317.2 317.4 316.1 312.4 306.2 298.7 295.3 295.9 294.1 291.4 288.8 285.8 281.8 276.2 270 269.1 268.2 267.4 267.9 267.9 266.7 265.6 264.4 263.1 260.5 258.5 255.6 256.7
420.9 423.8 420 429.9 432.6 433.5 433 430.7 421.5 413.8 394 369.1 341.3 321.4 311.3 302.3 298.1 289.5 284.1 277.7 267.4 263.1 256.3 253.9 253.9 253.9 253.9 260.2 283.8 321.6 365.8 395.3 419.6 430.6 431.1 432.8 431.4 430.6 424.7 419.5 419 419.2 422.5 431 428.2 431.9 438.7 446.6 453.4 457.9 458.9 456.9 450.9 441.2 425.8 419.5 408.2 393.9 378.6 363.6 350 341.4 328.2 317.7 301.1 292.2 279.9 267.3 250.9 235.4 219.5 214.8 210.9 205.5 201.2 199.9 199.7 200.1 199.8 199.6 198.7 198.4 198.3 197.9 199 207.3 211.4 212.9 214.5 216.9 220.4 225.4 229.7 236.1 243.5 249.4 253.3 257.9 260 260.3 257.5 253.3 249.4 243.4 242.9 241.7 240.4 238.7 239 238.8 237.2 233.2 229.1 226 223.2 222.7 220.8 217.3 211.2 205 198.7 197.5 197.4 192 189.4 188.5 188.4 187.8 188.2 187.8 187.9 185.4 184.2 184.4 186.7 194.5 207.8 219.6 214.5 224.5 238.5 254.8 269.4 280.7 301.5 318.3 337.4 345.5 352.7 359.3 359.8 361.7 362.4 363.1 362.7 362.1 368.3 377.6 390.1 403 418.3 429.6 432.2 424.2 402.4 383.3 363.7 348.4 332.9 321.5 314.4 310.9 309.8 310.3 308.4 304.9 299.4 295.3 290.6 290.7 289.6 287.4 284.8 281.3 277.8 271.8 267.4 266.1 265.5 265.3 265.5 266 264.9 264.1 262.9 261.1 257.7 255.2 250.6 249.6
401.2 406.3 409.4 423.3 426.7 430.8 429.7 426 417.9 407.3 393.8 370.1 351.5 328.5 316.2 307 298.3 290.8 282.3 276 266.4 257.6 253.9 253.9 253.9 253.9 253.9 259.4 285.1 324.7 375.6 404.9 415.5 428.4 431.3 436.8 439.5 438.7 430.3 425.5 425.1 426.3 430.1 431.8 431.6 434.7 442.9 452 459.4 465.7 464.6 462.8 459.5 447.3 438.8 428.7 412 402 388.7 372.4 358 349.5 332.5 317.7 303.5 291.5 280.3 268.5 253.1 232.7 218.4 211.6 208.7 204.3 200.9 199.6 199.2 199 199.2 199.1 198.2 198.3 197.9 200.3 210.6 214.9 216.1 218 219.8 224.9 231.4 239.3 248.5 255.8 262 270.2 270.7 272.4 269.5 267 264.1 260.8 255.6 252.2 249.5 247.7 245.6 244.3 243.9 243.6 243 241.2 236.8 232.6 230.5 232.3 232.4 226.3 221.9 214.9 206.9 208 206.4 203.3 203.2 199 199 196.8 195.4 194.1 188.1 184.2 184.2 184.8 187 191.1 196.9 202.2 203.5 211.1 224.5 241.2 258.1 272.5 283 296.4 311.9 319.4 332.1 337.6 339.4 344.4 347.8 348.3 349.3 359.4 367.9 380.2 392.2 409.6 421.8 425.8 420.9 398.4 379.9 360.9 346.7 333.1 322.2 315.3 307.5 303.8 303 303.7 302.4 298.1 293.9 290.6 286.2 283 283.9 282.5 280.3 276.2 272.5 268.8 266.1 263.7 263.2 263.2 263.3 263.5 263.1 262.5 261.1 258.6 255 252.3 249.4 245.3
375.6 380.6 392.6 408.6 421 427.1 427.1 423.3 415.9 404.4 392.4 381.1 353 345.3 327.6 313.2 302.1 295.7 291 282 271.5 259.6 253.9 253.9 253.9 253.9 253.9 258.8 292.2 328.5 377.2 413 417.6 423.6 430.3 434.7 437.6 439.8 434.1 433.1 435.7 434.8 438.3 436.3 436.5 437.7 448.3 457.9 466.6 473.4 469.2 465 459.6 452 447.5 437 423.7 415.7 400.2 382 363.2 350.8 333.4 317.7 299.8 289.2 277.7 264.7 249.9 228.9 216 206.9 204 201.4 199.3 199.4 198.9 198.6 198.8 198.9 200.2 202.1 204.9 209.2 215.3 219.5 223.1 227.7 234.7 243.8 250.6 258.8 267.5 274.8 282 283.7 282.5 279.3 275.1 272.1 268.7 261.9 259.7 258.6 256.2 252.7 249.9 249.1 248.4 247.3 247.1 246.5 242.7 240.3 243 248.2 244.1 239.2 234.8 226.4 218.9 218.7 218 216 214.3 209.2 209.2 209.6 206.3 203.5 198.4 190.5 188.3 185 187.3 187.9 188.9 190.7 198.1 200.5 207.1 220.8 238.6 246.7 256.3 272.8 289.1 303.5 309.2 311.3 315.1 322.5 328.6 333.7 347.6 360 371 384.8 398.8 414.2 418.1 407.8 391.8 374.7 357 342.2 331.1 321.2 312.5 306.6 299.8 297.6 297.3 298 295.6 292.2 288.6 285.6 281.7 277.8 277.3 275.9 274.8 271.3 267.2 265.7 263.8 261.7 260.5 261.5 261.6 261.4 261.4 261.2 260.3 256.8 252.5 249.8 247.1 243
353.4 360.7 378.1 394.7 414.5 420.3 423.2 421.4 415.5 408 399.3 385.6 376.6 363.1 344.7 329.4 310.5 303 296.2 288.6 279.3 264 253.9 253.9 253.9 253.9 253.9 259.5 289.1 326.6 376.1 418.3 419 420 428.4 431 432.8 437 438.8 444.4 451.3 449.2 448.1 440 440.3 440.2 449.4 459.4 471 481 474.1 468.2 460.7 455.2 450.5 443.5 431.9 429 415.6 396.4 386.1 362.9 342.8 318.8 295.7 283 269.8 255 239.7 223.4 211.3 204.5 201.6 199.9 199 200.6 201.3 200 202.4 206 209.4 212.3 214.2 218.2 224.2 229 236.8 246 254.9 262.8 271.1 279.7 284.4 291.6 294.2 292.9 288.4 285 280 275.8 269.6 265.9 265.9 264.7 261.6 259 256 256 255.6 255.1 254.3 252.4 250.1 252.6 258.1 259.1 252.6 248.8 246.3 237.8 232.4 231.2 232.1 229.5 225.6 218.1 221.1 220 217.8 215.6 213.5 206.8 200.3 195.2 189.8 188 188.2 188 187.8 189.6 193 198.4 209 222.1 236.7 246.9 260.6 275 284.3 285 285.6 306 323.4 335.8 348.7 362.7 377.9 393.3 405.2 410.1 402.8 379.8 364.4 348.7 336.1 326.3 317.7 310.6 302.9 294.6 291 291.1 292.2 292.3 289.7 287 284 280.9 277.4 272.7 270.6 269.7 269.6 265.2 261.1 261.4 260.5 258.9 257.7 259.1 260.8 260.8 260.9 260.7 257.8 254.1 250.5 247.9 245 241.7
338.8 353.5 367.8 377.4 403 415.3 419.1 418.2 415.6 411 406 398.8 394.2 385.2 366.2 346.3 326.5 312.1 303.3 297.7 287 260.1 253.9 253.9 253.9 253.9 253.9 257.5 284.5 321.4 374.4 429.5 430.1 423.9 427.2 429 430.8 435.9 440.6 451.1 451.1 449.9 451.1 450.4 445.2 446.7 452.8 463.2 471.9 480.3 477.8 471.3 461.7 455.4 450.4 442.2 436.3 430.4 419.9 405.1 390.3 365 334.4 314.4 288.9 273.3 261.5 244 230.9 213.9 206.9 201.6 200.3 199 199.7 202 204.3 208 210.1 214.1 216.7 221.4 226.6 230.1 237.4 247.7 257.5 269.4 278 284.3 291.2 297.9 300.3 302.8 302.9 299 294.5 289.9 285.2 280.2 274.2 272.4 272.8 270.6 267.4 265.3 260.7 262.4 263 263.9 262.7 262.4 263.1 267.9 272.5 271.9 263.8 261.1 256.4 250.7 247 246.2 244.9 241.5 234.5 235.4 232.6 232.4 232.4 233.1 231.2 226 216.2 210.8 198.2 188.4 188.1 188 187.8 187.9 188.5 189.3 195.1 204.9 215.3 221.7 238.7 245.7 255.7 272.7 295.6 313.4 323.9 332.1 349.3 368 385.5 400 404.3 395.5 371 357.2 344.8 332.9 319.4 310.3 304.5 298.6 290.7 283.1 283.2 284.2 285.7 287 285.8 283.3 279.2 276.1 273 268.8 266.3 265.8 264.4 260.6 258.7 256.5 256.1 255.5 254.3 254 257.1 258.1 259.1 258.2 255.5 251.7 248.3 245.7 243.7 241.1
336.3 339.6 354 361.5 386.4 409.6 416.8 417.2 418 416 412.1 406.7 405.2 400.6 387.1 368.6 343.8 324.6 312.5 304.8 293.5 263.4 253.9 253.9 253.9 253.9 253.9 254.6 277.5 311 356.5 404.7 432 430.3 428.9 429.8 432.3 437 441.1 448.5 451 452.3 454.5 455.2 453.2 453.6 456.6 465 471.4 476.8 475.4 469.8 458.7 455.9 448.4 438.9 434.4 428.8 420.3 404.8 389.4 356.5 328.5 306.9 283.1 270 252.2 235.3 215.8 209.5 204 200.6 199 199.5 202.5 205.4 210.4 214.7 219.9 227.2 230.1 233.8 241.4 252.1 261.8 272.7 283.6 291.8 297.8 302.1 307.4 310.2 311.5 310.7 309 303.6 299 295.6 289 280.3 281.9 280.5 279.8 277.4 274.5 271.8 268.9 269.6 271.7 273.2 272 276.6 281.4 286.5 287.1 285.9 278.3 273.2 268 263.9 260.3 257 255.2 253.6 246.9 245.4 244.5 247.8 250.3 250.7 250.3 249 239.6 226.5 202.1 191.2 188.1 187.9 188 188.3 188 188.2 188.1 190.2 197.6 206.9 220.6 238.9 257.7 276.1 290.9 306.6 318.7 335.9 355.8 372.4 386.7 400.5 390.5 368.8 350 336.7 328.3 319.4 307 300.9 293.9 284.7 276.7 275.8 276.4 277.6 278.8 281.1 282.3 279.6 274.3 271.1 268 263.3 261 261.5 259.9 258.7 254.6 251.8 251.6 251.6 250.7 249.8 253.1 254.1 255.1 254.9 252.5 249.9 246.5 243.4 241.5 240.5
347.1 327.9 331.4 343.1 375.2 399.1 410.3 417.4 419.7 420.5 422.2 420.8 417 407.9 398.3 383.1 363.9 344.2 326.6 311.9 296.5 275.9 253.9 253.9 253.9 253.9 253.9 253.9 270.2 302.1 339.2 379.4 420.5 432.5 429.6 433.3 437.5 439 439.9 445.1 449.6 453.8 457.8 459.4 457.3 457.5 459.3 465.4 471.3 472.6 471.2 466.9 459 451.3 439.4 440 430.7 426.6 417.8 404.4 386.1 350.8 322.4 296.9 276.1 265.5 240.2 223.5 208.4 202.3 199.9 199.5 199.8 202.5 206.5 212.1 219.2 224.3 234.3 243.6 246.4 258.4 270.2 279.7 288.2 297.9 307.2 313.3 317.2 320 321.3 321.6 320.5 318.7 314.1 308.4 305.1 300.5 289.7 291.6 290.1 288.9 287 284.8 284.5 282.8 280.1 279.7 280.6 282.9 287 292.3 297.7 300.5 302 299.7 293.7 287.1 282.2 277.1 272 268.3 266.4 262.5 258.7 257.1 259.6 264.6 266.7 267.3 272.8 272 258 234.8 215.9 199.7 191.1 187.9 188 187.9 188.1 188.3 187.9 187.8 190.4 201.6 215.8 233.6 255.5 273.9 290.4 306.7 325.2 346.8 363.5 378.3 389.3 383 365.8 345.5 333.5 322.7 317.4 307.5 298.8 289.7 278.5 271.1 266.6 267.5 270 271.4 273.8 275.9 276.6 272.9 268.7 265.7 262.6 259.3 258.1 257.1 255.6 253.9 250 249.1 249.5 250.8 249.1 248.5 249.2 250.2 250.8 250.6 249.2 246.7 243.9 241.3 238.8 236.8
350.5 330.6 310 325.9 350.1 382.4 398.3 411.5 421 423 427 427.7 429.4 424.3 408.2 392.4 380.5 363.1 340 324.6 301.9 279.5 253.9 253.9 253.9 253.9 253.9 253.9 260.3 292.4 322.7 359.6 400.4 428.3 434.9 440.2 441.2 439.2 441.8 446.5 451.9 457.4 461.1 461 459.8 458.7 459.1 464.5 469.8 466.4 465.4 461.5 453.3 447.2 442 436.7 427.3 423.6 413.4 398.5 371 335.1 307.9 285.6 267.6 241.6 230.9 212.8 200.2 199.5 200.2 200.9 203.5 208.5 215.1 221.6 233.1 239.5 252.2 255.4 266.5 285 294.7 303.6 312.9 319.8 325.2 327.7 330.3 333.3 332.5 330.8 328.9 325.5 321.1 314.7 308 303.9 301.5 301.2 297.5 296.3 295.5 296.4 295 292.2 288.6 289.7 291.8 294.2 298.6 306.2 311.7 315.5 321.2 316.8 312.3 303.8 296.3 290.5 281.1 277.7 276.4 270.8 272.1 272.4 277.5 281.5 287.2 286.5 288.5 287 273.5 252.9 229.6 214.6 197.7 189.9 187.9 188.1 188.1 188 188.1 187.9 188.7 197.8 210.4 232 252.3 273.1 291.8 311.7 331 350.5 369.1 382.4 376.1 357.1 343.3 330.5 322.5 315.6 308.3 300 291.9 281.6 272.3 261.8 260.3 263.1 264.8 266.2 268.4 270.7 270 266.7 264.7 261.8 258.8 256.4 254.6 253 252 251.1 249.8 249.5 249.6 249.1 244.1 243 244.9 246.2 246.6 246.3 245.9 243.5 241.8 239.5 234.4 232.8
342.2 314.6 299.8 314.7 325.8 346 375.6 407.4 416.5 422.2 428.3 431 430.7 426.1 417.1 402.1 388.8 376.9 360.5 349.3 317.7 279.6 254.3 253.9 253.9 253.9 253.9 253.9 256.7 279.8 306.7 339.9 387.7 421.8 440.3 442.5 441.7 444.9 448.9 450.6 454.9 461 467 468.9 461.8 460.6 458.8 461.3 461.2 458.8 459.8 455.8 449.4 448 441 431 422.1 416.3 402.7 379.4 345.4 316.9 295.3 271.8 240.5 231.8 218.9 205.1 199.6 199.5 200 202.6 207.8 216.1 224.7 237.2 250.5 262.6 277.6 284.3 296.3 310.4 320.3 327.1 332.1 336.2 340.4 344.5 345.5 347 345.8 341.3 335.7 330.3 324.3 317.5 312.2 311.4 312.3 312.2 306.4 309.7 311.4 310.7 307.9 305.2 298.1 300.2 302.6 305.7 312.7 321.3 326.1 332 333.5 332.1 328.4 327.1 312.4 305 296.9 289.9 288.8 284.8 286.6 287.8 294.1 302.3 310.2 306.5 307.3 313.5 293.5 274.9 254 232 210.5 196.2 189 188.2 188.1 188.2 188.2 188 188 191.8 205 224.2 245.4 268 291.1 315.3 337 358.6 374.4 378 356.9 345.8 333.3 323.3 317.1 310.7 301.6 293.6 283.6 274.1 263.3 256.6 257 258.2 259.5 261.3 263.2 264.5 264 262 260.4 257.9 255.2 253.1 251.4 249.6 249.1 250.9 251.3 250.1 250.4 250.8 242.4 239.6 241.1 242.6 242.5 242.2 241.9 241.5 240 236.9 232.6 232.6
324.3 305.1 297.7 301.9 313.7 322.4 345.5 371.4 383 413.3 430.5 433.2 430.2 423.3 414.9 405.7 397.3 384.8 375 356.9 327 285.5 260.7 253.9 253.9 253.9 253.9 253.9 253.9 265.9 294.5 324.2 356.9 395.4 430.8 441.6 444.7 448.4 451.4 453.5 457.4 459.4 467.2 470.2 462.8 460.9 459 460.9 460.5 455.4 454.6 452 449.2 444.7 437 427.9 417.3 405.3 383.2 352.4 324.4 298 275.3 245.2 232 219.1 212.8 199.3 200.2 200.1 203.6 207.4 214.8 224 238.1 259.1 273.3 290.2 302.5 311 323.4 334.3 339.1 346.4 349.3 352 355.8 359.7 358.8 357.7 355.7 348 342.1 333.8 326.2 322.1 323.3 324.3 328.1 328.1 322.4 325 325.8 325.5 322.7 320.6 307.1 313.2 313.6 316.1 324.2 331.9 340.5 346.4 347 348.1 346.8 347.4 330.2 320.1 313.4 302.4 298.9 297.3 298.3 304.2 313.5 325.6 332.3 331.6 330.7 327 315.6 295.5 274.2 244.2 226.1 205.7 193.9 189 188.2 188.4 188.3 187.9 187.9 187.9 193.1 214.1 237.6 260.6 284.8 309.5 332.8 352.6 368.2 355.2 343 332.3 323.3 317.1 311.2 302.7 294.9 287.6 276.1 265.5 256 252.8 252.7 253.5 254.8 256.5 258 258.1 258.1 257.2 255.7 254.1 251.7 250.2 250.9 249 249 250.1 251.7 251.6 251.2 249.1 240.8 239.2 238.5 238.8 238.6 238.3 238.3 239.4 237.8 234.7 233.5 234.8
313.1 301.1 291.9 291.8 303.3 306.7 319.5 335.5 352.5 371.1 400.5 419.4 425.9 420.8 415.9 408.8 401.8 393 378.1 373.1 333.6 292.9 266.9 257.1 253.9 253.9 253.9 253.9 253.9 257.4 280.7 309.4 345.9 379.1 419.1 439.5 446.6 450.1 454 459.4 460.5 463 469.8 468.6 460.9 458.1 456.8 459.5 459.5 450.7 448 447.8 446.3 439.8 434.4 423.8 405.3 379.7 352.9 326.5 302.4 281.5 241.4 231.7 220.5 213.8 206 199.7 200 200.2 205.4 212.5 225.8 237.1 254.4 278.6 298.2 315.6 326.5 332.2 343.6 350.7 356.2 361.7 364.4 367.7 370.6 370.9 371.2 368.9 362.6 355 346.4 337.1 332.8 334.2 335.4 339.4 343.6 345.5 343 341.6 340.7 339.7 336.2 326.6 322.6 326.2 327.1 326 335.7 346.7 358 359.5 362.8 364.8 366.8 365 350.9 338.3 328.1 317.7 311.3 310.7 314.1 321.2 331.2 340.8 343.9 344.5 345.9 342.8 336.3 321.6 287.6 258.2 242.1 219.4 204.6 197.3 193.1 190.8 189.9 189.2 187.8 187.8 188.1 196.6 212.8 232.7 254.5 277.8 303.4 322.4 336.9 330.8 326.7 320.9 316.8 311.8 303.4 294.2 286.8 277.3 264.1 255.4 250.2 247.4 248.2 248.9 249.4 251.2 252.8 253.2 253.4 252.4 250.6 250 247.8 247.6 247.7 249 249.4 250.9 250.5 251.3 249.4 246.3 240.9 236.9 234.4 234.4 234.2 233.8 235 237.4 237.9 236.9 237.9 239.5
311 302.7 293.2 289.1 295 300.1 300.1 314.3 326.6 340.3 355.6 381 409.7 417.3 416 410.7 406.8 401.5 389.2 376 342.7 300.2 281.4 262.1 254.3 253.9 253.9 253.9 253.9 253.9 269.3 296.3 327.3 368.2 405 432.5 441.9 449.8 455.4 460.2 463.7 467.5 470.1 466 461 453 449.9 459.2 460.3 447.3 439.9 441 440.5 431.8 422 403.9 379.3 350.2 327.2 304.9 286 250.2 230.1 219 213.5 209.3 207.2 202.9 203.8 205.7 211.6 222.5 235.2 255.3 277.6 299.8 317.1 331.7 342.2 346 356.8 365.3 371.4 377.3 379.4 381.1 382.4 382.3 380.5 374.2 366.2 356.6 348.1 345 346.3 351.3 350.1 356.4 356.2 361.2 359.5 356.5 352.1 352.2 344.6 334.6 336.5 336.8 337.1 336.5 347.4 359.1 366.8 371.7 376.4 382.1 387.9 386.3 370.1 355.4 340.6 330.2 323.6 325.9 327.9 336.7 346.8 350.7 353.4 357.4 358.1 354.6 350.9 331.1 299.6 274.3 252.2 230.2 219.5 209.8 203.4 196.9 193.3 190.6 188 187.8 187.9 191.6 198.8 210 229.1 251.3 271.8 294.1 305 310.9 310.8 311.2 310.3 304.3 296.9 289.7 279.4 269 256.9 250.7 245.6 242.6 243.4 244.1 243.5 245.4 247.5 248.4 248.7 248.7 245.3 242.4 241.1 243 245.2 247.9 249.9 250.9 250.8 250.9 247.2 243.7 239.7 235.1 230.7 230.3 230.2 229.7 231.8 235.3 237.5 239.1 240.4 240.7
310.6 299.6 292 289.6 289 289.3 286.4 296.1 304.5 315.7 328.4 343.5 363.7 387.3 412.1 409.3 402.2 400.4 397.2 382.8 341.7 305.3 285.8 265.3 254.8 253.9 253.9 253.9 253.9 253.9 260.4 286.7 316 348.9 384.2 422.8 440.1 449.5 457.6 463.3 467.8 469.4 469.4 465.1 460.6 449.2 445.4 454.7 456.2 443.1 436.1 435.3 432.9 422.4 406.2 387 356 328.9 303.5 282.2 252.8 233.5 224.9 212.3 209.5 207.8 207.8 207.9 210.6 213.6 221.5 234 250.2 275.3 298.7 317.8 332.4 342.8 353.7 360.6 370 380.2 386.9 393.4 393.8 396.2 394.5 394.1 386.9 378.3 369.9 361.9 358 360.4 361.8 365 367.4 372.1 372.6 378.7 376.7 372.6 366.6 360 348.9 345.6 347.2 346.7 344.6 346.8 357.8 366.3 374.2 379.5 388.9 390.1 390 389.3 380.5 364.8 352.7 339.6 335.3 336.3 341.8 352.4 360.5 362.6 366.6 371.6 368.8 362.9 354.6 342.2 321.5 291.9 264.4 241.5 231.5 222.4 215.5 206.9 197.2 193 189.2 187.9 187.8 189.5 195.5 203.8 211.7 227.8 248.8 271.5 286.4 292.2 295.3 298.9 299.4 295.8 290.6 285.2 276.5 264.5 255.1 248.6 243.1 239.5 239.1 240.9 239.9 240.9 242.5 243 243.4 243.1 241.5 239.2 239.2 240.6 243.3 246.2 249.7 250.9 250.9 250.4 246.5 241.7 238.2 231.9 228.9 228.5 228.2 226.6 229.9 232.7 235.2 237.4 239.2 239.8
314.6 306.1 299.8 294 290.6 287.9 279.7 283.7 290.6 295.8 305.3 319.5 332.4 348.7 369.1 389.8 393.7 401.2 396.4 376.2 334.1 306.5 284.9 268.2 255 253.9 253.9 253.9 253.9 253.9 258.9 280.6 307.8 347 383.1 409.1 434.9 450.2 458.4 464.6 468.9 469.9 467.8 463.6 458.2 448.5 438.3 449.3 448.9 440.7 433.1 425.5 422.3 411.1 389 369.4 344.3 317.5 290.3 265.8 237.7 230.3 216.9 209.7 207.9 208 207.8 209 216.3 225 232.6 245.1 268.2 294.4 319.5 334 348.1 354.4 362.5 374.4 385.7 396 402.3 404.3 405.2 405.7 404.3 401.4 395.4 385.5 378.4 374.3 372.8 375.4 377.3 378.4 382.1 388.5 390.2 395.6 392.5 383.4 373.4 363.7 356.2 356.3 356.2 353.6 351.3 356.8 367.5 375.1 383.5 389.7 391.2 390.5 389.5 390.9 377.7 365.8 357.9 352.2 349.2 350.5 356.3 366.4 374.5 375.7 377.2 375.8 372.5 366.5 355.4 345.7 332.2 308 283.4 259.6 252.4 236.6 226.9 216 205.1 194.9 189.7 187.9 187.9 189 194.6 202 207.8 215.6 231.7 254.1 270.9 277.7 284.9 290.6 293.4 291.9 287.6 282.2 271.6 260 253.3 244.9 239 236.9 237.4 237.3 236.2 236.6 237.8 238.7 239 238 236.9 236.6 238.5 239.7 242.3 246.6 249.9 250.9 250.9 249.2 245 240.2 235.6 229.9 227.3 225.7 224.6 222.8 226.1 229.8 232.3 233.7 235.1 236
325.3 315.5 306.8 300.6 298.5 295.1 285.1 278.9 280.8 282.9 287.3 294.3 306.4 319.9 335.6 353 371 376.4 363.3 347.3 325.1 297.7 283.2 265.5 254.7 253.9 253.9 253.9 253.9 253.9 257.9 277.3 304.5 337 378.8 405.6 428.1 445.1 457.7 464.4 465.7 465.8 463 459.4 452.9 443.6 429.9 436.9 441.4 435.4 429.2 418.9 403.6 395.7 373.8 354.5 336 310.7 276.2 255 233.8 218.8 208.6 208 208.5 208.3 208.7 213.9 222.2 234.5 244 260 285.6 312.2 338.6 352 361.2 368.8 377.7 389 401.6 409.4 415.3 415.9 415.9 413.2 411.7 410.4 405.7 398.4 397.9 389.1 387.2 391.5 391.7 395.4 399 404.4 405.6 409.4 402.8 387.5 375.8 368.5 366 363.5 362.8 359.7 358.7 367.3 375.7 380.1 390.1 390.1 391.7 399.5 397.3 384.9 374.1 367.7 364.5 362.1 362.6 363.7 370.1 375 378.3 381.3 381.5 380 377.9 371.4 362.4 354.6 345.2 326.3 302.1 287.6 281.7 258.8 243.5 228.6 217.2 198.6 189.7 187.9 187.9 188.9 192.8 199.8 204 209.9 219.4 235.2 252.5 267.2 279.5 285.7 289.2 288.3 284.5 277 266.3 257.5 249.4 240.4 235.6 234.1 233.9 232.9 232.2 232.4 233.5 234.6 235.3 234.3 233.4 233.3 236.2 239.4 241.9 246.6 250.3 250.9 251 249.8 245.1 238.8 233 229.2 225.3 223.2 221.2 220.7 223.2 226.7 229 230.6 230.8 231.4
339.5 328.9 322.6 313.6 309.7 304 283.4 279.1 277.7 271.7 275.4 280.3 287.1 298.8 312 322.8 333.6 343 343.1 332.3 311.5 295.8 279 263.2 254.4 253.9 253.9 253.9 253.9 253.9 258.2 278.3 306.1 335.2 372.8 402.9 425.3 443.9 454.5 460.2 461.3 461 456.3 449 441.1 431.8 418.7 423.9 430.1 429.3 424.2 417.9 397.2 371 365.7 349.5 321.6 288.6 264.1 240 225 210.5 208.3 208.1 210 211.8 213.9 220.5 230.8 242.6 251.7 271.1 300.4 326.6 349.1 362.2 375.3 386.1 397.4 407 414.8 424 427.8 425.5 424.3 423 421.8 421.1 414.4 410.6 409 402.5 403.5 405.3 406.2 409.9 412.6 419.7 420.5 416.3 404.2 385.8 376.4 373.4 374.2 372.3 370.2 370.8 378.4 378.3 378.1 380.4 387.5 395.4 401.3 403.8 391.5 381.7 375.4 371.6 370.6 369.2 371.4 374.6 380.1 384.6 386.5 388.8 388 387.3 381.3 375 368.7 362.2 354.7 338.5 319.1 305.8 295.1 278.6 263.2 244 224.7 202.1 189.3 188 187.9 189 191.9 197 202.3 208.5 216.8 230.3 246.1 263 278.1 285.6 289.3 285.7 278.3 270.4 259.3 251.1 243.4 237.6 233.1 231.8 231.3 230.4 229.3 229.7 230.1 230.6 231.5 230.6 230.6 232.3 236.9 239.6 242.4 247.6 250.3 251.2 251.4 251 244.6 238.3 233 229 223.2 220.8 220.1 220.3 220.7 224.1 226.4 227.3 227.1 227.4
357.9 347.5 339.3 326.1 316.8 309.3 293.8 281.4 277.7 272.1 269.5 270.2 275.6 283.7 291.5 300.4 306.9 317.3 318.6 312.3 300.4 291.8 274.6 257.8 253.9 253.9 253.9 253.9 253.9 253.9 260.5 282 307.6 339 373.2 403 424.4 441.2 450.9 458.1 460.6 456.8 447.9 440.4 426.9 415.5 405.2 409.4 424.7 423 416.7 407.8 378.6 347.1 338.5 328.2 304.8 279.8 253.9 231 213.2 208.2 208.1 210.6 218.3 219.3 219.6 230.2 240.9 250.8 261.7 282 311.1 342 360.3 374.3 390.3 403 413.3 425.8 430.9 433.8 436.2 434.4 431.5 431.2 431.1 427.7 422.7 419.8 418 415.4 415 417 419 420.9 425 429.4 427.6 412.7 397.7 383.7 379.4 379.5 380 380.6 378.8 381.4 384.4 386.6 392.5 397.2 395 399.1 395.1 388.6 384.5 380.6 379.9 379.2 376 375.2 379.7 381.1 384.8 390.1 390.7 390 390.2 388.7 381.4 378.3 376.9 370.7 360.3 344.1 327.6 318.1 306.3 292.6 282.8 258.7 231.4 201.4 188.9 187.9 187.9 189 190.9 195.4 200.4 206.5 216.8 233.9 251.4 266.1 277.5 284.9 290 281.8 272 264.5 253.8 244.3 238 233.5 230.4 229.3 228.7 228.4 228.2 228.1 228.1 228.4 228.8 229.1 229.7 230.8 235.1 239.8 243.6 247.3 249.7 251.2 251.4 250.4 243.8 238 233.2 228 221.6 219.1 219.2 220.7 220.4 222.3 224.2 224 223.5 223
373.7 362.9 353 341.6 329 321.3 306.3 295.9 288.3 279.2 272.8 268.1 262.5 269.1 275 282.8 289.5 297.7 295.6 290.9 286.5 277 262.6 254.2 253.9 253.9 253.9 253.9 253.9 253.9 270.9 288.6 313.9 347.4 381 408.3 425.6 440.9 449.5 455.5 455.5 451.2 440.3 425 407.5 394.8 389.1 396.6 406.4 407 397.1 386.9 370.9 328.7 305.6 306 297.4 266.9 241.4 219.7 208.9 208.4 210.8 222.9 228.1 226.9 228.5 242.3 253.8 262.7 270 292.6 319.1 346.9 370.9 388.4 406.2 418.5 429.9 438.3 447.3 447.1 444.5 439.6 435.6 435.6 435.6 432.4 429.9 429.9 428.2 425.4 423.8 424.3 427.7 430.6 431 431.7 426 407.9 392 384.6 381.8 383 383.8 384.8 384.6 387.2 392.5 400.7 401.5 401.3 400.7 397.5 390 387.9 386.2 383.3 380.4 380.6 378 378.4 379.3 379.3 379.7 384.8 389 389.5 390.1 387.3 383.4 381.3 380.4 375.9 366.4 348.4 334 324.9 314.6 306 293.9 263.1 232.4 200.4 191.3 188.5 188.1 188.2 189.4 191.1 195.9 206.7 225 240.9 256.8 272.7 280.5 285 283.4 273 264.2 257.7 249.7 240.6 234.2 230.8 229 228.5 228.4 228.4 228.3 228.2 228.1 228.1 228.2 228.6 228.8 229.2 234 238.6 242.5 246.3 249.1 251 251 247.9 241.8 237.4 232.2 226.9 221.7 219.2 219.2 220.5 220.7 221 222.3 221.1 221 218.1
390.3 379.2 366.6 357.8 343.2 333 324.2 309.1 300.3 291.8 281.4 272.4 266.1 260.4 260.6 269.7 274.4 280 278.8 276.9 275 266.2 255.8 253.9 253.9 253.9 253.9 253.9 253.9 258.1 280.3 297.9 324.9 358.3 388.7 414.4 429.3 443.5 451.9 453.1 451 447.2 437.6 415.8 391.2 370.2 362.4 385.2 391.6 391 376.5 367.8 350.8 303.3 280.7 274.9 268.3 247.6 230 213 208.4 211.6 222.4 241.6 256.1 243 236.6 249.2 259.7 267.8 282.6 306.9 332.2 357.7 383.1 405 416.9 433.3 440.1 448 454.7 453.8 449.5 441 438.1 438.6 438.5 437.3 434 435.8 435.1 430.9 428.5 429.2 429 429.5 432.1 429.7 416.7 401.9 390.7 385.2 384.7 386.1 386.8 387.7 390.2 395.8 400.9 401.3 400.7 400 399.7 395.3 391.3 389.6 390 387.6 384.9 381.3 378 378.1 379 378.1 378.5 380.1 384.4 386.9 385.3 382.9 383.4 382.9 381.9 377.4 366.3 349.6 338.9 332 326 316.1 293.3 267.7 230.8 202.1 196.5 194.7 188.3 188 188 188.4 193.2 211.6 229.5 248 261.9 272.8 279.4 277.5 269.6 264.6 258.6 254 247.6 239.1 233 229.1 228.3 228.3 228.3 228.4 228.3 228.2 228.1 228.1 228.9 229 229.2 229.4 233.7 237.8 241.1 244.1 247.1 248.7 248.2 243.5 240.6 237 232.7 228.2 223 220.2 219.1 219.6 219.7 220 220.4 220.5 217 213.9
414.2 401.6 387.7 375.6 363.2 348.2 338.2 324.7 312.8 301.3 291 282.6 275.7 268.4 259.5 257.5 261.4 263.3 265.4 266.4 262.2 254.3 253.9 253.9 253.9 253.9 253.9 253.9 254.3 265 285.8 311.8 337.7 370.1 395.8 418.1 431.7 445.5 453.7 453.5 452.1 448.1 438.7 407.7 381.7 347.4 351.5 368.9 363.4 351.6 337.3 310.1 300.4 274 254.5 246.7 237.9 226.9 216.5 209.9 208.6 219.5 235.4 260.1 271.5 262.5 250.6 253.8 264.4 276.9 296 314.8 341.8 366.1 390.8 413.4 427.8 445 452.9 456.9 459.5 458.6 451.9 447.1 440.3 438.9 440.4 440.2 440.1 439.8 437.2 433.2 430.7 429.9 428.5 427.1 425.6 418.1 406.8 397.5 391.1 387.8 387.5 388.6 389.5 392.5 398.7 400.8 401 400.8 399.4 399.4 399.3 396.9 397 398.9 395.8 393.8 390.4 385.4 378.8 377.9 378.3 377.9 376.2 377.9 378.4 378.3 379.8 381 382.4 382.3 380.6 374.5 362.6 352.3 343.2 337 333.4 320.9 290.9 258 225.8 206.2 204.8 203.9 189.8 188 188 188 201 220.8 236.4 250.9 268.9 276.1 279.3 273.4 266.8 261.6 257.2 252.7 247.2 239.8 232.9 228.5 228.2 228.2 228.3 228.3 228.3 228.2 228.1 228.3 229.5 229.4 229.6 232.1 236.6 240.1 240.7 241.9 243.8 244.6 244.2 242.1 239.5 236 231.9 227.9 223.5 220 218 218 216.5 216.2 216 216.3 213.2 209.6
422.4 412.5 401.7 391.7 379 365.7 353.3 338.5 326.3 312.3 304 293.2 283.8 277.3 270.7 259.4 253.9 254.8 256.1 257.3 253.9 253.9 253.9 253.9 253.9 253.9 253.9 253.9 258.5 277 291.5 321.5 350.3 376.6 401.8 420.7 431.6 445.3 451.4 454.6 454.4 442.3 402.5 369.2 342.3 324.3 325.8 325.9 313.1 303 292.1 273.2 253.6 243.4 241.8 228.4 217.3 214.1 210.6 208.3 216.5 234.9 248.8 274.5 280.7 266.2 254.5 261.9 271 284.3 306 324.1 347.2 376.4 400.6 420.5 436.6 453.1 459.2 461.8 461.3 459.6 456.2 451.9 445.2 439.2 439.6 442.7 441.1 440.8 438.7 435.1 431.1 427.5 424.2 420.7 416.7 407.7 400.9 396.3 392.4 391.3 392.6 394.2 397.6 400.7 401.3 400.6 400 399.2 399.4 399.4 400.1 401.3 403.4 403.3 400.7 399.2 397.6 394.7 385.6 377.8 374.9 374 374.5 375.8 377.2 379.4 380.8 381.2 381.2 380.4 374.6 368 359.2 352.4 346.8 343.1 337.4 318.5 288.6 248.6 223.2 210.5 211.2 209.9 198.9 188.1 188 188.3 208.7 233.7 247.3 258.9 273.6 280.4 280.7 271.6 265.7 260 254.9 250.5 245 240 233.1 229.3 228.8 228.4 228.2 228.2 228.2 228.2 228.1 228.4 230.3 230.1 231.2 234.6 238.2 240.7 241.6 242.8 243.1 241.4 241 239.6 237.5 233 230.6 226.8 223.1 220 217.7 215.1 212.6 211 210.9 211.2 211.5 208.9
422.4 413.7 403.7 394.8 384.5 372.5 360.7 348 336.1 323.7 311.9 303 293.9 283.7 275.6 270.2 259.4 253.9 253.9 253.9 253.9 253.9 253.9 253.9 253.9 253.9 253.9 257.1 267 285.7 311.1 331.2 356.7 386.6 408.8 423.9 433.4 444 450.4 452.2 445.8 422 372.9 338.7 317.3 300.7 299.2 290.3 282.1 278.2 265.9 245 237.8 224.3 218.2 217.8 210.9 209.9 208.8 219 235.8 248.8 268.8 289.2 281.8 266.5 260.9 265.3 274.9 294.2 318.4 337.4 357 380.9 404.1 423.4 437 450 459.6 463.4 462.8 465.7 460.5 455.2 447 438.5 436.6 431.6 429.6 432.2 433.2 431.2 427.7 421.8 419.4 414.8 409.7 406.3 400.6 399.2 397.9 397.8 400.1 400.1 400.9 400.8 400.1 399 399.4 399.2 399.6 400.9 407 410 409 408.6 407.9 405.5 401.6 397.2 388.1 378.7 376.3 373.4 372 370.4 372.9 377 380.9 379.3 374.4 368.7 363.9 359.9 356.9 353.7 350.9 349.3 340.1 322 279 243.9 221.7 216.7 215.6 213.4 205 190 187.8 188.6 213.3 235.9 256.7 269.7 278.3 277.6 274.1 267.7 261.7 255.8 251.7 247.5 243.9 239.9 232.1 229.5 229.3 229.2 228.7 228.2 228.2 228.2 228.3 229.3 230.7 230.6 233.2 236.6 239.4 240.8 242.4 243.3 243.4 241.4 239.6 237 233.9 230.3 229.3 227.1 224 221.1 218.7 216 212.2 210 209.5 208.6 208.2 208.4
419.5 409.2 402 394.3 386.4 375.2 363.9 354.3 342.5 328.4 316.7 307.8 298.9 290.1 280.4 269.7 258.4 253.9 253.9 253.9 253.9 253.9 253.9 253.9 253.9 253.9 255.2 263.9 280.7 301.5 328.9 347.7 371.2 396.3 413.6 424.1 431.4 439.9 444.6 443.6 434.1 401.3 349.2 311.8 294 278.4 274.5 262 258.6 251.4 240 226.4 217.7 218 217.8 218 217 214.1 225.1 238.4 253.4 272.5 290 298.7 280.8 270.4 267.4 268.5 281.2 304.6 332.6 350.4 368.9 386.1 404.2 419.4 431.3 438.6 456.1 459.4 460.5 464.5 459 454.5 447 434.9 430 428.5 428.6 429.3 428.3 426.9 424.3 418.5 413.6 409.7 409 409.3 406.2 402.9 400.7 400.7 400.7 399.8 399.2 398.7 399.5 398.6 399.2 399.7 402 406.4 410.7 415.2 412.9 411.1 411 409.7 403.5 396.3 387.8 378.4 375.4 373.9 367.4 360.9 363 363.2 362.3 360.8 359.6 358.3 358.1 356.8 356.8 355.8 353.1 352.3 339.9 317.5 272.5 242.5 222.1 219.1 220.6 214.6 206.5 197 180.9 182.5 219.9 239.7 252.5 256.1 261.6 262.9 261 260.2 255.2 250.2 246.8 244.4 241.5 238.1 231.5 229.1 228.9 228.8 228.6 228.5 228.4 228.1 228.7 229.2 229.8 231.5 234.7 238 239.4 240.9 242.8 243.6 243.5 242 240.1 236.8 231.6 229.4 228.9 229.1 227.1 224.4 221.5 219 216 211.9 209.4 208.2 204.2 206.5
411.7 403.5 395.7 388.7 381.7 372.6 362.5 352.5 340.1 329.6 320.6 311.6 302.6 294.1 281.1 268.4 259.5 253.9 253.9 253.9 253.9 253.9 253.9 253.9 253.9 253.9 262.6 281.3 295.6 317.8 341.9 365.9 387.2 408.7 417.8 420.2 427.6 433.9 436.5 433.5 399 367.8 318.6 287.8 268.8 253.2 247.4 244.8 244.8 225.8 218.3 217 217.5 217.9 218.9 224.7 230.5 234.1 241.3 256.9 273.7 295.3 306.9 297 281.3 273.6 272.1 272.9 286.5 313.5 340.7 362.8 382 397.6 406.5 417 423.7 430.6 437.3 444.6 446.3 447.4 445 436.4 431.3 429.3 427.6 427.7 428.6 428 426.7 421.7 419.8 416.5 409.6 409.4 409.6 410.1 408.3 406.8 401.7 401 399.8 394.5 393.1 394.7 396.6 398.7 401.1 402.6 407.8 409.9 410.4 417.1 417.6 413.7 411 408.2 403 395 385.6 378 374.8 369.5 361 349.6 346.7 345.6 347 347.1 352.2 354.7 356.9 357.5 358.2 356.9 353.6 350.8 337.6 303.1 270.3 241.1 223.8 220.5 221 216.4 208.9 199.7 187.2 178 202.8 226.1 238.2 244.8 249.2 251.5 249.9 248.6 247.8 244.2 242 240.2 237.9 235.1 231.4 228.7 228.5 228.4 228.2 228.1 228.2 228.4 228.8 229.1 230.1 232.8 236.2 238.9 239.5 241.3 243.1 243.6 242.2 240.6 239.6 236.1 231.1 229.3 229.9 231.1 230.2 227.9 224.7 220.7 218 213.9 210.8 206.9 201.7 202.2
403.7 396.1 388.3 380.9 373.8 365.2 356.8 347.5 336.8 328.7 320.4 310.4 300.1 291.2 280.8 269.8 260.3 253.9 253.9 253.9 253.9 253.9 253.9 253.9 253.9 262.4 276.3 294.3 317.2 337.6 358.4 379.5 399.5 415.1 419.2 419.2 420.7 427.3 424.5 397.3 357.7 318.4 289.9 260.4 244.9 244.8 244.9 244.9 244.8 222 218 217.4 218.2 226.8 240 245.3 250.6 259.5 263 278.5 301.9 309.1 306.7 296.4 283.6 278.4 277.6 275 290.3 320.6 344.7 369.3 392.3 410.5 421 422 420 422 423.1 427.4 425.5 426.7 425.8 421.5 424.4 426.1 426.1 427.6 429 428.9 427.4 421.8 419.7 418.2 416.5 410.8 410.8 408.7 409 409.7 402.5 396.8 391.4 389 389.3 390.5 393.2 397.3 400.4 403.4 407.5 410.6 409.2 408.4 409.5 409.3 407.4 404.6 400.6 391.7 382.4 374.7 369.1 361 350.3 338.3 332.5 332 334.2 339.2 347 351.2 354.5 357.6 356.6 354.5 349.1 339.9 327.9 296.4 272.2 241.9 224.9 221.8 220.2 215.7 210.4 199.6 190.1 178.5 185.5 207 222.3 233.6 237.4 237.4 238.2 238.5 239 238 236.8 235.9 234.2 231.6 229.6 228.6 228.1 228.1 228.3 228.5 228.7 228.9 229.4 229.7 231.4 234.8 237.4 239.2 240.6 242.1 243.2 243 241.4 239.9 240.6 237.9 233.4 230.7 232.7 235.9 233.9 230.1 226.8 222.8 220 216.4 210.7 206.6 201.4 199.1
393 385.3 377.7 371 363.7 357.4 349.3 342.2 333.9 326.1 316.7 305.5 295.2 287.5 279.4 270.7 258.1 253.9 253.9 253.9 253.9 253.9 253.9 253.9 257.5 273.4 294.5 316.5 338.3 355 372.3 393.7 412.3 418.8 419.4 418.1 412.4 417.6 396.9 351.7 315.4 289.7 262.1 244.8 244.8 244.9 244.9 244.9 244.8 232.6 238 238.9 244.8 257.7 270 283.2 286.6 288.6 295.6 308.6 316.3 314.3 307.7 297.9 285.7 280.9 279.3 278 293.9 321.5 346 367.7 391 412.1 430.3 431.7 426.4 420.1 411.4 415.1 415.7 411.7 409.3 417 420.7 420.6 426.1 427.4 428.8 429 427.9 426.6 428.5 431.1 420.2 412.1 409.1 408.9 409.8 409.8 399.4 389.8 387.7 387.9 389.3 389.3 391.6 395.3 396.9 401.7 400.9 396.9 394 396.1 396.5 395.8 390.8 389 383.9 376.8 372.2 366.8 357.7 346.8 336.1 328 323 324.3 326.3 332 339.8 346.5 351.5 351.4 349.9 345.6 340.2 331.9 315.4 293 274.3 246 228.1 223.3 218.2 214.3 209.6 200 189.4 180 179.5 195.4 206.6 218.7 226.3 228.8 229.4 231.5 233.3 234.3 234.1 233.5 231.6 228.7 227 226.3 227.9 228.4 228.8 229 229.2 229.3 229.8 232.2 236.5 238.6 240.2 240.9 241.3 242.3 243 242.3 240.8 240.5 240.8 239.1 234.4 231.9 236.1 239.5 238.8 233.8 229.8 225.5 221.1 220 213.7 209.8 203.7 198.9
386.9 377.8 368.9 360.7 352 347.9 341.5 335.8 327.9 318 303.3 293.9 287.4 280.7 273.4 264.5 253.9 253.9 253.9 253.9 253.9 253.9 253.9 253.9 266.6 290.3 314.5 336.3 359.8 377 390.3 405.3 417.2 420.9 419.3 415 395.1 366.4 362.3 313.5 287.5 264.6 244.9 244.9 244.9 244.9 244.9 244.9 244.8 245.1 254.3 258 269.3 289.5 316 315.5 316.9 320.6 322.9 326.4 323.4 320.2 310.2 296.2 287.6 282.3 280.4 279.5 293.7 323.4 347.4 368.5 388.9 411.3 422.8 429.8 422.9 403.2 396.1 396.6 398.1 392.9 389.9 395.5 402.2 411.7 422 427.1 430 430.7 430.7 430.5 429.8 427.1 419.2 416.9 415 408 405 395.1 387.3 384.6 386.2 386.6 386.4 387 388 386.8 380.2 381.8 381.5 381.9 380.9 375.6 367.6 365 362 359.8 356.1 354.5 351.4 345 338.6 330 323.5 317.7 314 315.9 320.1 326.6 335.1 341.2 343.7 342.9 340 332.9 327 316.8 301.3 287.8 273.2 252.8 231.6 224.9 217.7 212.7 208.7 201.6 188.1 180.5 178.1 189.9 198.5 210.3 220.3 220.3 221.2 225.2 229.9 231.8 231.9 231.2 229.3 226.1 223.3 223.5 225.3 227.4 228.1 229.1 229.3 230.5 234.7 237.9 240.3 240.9 239.6 240.3 240.4 242.1 242.3 241.8 240.5 240.8 240.9 237.4 233.8 231.8 235.5 239.3 238.7 235.1 230.8 226 221.4 219.4 214.2 210.8 202.6 198.6
389.5 381.7 374 361.7 353.3 343.4 336.2 323.8 313.1 299.2 290.5 281.4 275.5 268.4 260.4 254.2 253.9 253.9 253.9 253.9 253.9 253.9 253.9 263.4 288.7 304.8 330.8 357.1 382.5 399.9 407.5 411.2 413.4 419.1 417.5 414.4 382.9 338.5 318.6 288.4 263.1 244.9 244.9 244.9 244.8 244.9 244.9 244.9 248.7 258.9 279.9 286.1 304.2 325.5 346.3 361.3 365.1 356.9 348.1 340.4 328.3 322.5 307.2 296.7 288.2 284 282 282.3 293.4 320.9 344.5 366.9 386.4 406.4 416.5 408 400.5 387.8 378.6 376.2 373.8 369.9 368.9 373.8 384 394 408.3 421.7 428.7 429.4 431.2 431.1 430.3 429 421 420.8 418.2 403.6 390.4 387.3 387.1 385.5 384 382.6 382.8 381.7 377.3 368.6 365 363 360.6 356.5 348.6 342.2 335.3 332.1 329.4 325.5 323.5 323.2 321.6 317.5 314.5 311.4 306.7 303.5 301.7 303 309 313.6 318 320.9 321.8 320.6 319.5 315.6 308.7 300.4 292.1 283.5 270.4 253.4 236.7 225.9 215 208.3 204.6 195.8 186.4 180.8 179.1 182.8 193.7 203.2 209.8 212.9 217.8 223.1 228.9 231.1 230.9 229.6 226.4 222.9 220.7 220.6 223 226.3 229 230.7 234.5 238.7 240.4 240.6 240.3 238.4 236.3 236.8 237.2 240.4 240.8 240.1 240.1 239.5 238.2 235.3 231.6 230.6 231.8 233.4 234.1 231.7 228.2 224 219.3 215.7 211.4 207.1 199.4 198.2
390.9 384.7 377.6 369.7 362.3 355.2 342.6 322.8 304.3 291.5 281.4 271.4 259.9 257 253.9 253.9 253.9 253.9 253.9 253.9 253.9 253.9 259 279.6 298.6 326.2 347.9 378 404.4 414.2 415.6 411.5 408.9 411.5 410.3 403.2 358 316.5 285.7 263.2 244.9 244.9 244.9 244.9 244.9 244.8 244.8 244.9 255.7 274.1 301.9 317.4 338.7 364 381.2 391.7 388.9 383.2 372.7 352.4 335.6 320 304.3 296.2 290 285.8 282.3 282.2 290.6 314.9 338.8 362.1 380.8 397.1 409.7 404.9 390.6 370.7 365 361.2 355.3 352.3 353.1 359.9 369.2 385.7 404.2 417.9 426.8 428.9 429.6 431.9 430.8 429.3 429.1 421.2 408.9 395.2 388.7 389 388.8 387.4 381.4 373.8 367 362.1 358.3 354.1 347.4 340.7 329.3 319.2 312.8 306.1 300.5 296.5 295.4 294.5 295.5 296.7 294.9 291.7 290 288.3 286.1 285.5 281.6 282.5 286.1 289.2 292.1 292.1 291.5 293.3 295.3 292.1 291 287.2 283.3 278.7 268.9 254.6 240.3 226.2 211.9 202.6 199.1 190.7 184.9 180.7 178.9 179.8 190.3 195.6 202.9 207.7 214.1 221.3 225.7 228.3 228.8 227 223.7 220.8 220.1 219.8 223.5 228.3 230.4 234.5 239.6 240.8 240.8 240 236.7 233.1 231.6 232 232.8 234.4 233.4 233.2 236.2 237 235.8 234.1 230.4 228.9 227.8 228.7 229.1 227 224.2 221.7 217.2 212.2 208.4 201.4 198.6 198.1
392.4 388.8 383.3 373.6 368.1 359.7 341.1 320.2 301.7 291.9 278.4 265 257 253.9 253.9 253.9 253.9 253.9 253.9 253.9 253.9 253.9 267.2 290.3 315.7 341 363.8 396 416.6 420.9 418.8 412.1 406.7 400.8 397.1 373.8 328.2 289.6 263.8 244.9 244.9 244.9 244.8 244.9 244.9 244.9 244.9 257.1 273.2 309.4 325 349.7 368.8 389.7 406.4 407.9 400.5 395.5 382.6 357.6 333.4 315 305.1 298.4 292.4 289.4 287.9 288.1 291.3 306.6 329.7 353.1 368.3 384.8 396.5 392.4 378.3 363.2 354.8 348.1 342.1 341 343.9 348.6 359 374 387.6 401.5 409.6 413.6 416.8 428.3 430.8 430.7 425.4 410.4 400.8 389.9 389.9 389.1 389.5 387.2 378.4 365.1 353 349.4 344.1 335.2 321.3 305.4 294.1 287.2 282.3 276 271.4 269 269.8 270.8 271.8 272.7 271.3 268.9 266.5 265.1 261.6 258.6 253.8 252.4 253.6 256.7 261.5 263.2 265.7 270.1 275.1 275.9 279.4 279.4 277.3 275.1 268.8 256.4 242.4 229.3 214.3 201.6 195.1 189.6 186 180.7 178.8 178.3 182.1 186.3 190.5 203.8 212.1 218.1 222.3 224.9 225.7 224.6 221.7 220.1 219.6 221.3 226.3 229.7 233.3 238 240.7 240.6 239.5 235.9 233.3 229.7 228.1 226.9 227.4 228.6 228.1 229.8 232.3 234.6 233.6 232 228.8 225.5 223.7 223.9 224.2 221.8 219.1 217.3 213.1 208.9 206 200.5 198.9 198.2
393.9 391.2 386.2 376.4 366.9 348.5 323.9 305.4 290.5 276 264.9 255.6 253.9 253.9 253.9 253.9 253.9 253.9 253.9 253.9 253.9 258.6 283.2 301 321.3 353.4 386.5 408 420.2 419.7 419.8 412.8 397.7 385.7 359 329.2 293.2 265.6 244.9 244.9 244.8 244.9 244.9 244.8 244.8 244.9 244.9 265.6 309.2 334.9 354.1 377.4 395.1 410.8 421.8 419.6 410.5 408.1 401.1 360.2 329.5 314.7 307 302.6 296.8 289.7 288.2 288.3 290.6 297.3 318.2 339.4 362.5 371.9 380.5 373.3 367.9 359.5 349.1 339.6 335 334.3 335.5 338.9 347.2 362.3 374.9 378.9 386.5 391.8 399 407.8 410.8 414.6 409.3 403.5 397.5 392.4 390.6 389.5 390.5 388.5 372.2 359.7 342 331.3 325.1 311.8 292.5 279.3 268.5 262 256.7 254 252.6 252.1 251.6 252.1 250.5 249.5 247.4 245.1 242.1 238.9 234.7 232.4 231 232.1 231.6 230.3 233.8 236.9 241.6 248.9 255.2 262.1 267.7 273.1 276.2 274.7 271.3 261 244.4 231.7 219.3 208.6 197.8 193.2 189.6 182.9 179.6 178.5 178.2 181.8 189.1 205.5 210.8 216.3 220.1 222 222.9 222.6 220.6 219.4 219.7 223.3 228.1 231.8 237.3 240.3 241.6 240.8 236.5 231.9 229.4 226.4 223.7 221.6 220.2 219.4 224.6 230.9 230.8 232.1 232.2 230.6 226.7 222 220.4 220.2 219.2 217.5 214.7 211.9 210.6 206.6 203.8 200.2 198.5 198.3
387.6 381.3 377.5 366.7 340.2 321.9 302.2 283.6 267.5 259.9 253.9 253.9 253.9 253.9 253.9 253.9 253.9 253.9 253.9 253.9 253.9 261 286 301.7 322.7 350.6 382.9 405.3 414.5 419.4 418.4 406.1 387.5 361.7 333.8 297.5 269.1 244.9 244.8 244.9 244.8 244.9 244.9 244.9 244.9 244.9 247.5 284.6 323.9 352.1 379.2 403.8 417.8 425.3 430 429.7 422.5 419 404.4 363.6 332.2 317.5 311.7 307.3 301.1 294.2 291 290.3 291 293.9 302.9 325.3 348.8 366.4 376 381 374.3 359.2 344.9 334.2 327.5 328.4 326.6 327.5 333.5 344 350.3 354.9 362.9 374.3 386.5 397 405.1 405.7 407.6 406.2 402.3 400.6 390.4 390.7 389.6 380.6 369.3 350.7 332.8 319.4 299.6 282.9 270.8 260.3 251.5 246.1 241.9 239.8 237.9 236.4 234.8 233.7 231.5 229.2 226.4 223.2 218.3 216.4 214.7 217 218.3 218.6 217.6 216.6 215.4 219.5 225 232.5 240.2 248.1 257.2 265.8 272.4 273.7 275.7 266.1 249.3 231.8 221.7 214.1 207.1 196.8 190.9 185.4 180.1 178.6 178 179.6 187.8 204.1 210.9 214.9 218.6 220.9 221.7 221.1 218.3 219.7 220.7 224.1 228.4 233.2 237.4 240.1 241.5 239.2 234.1 230.1 226.9 223.6 221.8 220 219.2 219.2 224.3 230.9 230.8 230.9 230.9 229.3 226.5 221.4 219.6 216.8 214.6 213 211.2 208.9 207.8 205 202.1 199.8 198.3 198.1
366.4 362.2 340.1 323.6 309.9 296.3 280.9 261.5 255.5 253.9 253.9 253.9 253.9 253.9 253.9 253.9 253.9 253.9 253.9 253.9 253.9 254.7 275.7 291.5 315.8 338.4 365.2 389.1 410.7 416 410.7 398.4 377.9 349.2 307.2 273.1 247.7 244.9 244.9 244.8 244.9 244.9 244.8 244.9 244.9 244.9 263.1 301.2 349.2 367.5 395.7 419 427.2 428.9 431.4 433.4 430.7 427.1 403.8 363.7 331.8 326.7 322.9 320.5 309.1 301.2 295.7 295.2 294.3 297.3 298.3 309.6 332.5 357 373 383.9 378.9 357.9 343.7 326.2 320.4 318.9 319.1 318.4 318.6 321.9 325.5 334 342.8 354.6 365.7 380.6 395.6 402.7 409.5 410 409 402.2 397.7 393 387.9 381.4 366.6 344.4 331.1 306.6 284.4 263.7 254.9 246.4 240.1 235.3 231.1 227.1 223.2 225.6 224.7 222.4 220 218.8 215.8 212 208.4 208 208 208.3 210.1 209.9 208.2 205.7 207.2 210.6 213.7 217.4 225.1 234.3 243.8 253 262.5 269.7 276.8 269.2 253.9 232.2 220.8 214.4 209.8 200.6 189.3 186.1 181.3 179.4 178.2 178 185.6 203.3 209.1 212.9 217.2 220.6 220.1 217 210.9 220.2 220.3 224.1 227.6 231.8 233.9 236.7 237.1 235.8 231.8 228.3 224 221 218.5 217.1 217.9 219 223 230.3 230.8 230.3 229.7 227.9 224.8 222 219.3 216 212 209.7 209.8 206.2 204.8 204 201.4 199.4 198.6 198.5
321.3 314.8 307.9 297.4 286.7 271.2 259.7 254 253.9 253.9 253.9 253.9 253.9 253.9 253.9 253.9 253.9 253.9 253.9 253.9 253.9 253.9 258.5 273.2 296.5 325.3 351.7 373 399.9 406 398.2 387.5 363.8 332.2 280.4 252 244.9 244.9 244.9 244.9 244.9 244.9 244.9 244.8 244.9 244.8 272.8 312.4 355.2 380.5 402 426.6 429 429 430.7 436.8 438.6 431.5 403.2 365.9 341.4 339.7 337.2 343.8 330.7 312.3 301 300.3 298.6 299.2 300.1 303.3 314.4 337 357.9 373.7 372.7 353.3 335.5 324.5 317.2 312.6 313.3 313.3 310.3 307.4 309.1 314.3 322.1 334.5 347.9 362.7 381.5 397.6 408.5 410.2 410.6 404.7 395.9 391.4 386.6 379.5 361.7 346.3 316.8 289.1 268.5 254.2 240.5 235.5 230.9 225.6 220.9 218.1 215.8 217.5 217.1 215 213.6 211.7 210.4 208.5 208 208 208 207.2 203.9 202.8 201.5 200.8 202.1 204.8 207.3 209.6 212.6 217.5 226.5 235.5 243.9 253.7 261.2 253.6 243 222.6 214.5 211.4 207.5 200.9 193.3 188.7 185.2 180 178.3 177.9 180.8 198.2 204.1 210 213.5 214.2 213.9 210.1 210.4 217 219.3 222 225.6 227.8 229.3 230.4 231.3 231.3 229.9 226.9 222.5 218.1 214.9 213.7 214.7 217.4 220.9 227.6 229.6 228.9 227.7 225 222.3 220.5 218.5 217.5 215.2 211.2 209.4 206.2 202.9 201.1 200.6 200 199 198.9
294 289 279.6 272.7 263.4 257 253.9 253.9 253.9 253.9 253.9 253.9 253.9 254.6 254.2 253.9 253.9 253.9 253.9 253.9 253.9 244.9 244.9 255.3 273.5 308 330.5 353.2 376.8 392.5 383.8 343.1 317 285.4 255.8 244.9 244.9 244.9 244.9 244.8 244.9 244.8 244.9 244.9 244.8 259.4 280.1 319.7 359.5 391.4 403.5 422.2 429 429 430.8 438.9 439.3 426.9 399.8 371.8 357.6 357.4 357.9 360.8 348.1 321.8 303.9 301.9 301.3 301.1 302 305.3 310.8 321.8 338.6 349.8 348.2 337.9 328.2 319.8 311.8 308.3 308.6 308.7 308.3 305.1 303 304.5 307.6 313.7 321.1 342.1 358.3 375.8 395.2 408.7 408.1 399.3 393.6 389.7 383.8 373.4 359.2 339.2 298.9 275 255.7 244.9 235.2 229.7 225.5 220 215.7 213 211.2 210.5 210.2 210 209 208.1 208.1 208 208 208 208 208 200.9 199.7 199.4 199.3 199.7 200.9 201.6 202.5 203.8 204.4 207.5 213.5 219.9 227.2 229.3 227.5 219.5 209 203.5 203.2 201.7 198.9 193.6 190.8 190.7 181 177.9 177.9 181.1 193.3 199.1 205.9 208.5 209.6 209 209.4 211.8 215.9 219.2 220.7 222.6 224.5 225.6 226.1 225.8 225.8 224.8 222.7 220.9 216.3 212.1 210.7 211.7 216.4 220.8 224.7 227.3 227.7 225.5 222.7 220.4 219.5 220.2 219.6 219.6 217 210.4 207.2 204.1 202.8 203.7 201.7 199.8 199.1
274 263.2 253.9 255.5 253.9 253.9 253.9 253.9 253.9 254.5 256.1 257.9 261 263.2 263.8 261.9 259.2 257.1 254.3 253.9 244.9 244.8 244.9 244.9 257.2 277 303.3 321.6 342.1 363.4 343.8 304.2 283.5 262.1 244.9 244.9 244.9 244.9 244.9 244.9 244.9 244.8 244.9 244.9 244.9 269.8 289.1 324 360.5 389.4 403.4 421.2 430 429.5 430.4 430.2 431.2 423 403.4 389.6 371.4 368.4 367.5 362.8 353 329.9 311.7 305.6 304.7 304.6 304.3 304.4 309.8 313.4 319.9 329.4 327.7 321.2 317.3 309.8 304.9 301.7 301.6 303.1 302.1 301.7 299.3 298.1 301 304.2 307.7 315.9 340 355.3 372.8 383.1 390.1 390.1 388.6 389.3 386.8 379 355.2 315.7 285.7 265.3 249.4 238.5 231.3 225.4 220.8 217.3 213.9 212.3 211.7 209.4 208.1 207.4 207.3 208 208 208 208 208.1 208.1 208.1 204 201.8 199.4 198.7 198.3 198.8 198.9 197 195 194.8 193.9 195 197.5 202 204.6 205.6 205.3 199.9 192.7 192.3 192.5 191.9 190 188.8 187.6 180.4 178.5 178.6 183.1 189.9 196 200.1 200.9 203.1 208.6 210.8 214.5 219 220.1 220.3 219.3 220.4 221.8 221.4 220.7 220.5 219.6 218.9 217.8 214.3 210.1 209.4 210.1 216.1 220.6 222.8 225.5 226.4 224.3 222 220.7 220 223.7 225.5 223.6 219.8 212.6 208.2 205.7 204.9 203 203.7 202 199.4
276.2 273.3 270.2 263.3 260.9 260.1 258.1 258.6 260.6 262.8 264.9 269.6 275 278 277 273.8 271.5 266.8 258 247.5 244.9 244.8 244.8 244.9 244.9 251.2 263.3 277.2 307.4 327.1 296.3 274.7 258.9 244.9 244.9 244.8 244.9 244.9 244.8 244.9 244.9 244.9 244.9 244.8 255.8 280.5 302.4 323.3 358.9 391.6 404.9 417.9 430 429.2 429.3 429.8 430.4 424.7 403.6 392.3 380 376.4 372.9 370.6 355.5 339.4 325.1 309.3 309.1 308.5 307.9 308.2 308.8 308.4 310.3 312.7 313.3 310.1 306.7 303.7 299.9 298.2 297.2 297.5 297.2 296.4 294.1 292.8 295.3 297.9 298.3 302.6 321 342.4 360.4 376.8 383.7 380.6 379.5 380.2 382.5 368.9 338.5 305.2 279.1 259.6 243.4 233.1 226 221.6 218.6 215.8 212.1 212 211.2 209.8 208.6 207.2 207.3 207.8 208.1 208.4 208 208.1 210.3 212.1 210.5 208.7 209.7 209.2 205.7 201.5 198.7 193.6 190.2 190.3 189.9 191.1 190.1 192.6 195.4 196.3 194.7 191.1 188.3 188.8 187.6 186.9 186.3 186.7 183.9 180.4 180 180.8 183.6 187.2 190.9 192 196.4 201.4 207 211.6 215.8 219.9 220.9 218.9 214.9 213 214.8 216.5 215.9 216 215.4 214.6 213.7 211.6 210.6 209.3 209.2 214.3 220.3 222.5 224.2 225.1 224.9 224.3 223.2 223.5 228.6 230.9 226.7 220.8 213.5 207.8 204.9 202.6 201.9 202.4 201.8 199.5
299.9 294.8 290.4 287 283 281.1 279.5 278.6 279 284.1 288.3 292 293.8 292.4 289.2 285.7 282.9 280.2 267.8 258.2 244.9 244.8 244.9 244.9 244.8 244.9 244.9 248.6 264.7 278.9 259.4 244.9 244.8 244.9 244.8 244.9 244.8 244.9 244.9 244.9 244.8 244.9 244.9 244.9 265.3 290.9 313.6 329 362.7 397.2 405.7 415.9 433.2 439.1 433.7 430.8 420.6 412.2 402.8 394.7 386.1 380.6 373 365.3 356.3 347.7 334.3 319.8 315.2 311.5 309.8 308.4 308 307.5 307.4 304.6 304.9 304.4 301.4 298.6 296.8 293.7 291.6 291.5 291.8 290.9 289.3 289.3 290.7 290.2 290.5 293.8 308 323.3 340.9 353.3 361.9 368.4 371.1 370.9 369 356.5 332.9 299.5 270.1 251.6 237.3 229.8 223.7 219.7 218.7 218.2 218 212.7 215.4 215.2 216.5 217.7 221.4 225.2 225 222.1 219.6 221 225.1 225.9 226.2 224.5 226.2 225 219.6 213.7 205.5 197.3 191.4 190.7 190.4 190.2 189.3 188 188.7 189 189.1 188.5 188.9 187.9 185 183.1 183.2 183.6 182.5 180.1 180.2 181.2 183.5 186 189 189.7 194.7 200 204.9 210 213.7 217.2 217.5 214 211.1 209.9 210.7 212.6 212.5 212.3 211.7 211 210.2 210 210.5 209.4 209.4 213.7 219.4 222.7 224.7 226.1 226.6 227.7 226.9 228 230.1 230.8 227.8 220.3 212.7 207.4 203.9 200.6 199.3 198.7 198.8 197.4
327.7 322.9 320.6 314.1 311 309.1 306 303.9 306.7 313.6 315.5 311.5 308.2 308.1 304 300.4 296.6 290.5 275.2 265 249.2 244.9 244.9 244.9 244.8 244.9 244.9 244.9 244.9 244.9 244.9 244.8 244.9 244.9 244.9 244.9 244.9 244.9 244.9 244.8 244.9 244.9 244.9 244.9 275.4 300.2 319.9 337 367.7 398.4 405.8 415.3 434.8 440.8 437.9 428.6 417.8 409 400.1 399.5 388.1 382.1 378.2 370.3 359.7 353.1 335.6 325.3 318.1 312.9 309.8 307.7 307.3 307 307.8 300.1 300.9 300.9 299.1 298.1 298 291.1 290.2 289.7 289.8 288.7 288.1 287.4 286.3 284.3 283 284.8 293.4 306.8 319.2 331 342.8 357.6 358.8 360.5 359.1 353.7 329.5 299.7 269.7 245.4 234.4 227.6 222.5 218.7 218.4 218.2 218 218.7 223.3 228.5 236.9 243.7 248 249.3 246.6 241.7 235.9 236.9 240 240.5 241.5 242.4 243.6 242 235.1 229.7 220.6 204.8 196.9 191.9 190.5 189.5 188.4 188 188 188.3 188.8 189.9 189.9 188.1 184.1 181 180.9 181 180.8 180.3 180.5 181 182.3 184.8 187.3 190.6 194.3 197.9 200.7 205.7 209.6 212.3 211.3 208.6 206.9 206.2 207.2 208.8 209 208.4 207.8 207.1 207.6 208.7 209.4 209.7 211.6 215.3 219.6 222.8 225.2 227.4 228.6 229.1 229.6 230 231 231.2 226.4 218.8 211.5 206 201.2 199.6 196.5 195.4 194.3 192.4
361.6 358.9 356.6 352 344.6 335 329.4 330.3 332 336.7 332.5 329.1 321.9 318.9 315.3 309.4 304.7 297.9 278.3 272.9 261 244.9 244.9 244.9 244.9 244.9 244.8 244.8 244.9 244.9 244.9 244.9 244.9 244.9 244.9 244.9 244.8 244.9 244.9 244.9 244.9 244.8 244.8 257.7 285.1 309.5 326.1 339.1 368.3 392 403 417 429.2 436 430.8 419.8 413.3 410.2 409.4 407.2 388.8 387.9 380.9 369.5 355.4 346 333 323.4 317.2 312.6 309.7 308.1 307.1 307.3 307.7 300.1 300.2 300.2 298.4 298 298 293.5 292.4 289.6 291.2 290.5 288.4 286 283.5 280.7 278.3 278.2 280.6 286.8 296.3 307.2 321.5 336.9 348 356.1 360.5 354.5 325.1 296 268.8 243.9 233.2 226.7 221.4 218.6 218.1 218 220.3 228 236.3 249.2 260.6 270.3 273.9 270.9 268 262.5 255.7 252.2 255.5 255.8 255.9 257.1 258.6 259.1 254.6 250.3 239.3 212.8 203.3 194.4 189.6 189.1 188.9 189.4 188.6 189.4 189.9 190.3 190.7 187.8 184 180.2 180.4 179.5 178.9 178.4 179.3 179.9 181.3 183.1 185.4 188.3 192.1 195.6 198.1 200.7 204.6 207.2 206.3 204.1 202.5 201.9 201.8 202.7 204.3 204 203.4 202.8 203.6 207.3 210.8 210.6 214.5 218 221.1 224.1 227.1 229.1 229.3 229.9 230.7 232.2 232.4 231.1 225 218.2 213 207.1 200.7 196.9 193.2 191 190.1 190
407.3 397.3 388 382.3 378.4 370.1 365.2 365.6 361.8 362 357.3 344.7 334.2 329 323.5 314.9 311.3 301.8 292.9 282.3 269.4 262.8 253.4 244.9 244.9 244.9 244.8 244.9 244.9 244.9 244.8 244.9 244.9 244.9 244.9 244.9 244.9 244.9 244.8 244.9 244.9 244.9 244.9 263 293.7 318.6 331.3 346.1 372 395.1 405.2 414.5 424.7 430.2 425.1 417.4 413.6 410.2 409.9 406.5 392.8 390.6 385.1 373.1 356.8 340.6 330.9 323.1 315.6 312.4 311 309.8 308.1 307.7 307.9 305 300.7 301.4 299.8 298.3 298.4 299.1 299.3 298.2 300.6 298.2 291.3 288.1 283.7 280 278 277.9 278 279.2 283.6 290 303.2 317.5 331.8 343.3 350 347.5 321.4 293.4 264 244.5 232.9 225.6 221.6 220 218.6 220.9 229.2 238.9 251.7 270.1 289.3 309.1 313.3 300.5 289.5 281.5 274.1 269.8 269.9 270.3 271.1 276 277.1 274.7 271.9 266.9 254.5 227.8 208.5 200.5 193.8 192.1 192 192 191.7 193.5 195.8 193.7 191.1 187.2 183.3 180.4 180 179.2 178.4 177.7 178.3 178.7 179.9 181.9 184 186.3 189.8 193 195.5 197.9 199.6 200.5 200.1 199.4 199 198.7 198.3 199.4 200.3 200.1 199.7 199.5 201.1 205.5 209.5 212.3 216.1 220.2 222.9 226 228.6 230.4 230.4 230.4 235 237.7 236.2 230.7 223.8 217.9 213.2 207.2 200.1 193.8 190 188.9 189.1 188.8
423.7 422.9 418.5 412 404.1 397.8 394.1 386 381.5 374 365.6 357.6 345.6 338.4 332.2 323.8 315.7 307.8 301.1 293.2 287.2 278.5 269.6 265.5 259.5 244.9 244.9 244.9 244.8 244.9 244.8 244.8 244.9 244.8 244.8 244.8 244.9 244.8 244.9 244.9 244.8 244.9 244.9 270.5 301.4 323.1 337 356.1 380.8 407.3 413.1 426 429.2 440.6 427.5 420 418.8 416.9 409.9 404.2 397.5 393 386.4 373.4 360.8 347 334.5 322.8 318.8 320 317.1 314 309.7 308.5 308.1 307 305.4 304 302.3 303.1 305.9 307.9 305.9 314.3 306.9 303.6 300.1 295.7 287.1 279 277.8 277.9 277.9 277.8 278.7 282.6 288.4 298.4 310.6 322.4 329.7 330.9 315.5 286.2 260.6 241.1 229.6 226.2 225.3 225.2 228.2 233.2 239.1 249 266.1 291.9 316 338.5 346.1 331.9 315.9 304.5 294.9 289.8 288.4 289.9 290.9 293.4 292.4 287.3 290 288.4 268 241.4 216.5 208.5 201.3 199.5 198.2 198.2 199.1 200.3 200.5 197.8 191.1 186.8 182.7 180.1 179 178.9 178.2 178 178.6 178.8 179 180.7 182.7 184.8 188.2 190.1 192.4 194.7 196.1 196 195.5 196.1 195.7 195.3 195 195.2 197 196.4 196.1 197.1 198.9 202.2 208.5 212.2 216 219.9 223.2 226.2 228.8 230.7 230.8 230.8 232.4 237.2 235.2 230.7 223.5 217.8 213 206.8 199.6 190.2 188.7 188.1 188.1 189.1
431.1 429.7 424.6 418.4 413.2 406.7 400.4 394.1 387.8 378 370.4 363.5 351.9 343.9 336.1 330 322.2 318 313.5 304 297.6 291.2 286.7 282.7 272.9 258.1 244.8 244.9 244.9 244.9 244.8 244.9 244.8 244.9 244.9 244.9 244.9 244.9 244.8 244.9 244.8 244.8 244.9 265.7 297 324.9 339.6 362 384.9 410.4 424.9 434.3 442.1 450.6 433.1 425.6 420.7 419.8 411.5 410.2 400.3 398.2 390.8 378.3 368.2 355.4 335.7 328.6 328.2 325.8 320.7 318.4 313.8 309.9 309.9 311.3 310.1 308.5 307.5 317.2 322.7 323.5 328.7 339.2 327.2 318.5 307.7 301.3 291.2 278.5 277.9 277.9 277.8 277.8 277.9 278 282.2 289.3 297.2 306.8 316.2 320.4 304.6 282.6 265.9 243 230.1 228.2 228.6 231.2 236.1 242 248.3 257.5 278.9 310.6 336.6 355 370.8 367.2 342.2 327.8 317.2 312.6 309.4 310.8 310.1 309.3 303.8 301.2 306.1 304.9 283.5 251.8 230 214.8 211.5 209.2 206.9 204 204.4 203 200.3 200.2 192.5 187.1 183.3 180.8 179.4 179.1 179.1 178.9 178.8 178.9 179.1 179.5 181.5 183.6 186.4 188.2 190.2 192.6 192.6 191.7 190.9 193.8 193.5 193.1 192.7 192.2 193.4 193.3 195.1 197.1 198.7 199.6 203.9 208.4 214.2 219.6 223.3 226.3 229.2 230.9 230.8 230.6 231.2 232.7 231 228.2 222.3 217.5 211.6 205.7 198.8 191 188.2 188 188 189.3
432.1 429.9 424.7 418.3 412.3 405.7 399.5 393.6 387.6 381 371.9 362.7 352.7 344.4 338.1 333.3 332.3 328.4 322.9 317.6 308.9 303.2 299.2 295.3 284.8 265 247.5 244.8 244.9 244.9 244.9 244.9 244.9 244.9 244.8 244.8 244.9 244.9 244.9 244.9 244.9 244.9 244.8 259.9 282.9 317.3 339 361.6 384.3 403.6 420.9 436.6 449.2 453 431.6 428.2 421.1 419.3 420.9 413.1 407.6 403.4 395.3 387.4 374.3 362.3 347.4 339.2 334.6 331.1 325.9 322.2 317 314.2 315.7 317.7 316.7 315.2 327.4 337.4 340.8 345.7 355.3 351.4 334.9 322.5 309.1 299.2 289.6 281.1 278 277.9 277.9 277.8 278.5 278.2 278.7 283 287.9 295.7 305.5 311.7 301.9 290 274.9 253 234.5 228.2 229.6 234.9 240.7 248 255.6 263.6 286.5 314.2 338.3 363.3 384.4 389.9 367 349.7 339.9 335.1 333.1 331.1 329 320.4 315.1 315.8 322.4 314.5 290.8 258.1 238.9 229.9 221.1 216.7 212.5 210 209.2 206.1 201.4 199 191.9 187.6 184.9 183.8 183.1 182.1 180.5 179.2 179.1 179 179.2 179.4 180.9 182.6 184.9 187.1 189.5 191.1 190.8 189.7 189.8 192.1 192.2 192.2 192.1 191.8 192.1 194 197.3 199.3 199.4 199 200.4 208.1 213.9 219.8 223.4 226.7 229.7 230.9 230.3 230 230.2 230.9 228.4 225.2 221 215.4 209.2 203 196.6 190.6 188 188 188.5 189.9
432.9 429.5 424.9 418.5 411.1 404.8 397.4 391.6 384.9 377.4 367.8 359 352.6 346.3 341.2 340.9 340.7 337.3 333.3 326.2 319.1 318.8 312.9 307 293.7 281 262.5 244.9 244.9 244.9 244.9 244.9 244.8 244.9 244.9 244.9 244.9 244.9 244.9 244.8 244.9 264.4 261.1 262.5 272.7 302.8 333.3 360.1 383.4 399.5 413.8 432.4 439.7 439.8 428.7 423.4 419.8 419.8 420.9 417.2 413.4 408 401.1 390.8 378.3 365.5 354.8 348.8 341.9 334.3 333.1 324.5 322.2 324.3 328.2 328.4 331.1 342.6 352.5 358.7 361.7 363.9 359.5 345.9 330.9 320.4 311.4 298.5 288.2 280.7 278.1 278.1 277.9 277.8 278.9 278.9 280.1 280.5 282.5 289.2 298.5 303.7 303.7 294.8 275.8 256.1 236.6 228.8 230.8 237.7 243.7 251.6 259.7 268.6 290.5 313.6 337.3 360.3 381.1 399.7 390.3 373 363.1 361.1 356.8 351 345 336 331.3 335.7 337 324.1 289.2 262 254.6 243.8 231.9 222.5 216.5 212.8 209.6 205.9 202.4 198.1 193 189.2 188 187.5 188.7 188.2 185.1 180.4 179.3 178.9 179.1 179.3 180.5 182.2 183.4 185.3 187.4 188.4 188.6 189.2 189.3 191.3 191.9 192.3 191.8 191.4 192.7 196.6 199.7 200.4 200 199.1 199 202.8 210.8 218.6 223.1 226.7 229.5 230.9 230.9 230.5 229.3 228.7 225 221.2 217.5 212.7 207.3 201.6 194.1 189.2 188 188.3 189.3 191.4
433 430.4 426.4 420 414 408.1 399.3 392.1 386.6 380.4 370 362.7 358.6 353.9 351.4 353.2 354.1 352.6 347.7 337.9 331.2 333.5 330.2 316.5 304.7 293.6 277.1 259.8 244.9 244.9 244.9 244.9 244.9 244.8 244.8 244.9 244.9 244.9 244.9 244.8 268.3 284.2 279.3 280.1 268.8 290.7 321.3 352.2 377.6 393.5 409.6 422.6 430.1 433 431 422.9 419.8 422 421.2 420.1 416.7 410.5 403.3 392 383.4 378.3 367.7 361.1 351.3 350.5 341.4 335.8 338.2 338.9 350.7 352 356.9 365.1 374 376.2 374.2 371.9 359.8 345 334.4 321.6 308.7 296.9 286 280.9 277.8 277.8 277.8 278.2 278.9 279.5 279.9 280.5 279.2 285.2 293.9 300.4 301.9 288.7 269.8 250.9 236.3 229.6 231.1 239 246.7 254.8 262.8 273.5 292.4 313.5 334.6 356.9 378.2 395.2 401.9 399.8 386.6 382 377.5 369.5 367.5 355.9 349.7 351.3 345.8 322.9 288.5 270.2 262.7 251.5 238.6 228.3 222.5 217.7 213.1 207.4 203.2 198.6 194.3 191.2 189.4 190.1 191.5 191.2 188.4 183.6 179.4 178.4 178.8 179.2 180.2 181.5 182.3 183.3 184.9 185.5 185.8 187.4 189.4 190.5 191.1 191.8 191.5 191.4 195.9 199.1 201.4 206.1 200.7 199.2 198.8 199.8 208.9 217.5 222.3 225.7 228.3 230.5 230.9 230.9 230.6 228.1 223.2 219.7 216.3 211.4 206.3 199.6 191.6 188.6 188 189.1 190.5 193.2
434.8 432.5 427.8 422.2 418.5 411.1 402.5 398.3 394.6 389.4 377.2 370.6 368.2 365.3 366.1 368.9 367.8 365.9 361.5 354.8 347 342.9 336 327.1 315.1 298.8 289.5 267.5 244.9 244.8 244.9 244.8 244.9 244.9 244.9 244.9 244.8 244.8 244.9 264.8 293.2 303.2 293.8 295 292.9 282.3 310 339.5 365.1 384.4 400.7 413.6 424.4 430.3 428.1 423 424.4 428.9 423.1 420.9 419.4 413.1 405.2 399.7 395.6 386.6 378.6 368.7 362.8 361.3 353 353.7 353.4 358.9 362.5 370.1 375.9 381.9 386.2 386.8 384.6 380.4 368.6 357.9 343.5 323.4 311 298.9 284.9 279.8 278.3 277.9 277.8 278.1 279 279.8 280.6 280 274.5 274 281.5 284.6 283.4 273.3 258.6 241.3 233.4 230.7 232.7 240 249 256.6 266.1 277.6 293.2 312.9 332.2 352.6 373 392 404.8 410.5 408 401 396.1 390.5 386.1 376.2 367.2 366.7 355.3 323.6 297.3 284.2 272.4 259.7 248.9 238.8 233.3 225.6 217 211.7 207.7 201.7 197.5 194.2 194.8 196 196.9 195.8 191.9 186.4 181.2 178.3 178.5 178.9 179.6 180.3 181.2 182.2 182.5 182.6 183.5 185.3 187.4 189.4 189.4 189.1 190 192.1 196.7 199.3 200.7 203 200.2 199.7 199.1 200.7 210.1 217 221.3 224.8 227.5 229.2 230.9 230.9 230.9 229.5 224.5 219.8 216.2 212.2 206.7 198.1 190.7 188.7 188.2 188.7 190.4 195.2
434.6 432.4 428.4 424.2 419.6 412.7 407.6 403.9 400.6 394.2 387.1 378.7 375.6 375.4 379.3 382.2 380 375 370.8 366.9 360.9 353 344.1 336.1 323.8 309.7 293.2 273.7 249.1 244.9 244.9 244.9 244.9 244.9 244.9 244.8 244.8 244.9 258 284.2 309 319.2 306.8 305 307.8 290.4 308.6 333.7 353.4 371.1 388.8 401.4 413.3 417.6 415.2 419.4 420.9 420.8 417.8 419.5 417 413.1 409.8 407.1 402.9 394.9 391.9 376.1 374.8 373.8 367.5 369 367.9 373.1 382.8 390.7 392 395.5 395.7 398.5 403.2 395.6 380.9 361.9 343.3 324.1 310.7 300.7 289.9 280.7 279.6 278 277.8 278.1 278.4 276 275.4 273.4 270.5 260.8 261.5 264.3 261.5 252.1 240.8 238.2 238.1 232.9 236.2 242.1 252 260.4 271.1 284.4 298.3 314.2 330 347.4 367.6 383.9 399.2 408.3 413 412.9 409.6 406 399.7 391.6 383.6 380.3 359.4 326.7 305.1 293.9 281.5 270.5 259.2 252.4 244 234 224.7 217.9 211.9 207.7 201.7 198.1 198.9 200 200.7 200.5 194.9 188.2 181.3 178.6 178.3 178.6 178.9 180.7 180 180.4 180.3 180.1 181.3 183.2 185.9 187.6 189.2 189.5 191.4 194.4 197.2 198.5 199.2 200.1 199.3 199.2 199.3 200.9 208.8 215.3 220.4 223.6 226 227.7 230.1 229.5 230.8 228.9 223 218.6 214.9 211.5 205.9 197.2 190.9 189.5 188.8 189.8 192.4 197.6
433.5 431.4 429.2 425.2 421.5 416.8 412 408.4 404 399.6 393.9 386.3 386 387.6 389 389.8 386.7 382.2 378.8 374.9 369.8 360.8 352.2 342 326.6 317.2 298.1 275.3 254.5 244.9 244.9 244.9 244.9 244.8 244.9 244.9 244.8 244.9 272.8 303.8 328.9 330.9 321.4 314.6 317.6 303 303.3 328.7 346.1 362.7 375.7 387.1 398.1 403.6 404.2 407 410.5 410.4 411.1 412.3 412.2 414.9 415 413 409.7 404.3 397.5 387.2 386.7 385.4 380.3 380.7 379.5 390.1 405 407.1 406.8 410.4 411.2 413.1 411.9 402.7 388.7 369.1 345.2 330 318.1 304.9 295.4 287.9 282.9 280 278.1 278.1 275.4 270.2 270.1 267.6 263.6 257.1 251.9 248.7 248.1 243.9 239.5 238.3 238.1 238.1 240 246.6 257.2 266.2 281.3 297.9 314.1 327.5 341.7 354.5 371.4 387.2 401.4 410.4 419 419.6 416.1 409.6 400.4 396.8 393.7 378 348.8 323.3 309.9 299 288.4 276.6 266.5 257.2 248 239.3 231.4 223.5 217.4 213.9 208.5 201.3 200.7 202.3 200.8 200.8 197.5 190.9 183.8 178.7 176.9 177.2 178.2 179.3 179.3 179.3 179.2 179.2 179.5 181.8 184.5 186.8 189.2 190 192.4 194.8 196.7 198.1 197.8 198.7 199.7 199.5 199.3 199.4 206.5 211.7 216.3 220.6 222.6 226 228.8 229.2 229.7 227.6 223.8 218.6 213.3 208.9 203.9 197.8 190.5 189.1 189.8 190.4 194.4 200.2
433.2 431.4 428.7 426 422.7 419.4 416 410.9 407.6 404.2 399.4 393.5 394 394.2 395.5 395.6 392.1 388.5 385.6 380.8 375.9 367.7 357.2 346.6 332.5 319 303.8 281.1 259.3 244.9 244.8 244.8 244.8 244.9 244.9 244.8 244.9 252.3 287.2 317.1 336.8 341.3 331.9 327.4 326.9 323.2 301.1 320.2 343.6 358.7 369.6 378.7 384.7 386.4 389.4 394.5 397.6 402.2 406.6 410.8 415.8 419.7 419.7 419.9 415.9 411.2 404.5 397.9 396.8 394.5 395.1 394.6 390.8 405.3 416.7 419.1 418.5 425.9 430.2 425.4 421.2 412.5 400.5 375.1 349.8 331 319.4 305.2 297.4 290.4 286 282.7 280.6 279.7 279.3 274.4 270.5 261.6 260.2 255.1 250.2 249 248.3 245.3 242.1 240.1 239.7 241.9 246.8 252.8 262.1 276.2 293.3 308.9 325.8 343.1 357.8 369.5 384.5 399.8 409.1 416.3 419.3 419.2 419.1 413.4 406 400.6 389.4 359.7 335.3 321.2 313.2 303.1 292.7 279.3 266.9 258.5 252 244.6 237.8 230.9 225.9 220.1 218 211.7 205.4 204.2 201.7 200.7 198.2 191.2 183.6 177.2 173.9 173.7 176.4 177.8 177.9 178.6 179 179 179.1 180.6 183 186.3 189 190.8 192.2 194.2 196.2 196.9 196.5 197.5 199.6 199.6 199.9 201 203.3 206.7 210.7 213.8 218.3 222.7 226.5 227 227.5 225.7 223.4 219.2 212.9 208 203.4 198 189.7 189 190.6 191.7 196.2 201.3
431.6 430.5 428.4 426.4 423.7 421 417.8 413.7 409.2 405.7 402.5 399.8 399.1 399.3 400.5 400.1 397 394.2 390.9 385.8 381.1 372.3 361 351.5 340.6 322.5 310.3 286.3 261.8 244.9 244.9 244.8 244.9 244.9 244.9 244.9 244.9 268.3 296.9 329.1 348.3 355.5 344.6 340.4 338.1 332.4 324.5 315.2 336.7 358.6 369.6 375.4 378 375.6 375.8 379.4 386.6 394.9 404.6 411.9 419 422.8 424.4 423.2 423.2 419.3 412.2 406.1 404.4 404.1 403.7 403.5 406.4 413 423.7 429.2 431.7 435.3 437.4 434 429.8 422.6 407.6 378.3 350.6 337 325.2 309.8 299.2 295.3 291.1 288.8 285.8 284.9 282.8 278.9 273.2 261.3 259 255.3 252 250.2 251.1 250 248.3 249.3 248.5 251.2 254.6 258.4 270.3 287.3 303 320.7 338.5 360.2 373 382.5 394.3 404.6 412.6 417.3 419.5 420.1 418 414.6 410 398.3 369.1 342.1 326.1 321.4 314.1 304.6 291.7 279.6 267.5 259.7 253.6 247.8 241.4 236 233.9 230.4 226.5 223.2 210.2 205.4 203.3 199.7 193.6 187.1 182.5 175.9 172.2 173.1 174.5 176.4 176.6 177 177.8 178.5 178.4 179.7 182.1 185.5 188.1 189.9 191.1 193.7 195.8 196.1 194.2 194.5 197.9 198.8 200.7 200.5 199.2 198.9 201 207.3 213.5 219.3 221.5 222.7 223.2 222.2 219.7 216.1 210.2 206.6 202 197.6 191.2 188.7 189.9 192.4 198.2 203.5
430.3 429 427 425.1 422.8 420.5 417.6 413.8 410.7 408.4 407.2 406.8 406.2 405.4 405.1 402.6 400.4 396.9 393.3 388.6 384.6 377.7 366.1 356.3 346.4 328.7 311.9 288.8 264.7 244.8 244.9 244.9 244.9 244.9 244.8 244.9 244.9 278.3 307.8 337.4 359.7 361.8 357.1 354.4 352.7 340.2 332.8 329.1 327.6 355.1 366.1 368.4 367.6 369.2 370.6 375.6 382 392.5 403 412 420.8 427.7 429.7 430.6 429.7 427.2 421.6 412.5 410 408.3 406.8 408.2 414.8 421.7 427.3 432.8 439.4 449.3 448 443.9 440.1 430.5 408.3 378.7 351.5 336.3 328.3 318.3 306.1 303 300.7 295.7 291.5 289.2 286 282.4 277.2 267.6 262.4 259 257.4 256.8 256.9 255 253.1 253.1 252.9 255.1 259.8 266.2 279.8 299.3 318.3 335.8 351.3 369.4 382.7 395.4 407.3 417.3 420.1 422.3 423.1 421.6 419.7 417.7 406.2 385.4 354.1 335.7 326.3 322.3 312.7 298.6 284.6 274 265.6 259.4 255.2 251.3 246 242.2 239 237.6 235 230.7 220.6 210.6 209.2 206.7 198.8 189.2 183.7 170.7 171.9 171.9 172.8 175 175.2 175.4 176.3 177.2 178 179.1 181.5 183.6 186 188.1 189.3 191.9 194.4 193.6 191.9 191.1 193.6 196 195.2 194.8 192.7 191.5 193.1 200 205.2 209.8 214.7 216.3 216 214.7 212.3 209.7 206.8 202.4 199.8 195.3 190.6 189.4 190.4 192.9 198.2 204.3
430.6 428.6 426.5 424.2 422.2 419.9 416.9 413.1 410.5 409.2 409 410.8 410.9 409 406.5 403.6 401.1 398.1 394.9 390.3 385.1 378.9 370.4 361 349.7 333.2 315.1 289.7 265.3 244.9 244.8 244.8 244.9 244.9 244.9 244.9 258.2 284.9 317.1 352.5 377.3 374.6 369 362.6 358.5 354.4 343.8 335.5 330 343 354.5 359.9 360.7 367.8 369.6 375.3 382.2 390 402.6 417.2 428.5 433.1 435.6 437.2 437 432.2 423.9 417.7 413.8 411.1 409.7 412.7 419.6 425.7 431.4 439.1 444.8 454.7 456.2 451.1 444.5 428 403 374.8 353.3 340.5 332.1 322.9 313.9 309.8 306 301.8 301.3 299.6 292.9 288.2 284.2 274.7 268.4 263.2 261.4 262.4 261.6 260.3 259 258.3 257 259.3 266.7 276.4 290.2 306.1 328.2 347.3 367.8 385.2 399.2 411 420.7 425.3 426.5 430.6 429.6 426 426.5 423 409.2 376.4 346.1 336.6 331.1 324.4 312.9 296.5 282.4 271.6 265 261 257.7 254.1 250.5 248.8 247.2 245.8 242.7 236.7 226.9 220.4 219.1 215.4 206.8 196.9 191.4 168.8 171.1 171.6 172.2 173.7 173.8 174 175 176.1 177 178.5 180 181.9 184 186.1 187.8 190.1 191.8 190.9 190.5 189.1 189.9 191.2 190 188.3 186.2 183.3 185.7 190.8 196.3 202.4 206 206.6 206.1 204.7 203.9 202 200.5 198.7 196 192.1 189.1 189.6 190.5 192.7 197.5 204.3
428.5 427.6 425.6 423.5 421.2 418.2 415.6 412.4 409.8 409.2 409.1 410.9 411 409.1 407 404.3 401.6 397.6 393.7 389.4 383.7 378.3 371.6 360.6 347.5 332.8 315.5 290 267.8 244.9 244.9 244.9 244.9 244.9 244.8 244.8 260 291.1 327 365.5 386 384.1 379.6 372.3 367.3 363.5 354.8 345.3 339.2 345 352.8 358.6 364.5 370.3 375.1 379.8 385.3 393.1 407.3 423.7 435 436.9 438.6 440.9 440.9 433.3 425.2 419 416.1 413.4 415.3 419.7 423.3 429.8 434.8 441.6 449.7 452.3 454.8 450.1 440.4 422 397.9 368.9 358.8 347.9 339 327.4 319.8 313.7 310.5 307.4 307.6 306.5 302.5 300.4 294.2 284.9 275.9 268.8 266.8 267.1 266.2 266.4 265.5 263.8 263.8 268.7 276.8 291.4 307.4 323.7 343.3 361.9 380.1 396.6 410.6 420.8 429 431.6 433.5 439.7 433.9 432.6 431 424.8 403.1 368.6 348.5 340.7 335.8 325.3 309.6 293.9 280.7 272.8 267.4 264 261.4 259.3 255.9 255.6 254.4 252.8 249.2 241.5 231.1 227.8 225.1 220.4 210.9 202 193 168.2 169.1 170 172.1 172.7 172.8 173 174.1 175 177.2 179 180.6 179.9 182 181.4 180.6 181.7 185.2 187.3 186.3 184.8 183.7 183.4 182.8 181.6 179.4 176.9 178.3 182.4 186.8 189.4 193.4 194.5 194.4 194.7 195.1 195.1 193.7 192.7 192.2 188.8 189 191.8 191.6 192.3 197.8 204.8
425.3 424.2 423.1 422 419.9 415.7 412.4 410.5 409.2 409.1 410.8 410.5 409.2 407.4 404.6 402 399.5 395.1 390.6 385.6 380.2 375.1 368.2 355.7 343.6 329.5 309.5 288.2 267.5 244.9 244.9 244.9 244.9 244.9 244.9 244.9 264.1 298.6 334 377.9 392.8 387.5 383.7 383.8 381.2 373.4 364 354.5 350.3 352.7 358.6 363.3 372.9 382.4 389.1 389.2 393.5 399.8 415.3 431.7 440.6 440.5 440.9 442.4 440.9 435.9 430 421.6 418.9 418.3 419.2 423.7 427 431.6 436.3 441.6 450 451.1 448.9 444.1 434.6 417.8 392.8 373.2 364.8 354.9 342.8 330.7 323.1 318.3 315.1 313.9 313.8 312.5 307.6 308.2 304.3 295.7 282.6 274.5 272.9 272.6 272.5 271.9 271.9 270.8 274.2 282.3 293.7 309.1 322.4 339.7 360.1 373.5 387 404.9 418.5 432.5 439.5 440.4 441.5 445.4 440 440.1 431.7 417.8 393.6 361.9 350 345.7 339.4 324 307 291.6 282.2 275.7 270.9 267.4 265.5 264 261.2 261 260.5 258.3 252.8 243.3 236.5 233.3 228.8 222.6 213 203 192.9 168.4 170.1 170.2 171.2 172 172.1 172.1 173.5 175.1 175.6 177.2 177.6 177.6 177.7 176.5 173.7 170.6 172.2 173.9 176.5 178.6 176.7 173.8 174.6 174.1 170.4 169.7 171 173.6 175.1 176.6 179.6 181.6 183 184.7 185.5 186.6 186 186.4 187.9 180.7 192.7 196 195.1 195.1 198.5 208.6
421.8 421 419.2 417.5 414.6 410.4 408.2 407.1 405.9 406.2 407.5 407 405.7 404.4 401.9 397.9 395.4 391.1 387.1 382 375.7 370.5 360.8 351.1 340.2 329.2 307.1 285.4 267.2 244.9 244.8 244.8 244.9 244.9 244.9 244.9 267.6 300.1 336.5 383.8 400.9 393.3 388.4 392.9 395.1 385.4 372.5 359.2 358.1 361.9 367.1 372.8 385.2 395.2 397.3 398.9 401.3 406.8 420.4 436.5 444.7 446.5 445.4 443.9 440.6 439.9 432.5 420.7 419.2 420 419.9 426.1 430.8 433.6 436.9 440.7 446.7 447.8 445.6 439.4 427.5 409.9 388.1 376.7 367.4 356.3 345.4 333.6 327.5 325.2 323.1 322.9 322.6 320.3 311.8 315.5 311.1 303.2 291.3 281.3 281 280 277 275.8 276.2 280.7 288.6 299.5 313.5 325.8 340.2 356.9 371.4 388.1 400.2 414.9 430.5 442.5 449.8 446.6 448.2 450.9 446.1 445.7 430.5 407.5 376.6 361 355.9 349.5 338.5 323 306.4 293.6 285.6 279.4 274.4 271.4 270.3 268.2 265.6 265.2 264.5 261.9 256 249.7 240.6 234.8 229.3 222.1 212.8 200.3 188.6 170.7 169.8 170.2 170.4 169.1 171 171.3 172.1 171.4 171.5 170.8 169.6 170.5 170.2 169.7 169 168.9 168.8 168.9 170.8 171.1 169.5 168.5 168.7 168.1 168.2 167.8 167.8 167.8 168.7 168.3 168.8 170.7 171.9 174.6 173.5 172.6 173.7 176.3 179.5 187 190.8 190.4 191.2 194.4 200.9 210.8
419.8 417.7 415.5 411.9 407.6 404.6 404 402.5 402.9 402.3 402.2 400.8 399.8 398.9 394.5 389.8 388.1 384.9 381.3 378.2 372.7 366.2 357 347.5 338 325.8 302.3 282.4 263.2 244.9 244.9 244.9 244.8 244.9 244.9 244.9 269.5 300.3 333.3 371.9 403 400.4 394.8 402 400.3 393.2 382 366 361.6 369.7 375.4 382.9 396.3 403.6 402.4 404.1 404.5 412.1 426.1 441 446.9 448 448 447.3 443.2 437.8 428.1 422.5 421.8 423.6 424 428 432.9 436.7 439.7 441.3 444.2 442.9 441.5 435 423.1 408 389.2 377.9 366.7 352.3 347.6 343.2 337.1 334.3 331 331.6 330.1 321.8 321.7 324.2 320.2 311 299.2 296.4 292.8 288.6 284.2 284.6 287.8 295.1 305.2 315.3 327.4 343.7 358.4 373 385 399.4 413.4 431.1 440.6 450.8 457.2 455.5 454.8 457.7 457.4 449.4 426.9 398.1 378.7 366.2 362.4 353.9 340.3 324.6 311.4 299.7 290.3 283.6 278.7 277.2 277.1 273.2 269.5 268.1 267.2 265.5 260.6 255.2 244.9 233.7 226 217.8 206.6 198.6 191.4 182.6 168.5 169.8 170.5 169 169.5 169.3 169.6 169.3 169.2 168.1 168.1 168.7 169 168.6 169.3 169.2 168.8 168.7 168 167.8 167.9 167.9 167.8 167.8 167.8 167.8 167.8 167.9 167.8 167.8 168 168.2 168.1 167.8 167.8 167.8 167.8 171.4 180 188.7 190.5 190.1 191.7 194.1 202.1 214.8
418.4 415.5 412.3 407.7 402.4 399.2 398.9 399.8 399.7 398.6 396.9 394.2 390.4 387.8 384.9 381.3 378.4 375.6 373 371.1 366.2 359.3 352.5 344.2 333.3 316.4 295.2 276.9 249.3 244.9 244.9 244.8 244.8 244.9 244.9 244.8 271.2 301.5 333.7 365 402 401.2 400.5 408.2 410 403.4 392.4 375.6 370.1 370.4 381.5 391.5 400.6 402.3 402.6 404.7 406.7 416.1 429.9 440.5 444.7 446.5 446.2 445.5 440.8 433.7 429.2 428.8 428 429.1 428.7 430.7 434.3 438.6 441.2 442.6 443.2 441.8 439 430.2 424.1 415.5 399.3 384.8 376.4 363.1 361.4 357.3 351.1 342.8 339.6 340.4 333.7 329.2 330.1 331.8 328.4 318.9 310.8 308.1 303.9 298.1 295.2 296.9 302.2 310.7 320.1 330.9 343.6 358.5 373.6 385.2 397.6 413.5 433.4 442.3 450.8 459.1 459.5 458.9 461.3 463 461.2 447.2 421 396.4 381.9 373 369.2 356.9 340.5 324.9 311.9 301 293.1 287.4 283.9 282.3 282 279.6 274.4 273 270.7 270.4 264 257 245.3 234.1 224.4 216.1 210.1 203.2 196.3 187 171.8 169.5 170.4 170.6 170.3 168.7 168.6 168.4 168.5 167.8 167.8 168.2 168.4 169 169.8 169.4 169.1 169 167.9 167.8 167.9 168.1 168.2 167.8 167.8 167.9 168 167.9 167.8 167.8 168 168.2 168.1 167.8 167.8 167.8 167.8 172.3 181.1 185.8 188.3 188.7 192.6 198.3 208.7 226.5
417.9 414.8 411.9 408 400.9 399.1 398.2 398.4 395.6 393.3 391.9 389.1 384.4 382.4 379.4 375.7 373.8 370 364.7 361.5 356.8 350.5 344.6 342.1 325.1 305.1 288.5 270.9 244.9 244.9 244.9 244.8 244.9 244.9 244.9 244.9 268.1 300 332.1 363.6 395.9 407 405.9 412.9 417.5 408.2 398.1 386.3 378.2 370.6 384.8 396.5 399.7 400.3 402.5 405.1 410 421.1 433.1 441 442.6 440.4 439.9 439.5 438.9 435.7 436.2 436.8 435 434.3 432.5 433.4 436.9 440.8 442.5 443.9 444.2 441.7 439.4 439.7 437.3 430.8 411.2 398.6 387.8 377.1 373.8 366.4 359.8 355.8 350.5 348.1 338.1 337.4 336.4 338.9 340.8 333.6 326.1 316.8 315.2 314 314.9 313.1 317.7 325.4 333.5 343.1 353.8 366.6 380 396.5 413.7 431.3 441.8 449.9 457.6 459.7 459 462.4 469.2 468.4 460.9 437.4 413.4 395.6 384.7 380.7 373.1 354.4 337.7 323.1 311.4 301.5 295.7 291.4 289.1 287.2 284.1 281.1 279.1 276.7 274.1 272.5 265.4 257.6 243.7 232.5 225.1 218.9 214.4 207.5 199.1 189.7 178.4 170.6 169 169 169 168.9 168.3 168.4 168.7 169 169.1 169.5 171.1 172.1 170.8 170.7 170.4 169.3 168.4 168.1 168.1 168.4 168.6 168.2 168 168.1 168.2 167.9 167.8 167.9 168.1 168.2 168 167.8 167.8 167.8 167.8 169.2 176.2 180.4 183 188.3 195.4 203.6 214.9 235
419.8 417.1 412.2 408.4 402.5 398.6 397.8 397.7 392.8 390.3 389.4 386.1 380.9 379.7 374.4 371.2 369.2 364.1 361.4 355.5 349.8 343.1 336.4 333.3 315 297.7 278.7 263.7 244.9 244.9 244.9 244.9 244.9 244.9 244.8 244.9 267.8 299 332.8 361.4 390.5 405.2 410.9 418.8 420.2 410.2 404.8 393.8 386.4 379.7 383.7 390 392.9 397.4 403.5 409 416.4 427.4 436.6 441.7 442.1 440.4 439.4 439.6 439.6 440 446.7 444.6 441 438.5 436.4 437.3 439.5 442.3 443.6 444.9 445.3 446.5 446 449.2 448.6 440.5 423.8 409.6 401 391.2 385.5 374.7 371.4 365.1 360.1 354.5 350 351.3 345.8 352.5 358 354.4 345.3 336.7 336.3 324.6 333 335.7 338.2 343.7 351.3 361.2 370.6 384.8 400.8 417.2 432.3 444.7 452.9 459.2 464.5 470.5 466.5 468.8 469.2 468.7 457.1 428.3 407.5 394.7 388.4 382.8 365.1 348 333.4 321.2 309.9 303.7 298.7 295 293.2 291.2 287.6 284.9 282.7 280.3 277.5 272.9 265.2 255.6 242.9 234.5 229.9 223.6 217.6 209.9 201.9 193 183.2 182.7 177.6 175.1 179 178.9 174.7 175.4 180.2 178.9 177.9 179.1 179.8 178 175.1 174.5 173.2 170.8 169.8 169.9 170.1 169.5 168.9 168.8 168.4 168.3 168.2 167.9 167.8 167.9 168.1 168.1 168 167.8 167.8 167.8 167.8 169.8 172.8 176.9 183.4 194.2 201.6 216.2 230.3 246.3
