ncols 200
nrows 82
xllcorner 300000
yllcorner 224300
cellsize 50
210.7 205.3 201.4 196.8 192.2 188.5 185.2 181.9 179.5 177.7 175.2 172.8 172.2 170.4 165.5 158.7 156.9 153.5 144.6 139.8 141.1 145.6 144.5 144.5 143.4 142.2 139.8 136.7 137.7 145 144.7 144.3 143.5 143 143 142.7 143.1 144.7 146.5 149.8 154.3 158.2 161.1 163 163.9 165 164.8 164.7 164.2 164.3 164.6 163.2 162.6 162.2 160.7 159.2 157.5 154.5 152.1 150.5 146 145.3 142.8 141.5 140.7 139.2 138.1 138.3 137.3 136.4 137 136.7 136.4 135.3 134.2 134 133.4 133.1 131.7 130.6 131 131.1 130.6 130.7 130.8 130.6 130.7 126.8 130.9 132.5 135.9 132.4 133.2 133.1 132.3 133.1 133.8 134.3 134.6 139.3 142.8 148.2 152.6 158.4 162.6 170.6 185.4 207.3 219.9 229.3 235.9 236.1 236.4 234.8 231.6 227.5 221.7 216.8 210.7 205.2 196.6 188.9 181.7 176.8 172.4 168.9 166.7 165.4 165.3 165.3 164.9 163.7 162.7 160.5 160.1 159.9 159 158.1 157.2 156.1 154.6 152.8 153 151.8 151.4 149.8 149.6 151.6 156.3 161.3 166.4 172 179.7 184.6 189.5 194.6 200.3 205.1 211.2 212 214.7 217.2 221.1 220.9 220.9 222.1 223.3 224.7 225.2 225.9 226.2 227.6 228.8 231.2 230.9 228.2 223.8 218.2 214.9 212.6 212 213.9 216 219.1 222.3 226.2 230 236.3 240.3 242.1 243.2 243.2 243.9 248.2 256.1 260.2 254.6 246.1 239.1 236.4
216.4 212.9 207.8 202.9 199.4 194.2 191 187.1 183.8 181.9 180.3 177.3 174.6 172.3 169.4 164.1 157.7 154.9 149 145.5 139.8 139.2 143.5 144.1 138 137.9 138.1 139.9 147.3 146.4 145.8 145.4 144.3 143.5 143.2 144.9 146.2 149.5 152.2 156.7 159.8 162.9 165.2 165.2 165.9 167.1 166.4 166.8 166.4 165.9 165.4 164.3 162.5 160.7 159.3 156.6 154 151.8 150.2 147.6 142.6 141.5 141.6 141.1 140.7 139.6 136.3 137.5 137.4 137.6 137.2 136.5 135.7 134.7 134.2 134 133.5 132.5 131.6 130.9 130.4 130.8 130.7 130.8 130.8 130.8 130.7 130.7 126.2 132.1 132.7 132.7 132.8 132.5 132.3 132.7 132.8 133.3 132.9 133.9 141.9 142.3 149.7 154.4 161.1 166.2 175.9 192.4 208.7 222.6 227.2 226.4 222.8 221.5 221 216.2 211.6 206.9 202.6 195.2 189 182.4 177 171.9 168.5 166.4 164.7 163.2 162.7 162.2 160.7 159.5 158.7 157.6 157 156.8 155.9 155.4 154.8 153.8 152.6 151.2 150 150.1 149.2 147.8 149.3 152.3 157.5 162.5 166.3 170.4 175.3 180.2 185.1 192 195.9 199.5 207 212.2 214.5 214.5 212.9 213.4 214.4 215 216.2 216.7 216.7 216.9 219 220.7 220.9 223.8 225.4 223.2 218.5 214.2 210.3 209.1 209.6 211.2 213.1 216.4 219.1 222.8 227.2 232.2 237.2 240.4 241.2 240.7 243.6 249.6 260.7 265.3 255.9 245.6 241 240.7
226.3 223.2 217.6 212.1 207.5 202.8 197.9 194.5 192.1 188.2 184.3 180.6 176.9 174.1 171.5 167.7 163.2 157.2 154.5 150.7 146.6 145.4 141.7 142.8 142 141.2 149.3 150.2 150.1 149.1 148.6 148.2 147.8 147.9 148 150.6 152.7 155 157.4 160.3 163.1 165.9 167.6 167.3 167.2 169 168.8 169 167.4 166.3 164.3 163 160.8 156.2 154.2 150.7 148.7 148.9 145.3 142.6 141.5 141.7 140.8 140.7 139.9 135.9 137.2 137.4 137.7 137.5 137 135.5 135.5 134.5 134.1 133.5 133.3 131.6 131.8 131.9 130.2 130.7 130.7 130.7 130.7 130.5 130.5 130.5 126.9 131.5 132 132.2 132.5 132.1 132.1 132.6 132.1 131.9 131.9 133.1 136.6 142.2 143.6 150.3 156.6 163.2 168.4 177.3 195.1 207.7 211.7 213.8 211.5 206.3 207.7 205.3 200.8 196.3 192.7 186.8 181.2 175.6 170.7 165.2 162.9 162.1 160.8 160.5 159.6 158.3 156.7 156.1 156.2 155.1 155.2 155.4 154.7 154.1 154.1 152.2 151.7 150.4 149.7 150.5 147.4 146.6 148.8 153.1 157 161.4 165.5 168.5 172.5 177.2 181.9 188.1 192.2 198.2 206.5 215.4 215.8 214.2 211 209.5 208.6 210.3 210.2 210.6 209.8 210.5 212.5 213.4 214.9 217.1 218.1 216.9 214.1 210.5 208 208 207.9 208.8 210.8 212.5 215.6 219.7 223.3 228.2 232.6 235.6 238.4 242.3 246.5 252.3 266.2 267.1 257 246.8 243.1 243.3
237.1 232.5 228.5 223.7 219.2 212.5 206.2 201.6 197.7 192.4 188.8 184.1 180.4 176.8 172.3 168.2 164.5 161.6 159.1 155.1 153.1 151.4 150.2 151.3 152.5 152.7 152.2 151.5 151.3 151.3 151.8 151.7 152.3 153.3 154.1 156.2 158.8 160.8 161.2 163.2 165.8 168.3 168.7 169 169.7 170.9 171.1 168.8 167.2 164.5 163 161.8 159.1 153.9 149.9 147.4 147.5 144.8 144.3 143.7 143.2 142.3 140.7 139.8 134.8 139.8 142.2 137.4 137.6 137.3 137 135.7 134.8 134.4 134.8 133 133.5 131.8 131.6 131.8 130.7 130.6 130.6 130.7 130.5 130.2 130.2 130.4 130.4 127.9 131.5 132.1 132 130.4 132.4 132.1 131.6 131.7 131.8 133.1 134.1 138.3 141.5 146 151.7 156.5 163.3 165.6 180 191.5 197.4 200.5 205.5 199.7 195.6 192 188.9 185.5 182.7 179.2 174.8 169.4 164 160.7 159 156.6 156.7 156.2 156 155.6 154.9 154.6 154 153.5 153.9 154.2 153.6 153.3 153.5 152.7 152.6 151.8 150.9 149.8 146.9 147.2 148 152.7 154.4 159.6 163.4 167 170.9 178.6 183.4 188.7 191.2 198.9 209.8 217.5 217.7 214.3 211.3 208.1 206.1 205.6 205.3 205.8 205.5 206.5 206.6 208.2 209.6 211.9 212.9 213.3 210.3 208 206.5 206.3 206.3 207.1 208.2 210.1 213.2 216.6 220 223.6 227.6 232.1 238 242.9 249.6 259.4 268.9 266.3 258.2 249.5 244.7 245.1
247 242.9 237 231.8 225.3 219.4 212.6 208.2 202.1 196.3 192.8 188.7 183.2 178.6 174.1 170.5 167 164.3 161.6 158.6 155.4 154.3 154.9 154.8 155.4 154.4 154.7 154.9 155 154.9 155.7 156.8 158.1 160.4 162.8 163.6 165.3 165.3 166 166.2 169.5 171.3 172 172.6 173.3 173 170.9 168.5 166.3 162.6 160.2 158.2 156.3 152.8 149.1 148.9 148.4 148.2 147.5 146.5 143.6 141.5 139.5 140.4 140.3 139.8 140.2 143.3 138.9 137.4 135.9 135.8 134.8 134.2 134.6 133.8 135.2 134.5 131.6 131.4 131.3 130.9 130.6 130.6 130.2 129.9 130 130 130 126.7 131.7 131.9 131.2 132.2 132.4 131.1 131.7 130.4 132 132 132.4 133.4 134.7 139.9 143.3 150 154.4 156.3 162.4 174.4 181.9 186.2 190.1 189.5 185 182 179.8 176.6 174.4 170.8 167 158.6 160.3 156.3 153.7 152.6 153.2 154.2 155.5 153.9 153.4 153.1 152.6 152.3 152.6 152.9 153.6 155.3 156 156 155.7 155.1 149.4 151.6 148.5 146.2 144.9 149.2 152.8 159 161.8 164 169 176.2 184.1 191 195.3 204.3 212.5 217.7 221.1 219.4 214.9 210 206.7 205.4 203.8 203.9 202.4 202 202.1 203.1 204.5 206 207.7 209.4 207.6 206.2 205.3 204.4 205.3 206.8 208.4 210.2 212.7 215 218 220.7 224.7 229 234.8 241.8 250.1 260.3 265.8 261.7 255.9 249.4 245.6 245.2
255.9 251.4 245.8 239.6 232.6 225.7 219.4 212.2 207.4 200.9 195.9 190.4 185.1 181 176.1 172.7 170 166.8 164.5 160.8 159.8 158.3 158.2 158.7 158.5 158.5 158.8 158.9 159.4 160.4 163.5 163.1 165 167.4 168 169.5 171.4 174.2 173.5 174.1 174.7 175.3 176.8 176.7 174.8 172.6 170.5 168.2 165.7 162 159.4 156.9 155.3 152.5 151 151.1 151.4 150.5 150.3 148.4 144.2 136.6 142.4 141.2 140.5 140.9 140.5 141.1 144.3 137 135.4 135.6 135.2 134.2 138.4 138.4 140.7 140.9 138.7 137.8 134.6 131.6 130.7 130.6 130.4 130.2 130.2 130.3 129.8 130.4 129.7 131.8 131.4 132 131.7 131.4 131.2 131.2 131.6 132.2 131.7 131.7 133.7 135.7 140.2 141 148.1 151.2 155.5 160.5 164.2 169.8 172.4 174.7 174.9 173.1 172 168.3 165.7 162.6 157.7 156.4 154.5 151.5 150.5 150.4 150.3 150.8 152 152.1 151.7 151.1 150.8 149.9 151.3 151.8 153.5 155.4 156.7 157.4 157.8 152.8 155.4 156.6 152.4 152.3 149 148.4 150.2 155.6 158.8 161.1 165.2 172.7 182.1 191.7 198.5 206.2 209.8 215.6 220.9 222.5 218.8 212.8 209.3 207.1 203.3 202.3 200.6 199.2 198.7 199 200.5 202.2 204 205 203.2 202.9 203 202.7 204.4 206.3 208.1 209.9 211.7 213.5 215.6 217.7 221.5 225.3 229.8 237.8 246.9 258.1 260.2 256.6 251.7 247.8 247.3 244.6
262.4 256.3 251.8 245.4 238.3 230.5 224.3 216.9 211.4 204.5 198 191.5 187.4 183.4 179.9 177.2 173.9 169.6 165.6 164.6 163.7 162.8 163.5 162.7 162.6 163.9 163.5 164.1 165.9 167.5 169.2 171.5 171.9 172.9 176.5 179.6 181 182.4 180 181.6 180.3 180.8 180.4 179 176.8 173.4 170.1 169.3 166.7 163.2 161.2 158.9 157.5 156.3 156.8 155 152.2 152.4 151.5 146.1 136.8 142.4 142.3 142.3 142.1 141.9 141.5 141.2 138.6 142.7 145 141.7 141 143.6 146.2 143.5 146.2 146.3 145.3 144.1 140.9 137.2 132.6 131.2 131.1 130.8 130.6 130.1 129.7 130.3 126.6 131.3 131.5 131.4 131.2 131 131.1 131.2 130.8 131 131.4 131.5 132.1 133 139.5 140.2 140.8 143.9 148.7 151.3 155.8 158.4 161.1 164.2 165.1 165.7 162.8 160 157.9 155.5 155.2 151.9 151 149.1 148.6 147.6 148.1 148.9 150.5 151.1 150.4 149.9 149.8 149.8 150 150.4 151.4 153.1 154.7 154.7 155.5 150.6 156.3 154.8 152 151 148.7 142.5 148.1 150.3 153.6 157.3 162.7 170.1 179.2 189.6 196.3 201.7 207 211.6 216.5 218.6 217.7 213.1 209.6 207.5 203 200.5 199 195.8 196.7 199.3 199.8 200.7 202.2 201.2 200 200.3 200.2 201 202.3 203.6 205.2 207 208.9 210.8 212 214.1 217.6 221.3 224.9 231.1 239.8 248.9 250.8 248.5 244.8 242.4 243.3 241.2
265.2 260.4 256.1 249.8 242 234.1 227.4 220.9 214.4 205.5 201.1 195.1 190.8 187.9 184.6 180.7 176.7 173.6 168.2 168.4 167.5 168.2 167.9 167 167.1 168.1 169.8 171.4 175.1 177.8 177.8 177.8 179.2 182.9 184.9 185.5 187.8 188.8 186.6 189.5 184.9 185.7 183.5 180.5 177.5 174.5 171.8 170.5 167.4 164.3 163.3 162 161.3 161.9 161.2 156.6 154.3 152.6 149.5 138.6 143.9 143.7 143.7 143.7 143.1 142.6 141.8 143 146 147.6 148 146.1 145.3 151.2 151 147.7 149.6 148.9 148.6 149.3 143.5 141.4 137.2 132.9 131.7 131.3 131.5 131.4 129.5 130.1 126.8 130.8 130.9 131.1 131.1 130.9 131 130.6 130.6 130.8 130.7 130.9 131.1 133.3 134.9 140.5 140.7 141.1 141.2 145 149.4 151.4 153.7 155.7 157 157.3 154.8 152 151.5 149.1 146.8 146.6 144.8 146 146 146.5 144.9 144.8 145.9 148.9 149.3 149.2 149.1 148.5 148.5 148.4 147.9 149.8 150.1 149.9 147.1 151.1 151.4 150.6 150.4 148.9 146.4 142.9 143.1 147.5 150.2 155.5 162.7 170.9 178.4 186.2 191.8 195.8 200.7 205.7 209.3 211.1 212.4 209.6 206.2 204.1 200.9 197.3 195.6 193.4 194.2 197.6 199.2 200.2 200.2 199.4 198.4 197.1 196.9 197.7 198.8 200.2 201.4 202.8 205.2 206.6 208.2 209.5 213 216.3 219.7 222.4 227.8 234.7 237.5 236.9 236.7 235.3 236.8 236.2
267.4 262.4 256.5 250.6 243.8 235.8 227.3 220.9 214.3 208.4 203.8 199 194.7 192.4 188.6 184.7 179.8 176.4 174.1 173.4 172.9 173.6 173.1 172.9 172.8 174.2 178.8 181.6 185 188.4 191.3 192.9 193.6 195.1 197.7 199.9 199.4 197.7 194.3 193.5 188.5 187.4 184.8 181.1 177.8 175.7 173.7 172.3 170.6 168.8 166 166.3 165.4 164.5 160.8 156.7 153.9 150.5 139.5 143.2 143.6 143.1 143.3 143.3 143.4 143.7 145.9 149.4 150.3 152.2 153.3 152.7 152.1 146.6 146.7 153.7 154.5 149.1 153.4 149.6 149.9 147.6 144.2 139 134.3 132.5 132.4 132.2 129.6 129.7 126.9 130.6 130.2 130.3 130.6 130.7 130.7 130.8 130.8 130.9 130.6 130.4 130.6 130.3 130.4 130.6 130.7 130.8 131.1 132 137.5 143.5 147.1 147.7 149.5 148 146.2 145.2 145.5 143.9 142.3 141.8 140.9 143.6 143.8 143.3 144.2 144.6 144.8 147 148.4 148.5 148.7 147.7 146.6 146 146.1 146.3 145.8 145.1 146.8 146.8 146.8 147 147.3 146.7 144.3 143.8 141.5 146.4 148.5 151.4 158.3 167.5 173.7 179.2 183.6 188.5 191.9 197.2 200.5 202.4 204.4 202.6 199.7 197.4 194.9 192.6 189.9 188.4 189.6 192.8 194.7 196.5 196.8 196.9 196 193.9 192.6 194.4 195.7 197 198.3 199.3 200.8 202.1 204.3 205 206.4 208.8 212.4 214.4 216.9 221.7 224.6 226.3 227.1 228.7 228.8 229.2
267.1 261.8 256.4 250.3 241.5 235.5 228.6 223.2 218.1 212.8 207.3 203.4 199.6 196 191.8 186.9 182.6 179.5 179 178.8 178.7 179 181.2 180.9 182.9 186.3 189.1 193.9 196.8 198.2 200.7 203.1 206.4 209.5 209.4 210.1 208.7 203 200 197 192.8 189.2 185.5 180.1 178.4 177.6 176.4 176.1 175.2 172.8 170.4 168.5 166.4 163.5 159.4 155.2 151.1 138.8 143.9 143.6 144 143.3 143.4 142.8 146.2 149.3 152.3 155.8 157.4 159.6 159.3 157.1 158.8 158.1 156.8 156.3 150.5 149.3 149.1 149.6 151.5 153.4 150.9 147.5 143.2 135.5 132 132.3 132.5 129.6 126.4 130.4 129.6 129.4 129.8 130.4 130.3 130.5 130.7 131 130.7 130.5 130.4 130.4 130.2 129.8 129.7 129.7 129.8 129.9 129.9 130.9 137.9 141.2 139.7 141.8 142 139.7 140.7 140.4 139.3 138 137.7 138.2 138.8 138 141.2 142.2 143 145.2 147 147.2 147 145.7 145.5 145.1 144.4 143.7 143.5 145 145.3 145.4 145.6 145.8 145.6 144.3 143.2 141.3 140.9 146.3 147.6 149.1 153.5 159 164.2 170.2 174 179.8 183.1 188.4 191.1 193 195 193.9 191.1 189 186.3 185.3 183.8 181 183.1 186.5 188.7 189.8 191.8 192.6 192.2 191.3 188.7 191.5 193.5 194.5 196.5 196.9 197.9 199.3 200.3 201.9 204 206.2 207.3 209 210.6 212.9 215.9 217.4 220 220.4 221.2 221.8
267.2 261.1 256.8 249.9 243.2 237.5 232.1 226.8 221.4 216 210.4 205.7 201.9 197.5 193.5 189 186.4 184.9 183.7 184.8 185.7 186.3 187.8 188.8 192.5 196.4 199.5 201.3 203.6 205.9 208 215.7 219.3 218 217.4 214.6 211.5 205.2 201.5 197.5 192.7 188 184.6 182.2 180.4 179.2 179.3 179.4 177.9 175.2 174.2 171 166 161.2 156.7 152.5 146.6 142.7 144.3 145.3 144.7 143.5 146.2 147.5 151.8 153.2 156 160.2 162.6 163.5 161.9 161.4 163.4 162.9 159.5 160.8 161.8 160.5 157.9 159 156.6 153 151.1 151 151.4 150.1 143.4 130.8 133.4 129.4 126.6 130 129.2 128.6 129.5 129.9 129.7 129.8 129.9 131 130.9 130.7 130.8 130.7 130.4 130 129.8 129.8 129.7 129.6 129.7 129.6 129.7 129.9 133.6 134.9 135.2 133.5 134.5 135 134.5 134 134.1 134.8 134.6 135.5 133.5 138.2 139.3 140.9 142.6 143.8 144 142.4 142.1 143.1 140.6 141.3 143.3 144.1 144.4 144.5 144.7 145.5 143.5 142.7 142.4 137.3 142.8 145.9 146.3 147.3 149 151.5 158.3 162.8 164.6 168.7 173 176.5 181.1 182 183.5 183.6 179.8 178.7 177.8 177 176.7 174.6 176.7 178.6 181.2 183.2 185.2 187.2 187.4 186.7 186.1 190.5 191.6 194.2 196.2 195.9 196.6 197.2 198 199.7 200.1 201.5 202.6 203.4 204.3 205.4 207.3 209.7 210.8 213.1 213.9 214.6
268.4 263.7 258.8 253.9 247.8 240.7 235.3 229.2 223.1 216.8 212 206.9 202.6 198.2 194.9 192.2 190.9 190.7 190 191.7 194.9 195.5 198.5 198.1 201.3 204.4 206.2 207.8 210.8 213.6 215.9 223.1 225.1 223 219.2 215.3 211.4 207.1 202.1 195.8 191.5 187.6 184.2 182.6 180.9 179.6 179.9 179.5 177.9 174.3 172.1 168.2 163.4 158.6 155 147.5 146.2 144.3 142.2 148.7 150.1 151.3 152.2 152.8 156.5 158.6 160.9 164.6 167 165.5 165 165.7 167.6 166.6 162.8 163.5 163.5 163.2 160.1 164.2 165.8 165.3 164.1 163.6 159 151.1 149.6 145.5 136.7 129.8 126.9 126.8 129.8 129.2 129.3 129.4 129 129.1 129.5 131 131.1 131 130.8 130.7 130.7 130.3 130 129.9 129.7 129.4 129.5 129.3 129.2 129.8 130 130.1 130 130.3 130.4 130.3 130.3 130.4 130.4 131 129.4 128.8 128.5 129.5 131.5 135.6 136.8 138.5 136.7 141.2 136.9 140.6 139.3 140.2 142.6 143.9 143.6 144 144.5 144.2 139 134.9 135.3 141.5 144.5 145.6 146.3 146.4 147.6 148.8 150.1 153.2 157.4 160.2 163.3 167 170.6 173.1 173.2 172.8 170.1 169.2 170.2 168.6 169.6 169.8 171.2 173.8 175.9 178.3 179.6 180.8 181.4 180.1 185.7 189.2 190.1 192.9 195.1 195.3 195.9 195.3 196.1 196.7 197.4 198.4 199.1 198.7 198.8 199.4 200.7 202 203.3 205.6 206.8 207.6
270.6 268.1 262.5 256.2 249.3 242.3 235.1 228.7 222.6 217 211.7 206.8 202.7 200 198.1 196.7 196.3 197.5 200.3 201.1 204 204.4 205.9 206.2 208 209.7 211.5 213.8 216.9 219.2 222.1 226.3 227.2 223.2 219.1 215.3 211.4 207.1 201.1 194.6 190.5 186.5 184.3 182.8 181.4 180 179.6 177.2 174.7 171.9 167.4 164.2 159.6 156.9 151.6 147.6 146.1 144 150.2 151.2 153 153.9 153.6 156.7 161.1 164.3 165.8 168.3 169.2 169.1 168.2 169.5 168.9 166.9 166.6 165.5 165.7 164.5 165.2 169.3 171.8 174.7 178.2 177.9 175.6 172.6 162.7 151.7 147.9 144 138.8 133.6 129.4 126.4 125.5 129.1 128.8 128.9 128.9 130.1 130.6 130.9 130.8 130.7 130.6 130.6 130.2 130 129.8 129.5 129.3 129.2 129 129 129.2 129.2 129.5 130 130 129.8 128.2 127.2 123.3 126.2 123.3 129 128.5 128.5 128.9 128.2 129.1 130.2 137 135.8 137 137.9 136.9 140.1 142.3 143.5 143.6 144.1 143.5 140.6 133.8 137.8 144.1 147.5 150.4 153.8 153.1 148.8 147.6 149.3 150.7 149.5 149.6 152.5 155.6 159 161.4 163.4 164.4 164.1 162.3 162.4 164.3 164.5 164.9 166.3 167.7 169.8 171.9 173.6 175.2 176.1 177 179.3 183.7 186.6 189.3 191.4 193.4 194 193.6 192.2 192.2 193.9 194.8 195.4 195 194.2 194.3 195.6 196.4 196.3 197 198.6 200 200.3
274.2 268.9 263.6 256 250 242.3 233.7 226.7 221 216.6 211.9 207.6 205.2 204.9 203.6 202.4 204.5 205.1 206.9 209.3 210.9 211.9 212.7 211.9 211.8 214.7 217.1 219.3 220.8 223.3 227.4 229.1 227.1 222.9 219.1 215 209.7 205.1 199.5 193.6 189.3 186.2 183.9 182.7 180.6 178.5 176.6 173.9 169.8 168 163.6 159.1 157.3 154 148.8 144.3 144.4 145.6 150.6 154.3 155.8 156.6 159.4 164.7 167.2 169 171.8 172.8 172.5 172.1 172.6 172.8 170.3 168.4 168 168.9 169.9 169.3 170.9 175.7 181.2 186.3 190.9 192.2 193.9 187.8 173.9 161.5 155.9 152.2 144.5 143.7 140.2 134.4 131.9 128.3 125.1 124.7 124.2 128.4 129.1 129.3 129.9 129.8 129.4 129.4 129.5 129.7 129.9 129.6 129.3 129.2 129 128.8 128.5 128.4 129.1 129.1 129 129 123.9 126.6 126.6 125.7 125.6 123.3 126.4 127.1 127.6 127.3 128.1 135.5 133 128 130 132.6 133.6 133.1 137.9 143 142.9 140.2 136.6 133 138.8 144.3 146.2 149.3 153.9 155.9 154.2 149.7 146.8 148.8 149.7 147.2 147.3 148.3 151.4 152.4 153.8 155.2 155 154.3 155 157.6 159.2 159.1 160 160.9 162.3 164.6 167.8 169.9 171.6 171.5 170.2 177.1 180.1 183.3 185.6 187.3 189.8 191.5 190 188.2 189 189.8 190.8 191.5 190.8 190.1 190.2 191.3 192.5 193.5 193.5 193.7 194.8 196.6
277.4 271.5 264.9 256 248.5 239.8 232.5 226.9 222.1 218 215.7 213.3 211.2 211 209.6 209.8 210.3 210.6 214.8 216.6 216.7 216.7 217 217.2 217.2 219.2 222.4 224.8 225.9 229.1 230.7 230.2 227.4 223.1 218.5 212.8 208 203.8 198 192.3 187.9 185 182.9 180.8 178.6 176.3 173.6 170.1 166.8 162.8 159.3 157.1 154.2 149.1 145.5 149.3 148.9 146.4 153.1 156.1 158.5 159.7 165.4 168.4 170.6 172.6 173.6 175.2 176.4 177.2 178 177 175.1 171.3 171.6 177.9 174.3 173.4 176 184.3 197.8 209.1 207.3 202 198 192.5 181.4 170.7 163.5 157 152.1 149.4 142.9 142.3 138.7 134.7 130.4 128.7 128.3 128.5 124.7 124.4 125.1 128 128.1 128.2 128.5 128.9 129.3 129.4 129.3 129.1 128.9 128.7 128.5 128.5 128.5 128.1 127.8 123.8 126.1 126.5 126.2 125.9 125.9 126.3 124.7 123.3 126.9 127.9 134.6 129.4 126.6 127.5 127.8 129.1 129.2 127.9 130.3 135 135.4 131.2 133.1 140.5 143.4 146.7 149.9 151.4 151.2 152.9 152.9 149.3 146.9 148.1 149.3 148.9 147.4 146.2 146.6 147.8 149.2 148.6 147.8 147.4 149.1 151.1 153 154.1 155.6 157.3 159.3 161.3 163.7 166.7 167.8 169.6 170.3 173.7 176.7 179.2 181 182.7 183.9 185.2 185.2 184.6 184.5 185.2 186.4 186.9 186.3 186.4 186.5 187 188.1 189.9 189.7 189.5 191.4 192.7
278.8 272.9 265.3 257.5 249.7 241.7 236.7 232.3 227.5 223.8 221.8 219.4 219 217.5 218 215.5 215.9 216.2 220.1 221 221.1 221.1 221.6 221.6 222.6 225.6 228.1 230.8 232.8 233.2 232.9 230.9 227.3 223.2 216.6 209.9 205.3 200.9 196.3 191 186.5 183.5 180.8 178.3 175.2 173 170.1 166.7 163.2 159.2 157.3 155.9 150.5 145 150.6 153.7 150.3 149.3 155.9 158.8 161.9 162 168.5 171.9 173.3 174.3 175.5 178.3 181.7 182.3 183.2 181.4 179.6 176.2 177.8 181.4 183.3 181 181.7 188.1 203 218 215.5 209.9 200.8 194.5 186.2 180.1 174.4 167.2 160.7 155.8 151.4 149.9 142.1 141.7 139 135.4 128.1 128.6 128.9 129.1 128.8 128.8 124.7 124.4 124 126.8 128.6 128.6 129 128.8 128.7 128.6 128.4 128.2 127.8 127.2 126.1 124.4 126.7 126.7 126.3 126 126.3 126.5 126 126.3 122.8 122.2 125.7 122.7 121.6 126 126.8 128.6 128.7 128.1 128.3 129 137.6 135.4 143.5 144.1 144.7 148.6 151.6 151.7 151.4 150 149.7 148 144.6 144.6 147.4 148.6 146.4 145.3 144.5 145.1 145 144.8 144.6 144.3 145.4 146.6 148.6 150.5 152.4 154.8 157.3 159.8 162.1 163.1 160.6 166.2 169.1 170.7 172.6 174.9 175.5 176.6 177.1 177.6 178.3 178.9 179 180.1 180.5 181.8 181.8 182.2 182.9 183.1 182.6 183.7 185.5 187.2 188.9 189.7
280.1 272.6 265 258.7 251.7 245.5 241.3 237.9 234.2 232.2 229 226.8 226 225.4 222.8 219 221.4 221 222.1 222.1 223.4 223.9 225 225.5 228.2 231.8 233.8 235.9 236.4 236.8 234.9 231.3 227.9 221.6 214.5 207.6 202.1 197.6 193.2 188.2 184.6 181.5 178.3 175.3 171.5 169.1 165.8 163.7 160.2 158.6 157 152.9 145.3 152.5 156.4 155.4 151.2 151.4 157.9 161 164.1 166.4 169 172.6 174.9 177.4 178.8 180.8 186 188.8 188.1 187.7 188.4 187.9 189.1 187.4 184.9 186.2 186.7 192.7 206.5 218.3 215.9 211.4 204.6 199.6 194.1 191.2 184.8 179.9 174.5 168.6 162.6 157.1 151.9 148.7 143.8 142.7 136 128.6 128.6 128.6 128 128.4 128.3 128.2 127.9 127.9 124 128.8 128.5 128.3 128.2 128.2 128.3 127.7 127.1 126.6 124.4 124.6 126.7 126.7 126.5 126.4 127 126.8 126.5 131.8 130.9 124.9 124.5 122.7 123 122.7 126.4 125.9 127.8 126.8 126.9 129.2 136 140 143.3 144.3 145.7 150.4 151.8 151.6 151.4 149.8 146.7 145.5 143.8 142.1 143.3 143.9 143.6 143.4 143.1 143.5 143.9 143.5 143 142.9 143.6 144.2 145.2 147.3 149.9 152.6 154.8 157 158.9 155.3 160.8 164.5 166.6 166.6 167.5 168.1 168.1 169.8 170.4 171.1 172.5 173.1 173.3 173.5 175.2 177.5 178.7 177.6 179.1 179.3 179.5 180.6 180.3 182.7 186.1 188.9
279.2 273.7 267.3 261.2 256.7 251.4 247.2 243.5 240.2 238.2 235.7 232.7 231.3 227.6 223.7 222 223.5 223.3 222.6 222.7 223.7 225.8 228 230.2 233 236.3 238.5 240.4 239.9 238.5 236.1 231.8 226.4 219.3 211.5 204.7 198.8 193.6 189.9 186.5 182.8 178.9 175.6 172.1 168.7 164.9 162.4 159.8 158.6 157.4 152.5 146.2 150.1 157.8 157.8 155.3 153.4 152.1 157.8 162.2 165.3 167 170 173.2 176 178.6 182.2 185.2 190 194.4 196.7 197 197.7 197.4 195.7 195.3 193.8 190.6 192 196.6 205.3 216.3 217.6 214.5 211.9 209.5 205.4 200.7 195.4 191.2 186.7 180.7 174.9 169.4 164.1 159.3 154.4 145.5 143.9 136.6 130.9 128.7 127.4 127.9 128.1 127.9 127.6 127.6 127.7 124.9 128.3 128.3 128.3 128.4 128.4 127.6 124.6 124.3 127.9 127.2 126.8 126.6 126.6 126.8 127.6 126.8 131.4 128.8 125.1 125.1 125.2 125.3 125.4 124.5 122.3 126.8 125.6 125.2 125.8 127.6 136.1 142.5 142.6 144.1 146.1 150.1 151.8 152.9 153.4 152.1 146.6 143.3 142.3 140.5 137.4 141.6 142.7 142.8 142.4 142.2 143 142.6 142 142.8 142.4 142.2 142.9 144.3 147 149 151.5 154.1 153.2 155.6 159.5 161.5 163 163.2 162.8 161.8 162 163.4 164.2 166.2 166.5 167.4 167.3 168.6 170.4 171.2 173.5 177.6 179.3 179.9 179.4 179.5 183.6 185.8 189.8 193.1
279.3 274 268.6 264.2 259 254 250.8 247.4 244.3 240.8 237.2 233.2 230.1 226.5 223.1 222.1 221.8 220.7 220.6 223 224.8 229.2 230.8 234.8 237.5 239.8 242.1 242.4 240.3 237.9 234.1 229 223.3 216.6 208.8 201.9 194.4 189.7 187.9 184.1 180.7 175.8 171.6 167.8 165.2 162.4 160.4 158.2 156.4 153.3 147.9 148.9 157.2 158.4 157.9 156.6 155.6 153.7 158 163.3 166.8 169 171.4 175.4 178.9 182.7 188.4 193.1 199.5 202.2 205.5 204.7 203.9 203.9 202.1 200.2 198.9 196.6 196.9 199.9 206.8 217.5 219.7 219.8 218.8 216.6 212.6 208.2 203.7 199.8 196 191.8 188.1 181.5 176.4 171.2 164 158.4 151.5 148.2 142.8 134.8 128.9 127.5 127.8 127.6 127.4 127.3 127.5 127.8 124.9 128.1 128.2 124.7 124.6 125.3 129.7 129.4 128.5 128.1 128 128 127.9 129 133.2 132 127.2 126.2 125.4 125.7 125.5 125.4 125.3 125.5 125.7 123.4 122.4 125.3 124.3 125.7 129.7 140.2 143 144.2 145.6 148.6 150.4 153.4 155.1 153.1 146.8 142.3 141.8 140.4 140.3 140.2 140.4 139.6 140.6 142.4 142 141.5 141.2 141.5 140.8 140.1 141 142.4 143.6 145.7 147.8 149 149.1 153.1 155.6 158.5 159.7 160.1 158.1 156.8 157 157.9 158.9 159.4 160.8 162.3 161.8 164.1 166.7 172.1 176.2 180 181 181.8 182.6 185 189.6 192.9 195.3 198.4
276.2 272 267.4 263.7 258.8 254.5 250.1 246.3 242 238.9 234.9 231 227.5 224.2 221.3 219.3 218 217.3 218.3 221.4 224.7 229.6 233.1 236.3 239 240.4 240.3 238.7 235.7 231.8 228.4 224.6 220.2 213.6 207 198.2 190 186.9 183.3 179.8 176.4 172 167.2 164 162 159.5 155.7 152.3 152.5 150.1 146.2 155.9 159.6 159.3 158.3 158.5 156.6 155.2 160.6 164.4 166.8 169.3 172.6 178.7 184.3 189.7 195.1 203.6 208.4 210.8 211.2 211.2 211.2 210.9 207.9 206.2 204.1 203.2 203.5 206.4 213.4 219 223.3 224.7 224.6 222.5 219.8 216.9 212.2 208.1 204.7 201 197.5 192.3 187 182.1 177.2 169.9 165.1 160.4 149.7 145.7 138.1 133 127.6 127.4 128.2 127.8 127.5 128.2 133.4 132.2 135.8 142 144.9 143.9 144.1 140.3 140 136.2 134.7 136.8 137.3 133.9 127.4 126.7 126.6 126.5 125.9 125.5 125.5 125.4 125.2 125.4 125.2 124.6 122.7 121.3 125 124.7 125.5 130.1 141.2 143.4 145.5 147.2 147.7 149.6 150.9 150.4 144 141.5 140.5 139.5 133.5 139.9 139.8 140.8 138.9 137.7 137.6 138.9 137.8 139.5 138.8 138.1 138.6 141 142 143 144.3 144.6 144.2 149.1 152.2 154.6 155.6 156.1 154.5 153.7 152.8 153.2 154.1 154.7 155.4 157.3 159.4 161 165.6 170.8 175.9 179.5 182.3 185.4 187.7 189.5 194.3 197.9 201.1 205.4
271.5 267.6 262.2 258.1 252.9 248.9 245.2 241.1 237.6 233.4 229.8 227.2 224.2 221.4 218.2 214 213.4 213.5 215.8 219.4 224.4 228.5 232.3 234.2 235.3 235 233.5 231.5 228.9 226.6 223.8 221.4 216.6 211 203.9 196.1 188 183.1 179.4 174.8 170.9 167.1 163.9 162.5 160 155 153.9 152 146.4 147.7 158.6 158.7 158.8 158.8 159.1 159.6 156.9 157.4 162.6 165.5 167.6 169.7 175.7 182.2 187.8 194.6 204.6 209.8 214.1 217 216.3 217.2 216.5 217.1 213.8 214.4 210.9 211.5 211.8 212.1 216.8 222.5 226.4 229.4 230.7 230.7 228.9 227.1 224.3 221.2 215.3 213.9 211.8 207 203 198.4 194 187 181 175.1 168.8 157.4 152.2 149.1 144.5 141.9 142.5 144.4 148.3 151.6 155 156.6 155.3 153.9 152.1 150.2 148.6 146.9 145.1 143.3 143.5 145.1 136 130.6 127.5 126.3 126.4 126.4 126.6 126.4 125.4 125.3 125.2 124.8 124.2 123.6 125.1 125 123.7 121 124.3 123.8 131.5 141.3 143.7 145 145 146.7 147.6 146.1 143.3 141.4 139.2 136.5 131.2 135.1 135.1 133.7 133.3 133 132.3 136.5 134.5 135 135.9 137.5 137.1 139.4 139.9 140.4 141.4 140.5 143.7 145.8 148.2 149.5 151.3 152.1 152.1 151.4 150.8 150.2 150.4 151.9 153 154.2 156.1 158.8 161.9 167.1 173.4 178.5 182.6 187.3 192.1 195.7 199.7 202.8 207.1 212.4
264.9 260.1 254.5 250.2 244.7 241.5 238.5 234.7 231.6 227.3 224.5 222.2 219.1 215.9 213.1 211 209.9 209.7 212.1 214.7 220.7 224.6 226.4 227.8 227.9 227 224.5 222.1 220.9 220 219.6 216.3 211 204.7 199.1 192.3 185.6 178.7 174.7 170.3 167 164.5 162.4 159.3 154.7 152.6 151.6 149.2 148.9 151.2 158.6 158.8 158.9 159.1 160.1 160.5 157.8 157.9 162.4 166.1 169.7 172.6 179.6 185.1 191.5 200.9 209.7 218.1 223.3 225.1 226.2 225.3 224.8 222.7 220.2 220.2 221.1 220 218.5 217.6 221.5 225.7 229.7 234.1 239.1 242 240.5 239.3 235.1 233.9 232 228.4 225.9 222.3 219.5 215 210.1 204.9 198.6 194.3 189.5 181.4 175 165.7 156.2 155.8 156.2 157.5 157.6 160.7 164.2 167.8 169.6 168.4 166.2 165.5 163.2 161.6 160.1 160.6 157.5 155.6 152 145.2 141.4 135.8 129.2 127.4 127.6 127 125.8 125.8 125.4 125.2 124.6 124 125.7 125.2 124.8 124.7 124.5 120.8 124.2 129.7 140.6 142.4 143.1 142.8 143.7 142.9 141 139.2 133.5 129.9 129 127.5 123.6 122.7 120.9 119.2 117.8 117.7 119.8 125.3 129.7 132.3 135.2 136.7 137.4 138.4 139.1 138.3 141.5 142.1 144.1 145.9 148 149 149.9 149.5 149.6 148.7 148.7 149.1 151.2 152.2 154.2 157 159.9 164.3 170.2 176.2 182.7 188.5 196 202.2 206.5 209.8 213.8 219.7
256 250.6 245.1 242.6 238.3 235.6 232.7 228.9 226.3 222.5 218.7 216.6 213.9 211 208 207.2 206.5 205.7 208 210.4 212 215.1 216.2 217.4 218.8 217.1 216.4 215.2 212.6 210.9 210.7 210.6 205.3 199.6 194.5 189 180 174.8 170.4 167.3 164.4 162.3 159.2 154.6 152.6 151.8 150.4 146.3 150.3 158.6 159.8 159.6 159.8 159.8 160.8 162 160.1 157.6 160.7 165.8 171.3 175.2 180.9 187.3 194.8 206.6 214.5 227.2 234.7 238.8 239.4 237.8 236.5 232.4 228 229.8 227.9 225.3 223.1 223.7 225.3 227.6 232.2 236.4 243.6 247.2 246.4 245.3 244.7 243.8 243.3 240.4 239.8 237.6 234.4 230.5 225.4 220.7 215.3 210.5 206.2 201.3 195.8 189.6 183.5 180.4 180 171.3 179.8 181.4 181.5 186.6 186.7 185.4 183.9 184 179.9 179.3 177.2 177.5 174.9 173.4 174.4 172 161.3 154 144.9 137.5 130.4 127.5 126.4 125.5 125.8 125.7 125.4 124.6 125.4 125.2 125 124.9 124.7 124.6 120.8 123.7 128.8 136.6 139.3 140 140.7 140 132.8 127.7 122.6 119.6 119.7 120.1 121.6 121.1 122.5 121.2 121.1 119.3 118.4 118.2 117.6 122 131.9 134.3 134.3 136.1 137.6 134.4 139.6 140.4 141.4 143.5 145.5 146.4 147.3 147.5 147.4 147.7 148 148.5 149.4 150.4 152.5 155.7 158.9 163.6 168.8 175 181.3 187.9 194.7 202.1 208.8 212.5 217 223.7
244.2 240.3 239.3 237.3 234.1 230 227.4 224.2 221.8 218.7 214.8 212 209 206.4 203.9 201.4 200.5 200.8 202.4 202.8 202.8 205.5 206.3 206.5 206.7 206.4 205.9 205.3 202.7 203.3 204.3 202.4 199.4 193.6 188 183.6 177.3 171.7 167.1 163.5 161.1 157.9 151.4 151.2 152.3 150.8 148.3 149.2 155 158.5 159.2 160.4 161.1 161.8 163.6 165.9 162.7 159.3 167.6 167.5 170.2 175.2 182.3 188.9 197.7 209.6 220.2 233.1 243.5 248.5 248.4 245.9 243.5 239.4 235 236.2 233.7 230.8 228.3 228.9 229.9 230.3 235.5 238.9 245 251.4 252.8 254.6 255.2 255 252.2 249.9 248.1 247.9 245.9 241.4 237.5 233.1 228.2 224.3 219.3 216.5 211.8 208.5 205.9 201.7 202.3 189.8 200.5 199.3 200.3 204.4 205.9 205.7 203.8 203.3 202.8 197.9 195.2 194.5 195.4 195.6 200.7 199.3 186.6 176.8 161.3 148.5 139.3 130.6 127.3 125.7 125.6 126.1 126.5 125.6 125.8 125.5 125.3 125.1 124.9 124.8 124.4 121.2 122.6 124.9 128.1 131 134.4 129.5 126.3 118.8 124.7 129.4 128.9 130.2 128.3 126.5 127 125.5 125.1 125 124.1 123.1 122.4 118 119.8 132.7 132.3 132.5 136.1 131.6 137.8 138.8 139.5 141.5 143 143.7 144.6 145.3 145.7 145.5 146.5 146.9 147.9 149.2 151.1 154.4 158.8 163.1 168.9 174.4 180.4 186.8 193 199.1 206.4 211.9 217.9 225.8
238.1 235 234.1 232 229.9 225.3 221.5 218.7 215.7 211.8 209.7 207.3 203.6 201.2 198.9 197 194.9 194.9 195.7 194.4 193.4 193 193.4 194.8 195.6 195.3 196.5 194.2 195.7 196.3 196.9 194 190.8 185.5 180.7 176.4 171.9 167.6 165.3 157.2 155.7 153.2 153.6 152.3 149.1 148.8 149.9 153.4 158.4 159.9 161.1 163.8 165.2 167.1 168.1 168.9 164.9 162.3 172 172 170 175.2 181.7 191.2 199.8 211.3 222.3 235.7 247.4 251.7 251.8 250 246.4 241.9 239.4 239.7 237.1 235.4 233 232.9 233.8 235.3 237.9 241.1 246.3 252.7 257.1 259.8 260.1 259.1 257.8 256.2 256.7 256.8 255.3 255.3 252.1 246 241.8 238.7 235 231.2 227.6 225.1 222.2 221.7 222.6 215.2 219.8 215.5 217 218.4 219.7 220.6 219.9 219.4 215 213 212.4 215 217.2 218.7 219.3 211.6 204.4 193.1 179.3 162.4 147.3 138 130.7 126.4 126.3 126.5 126.8 126.6 126.2 125.9 125.7 125.4 125.2 124.9 124.6 124.4 124.5 122.3 121.7 121.9 122.4 122.1 119 132.1 133 133.6 134.1 133.2 131 129.9 127.2 126 125.5 125.4 125.3 124.9 123.5 122.3 118.2 123.3 129.9 130 131.8 129.4 134 134.2 136.1 138.6 140.5 141.5 142.4 143.5 143.9 144.2 144.8 145.6 146.6 148.1 150 154.4 158.2 162.8 168.5 174.5 179 184.7 190.4 196.2 203.4 210.2 216.5 223.3
232.9 231.5 230.6 229.1 226.3 222 217 215.3 210.7 206.4 205 202.5 200.3 196.8 194 190.7 188.6 189.2 188.1 186.7 184.2 184.3 183.7 184.1 184.4 185.2 185.3 184.8 186.4 186.2 185.6 185.3 181.2 175.8 172.9 170.8 168.1 165.6 159.6 156.8 155 152.7 157.4 156.8 155.4 154.2 155.5 157.6 160.3 164.2 166.6 169.3 171.2 173.5 173 170.6 166.6 165 171.3 174 170.9 175.7 183.1 191.7 202.3 212 222.9 234.1 246.7 252.7 251.9 250.1 247.8 245.4 244.4 242.9 241.3 239.4 238.7 237.5 238.3 238.8 240.6 243.8 247.7 253.9 260.2 263.1 264 263.9 263.5 263.9 264.5 265.3 265.2 267.5 267.1 262.1 258 255.6 251.5 249.3 245 241.7 239.1 237.6 236.9 233.2 235.7 232.4 234 234.9 236 235.3 234.6 233.5 234.4 233.1 232.4 234.2 235.9 236.9 232.6 223.1 213.8 203.5 192.6 174 156.2 142.7 135.8 129.7 126.2 126.8 127.3 126.7 126.9 126.8 126.6 126.4 126 125.6 125.5 125.6 125.2 124.9 124.4 124.2 124.6 126.9 136.2 136.1 135.2 134.5 135.6 135.3 133.6 131.5 129.9 126.3 125.3 124.7 124.6 124.8 124.3 123.1 119.4 117.7 125.7 127.2 125.6 131.1 135.2 136.8 136.7 137.5 138.9 138.4 140 143 143.1 144 144.5 145 146.3 147.9 150.1 154.6 158.1 163 168.3 173.8 179 184.5 189.8 195.7 203.1 210.8 217.1 223.2
230.5 226.7 224.9 224 222.2 217.6 212.4 209 205.2 201.9 198.9 197.4 194.6 192.2 189.5 186.7 184.2 181.9 179.1 177.7 177.1 177.3 177.2 176.5 177 177 176.9 176.8 175.6 175.5 174.2 173.2 172.5 169.7 167.4 164.8 163.1 162.2 158.4 156.1 154.5 156.3 159.2 158.6 158.4 159.5 160.9 162.8 167.3 170.8 173.9 176.8 177.9 178.7 178.3 174.3 166 166.6 170.8 173.1 176.6 179.2 180.4 190.8 203.2 210.5 220.7 230.9 244.7 251.3 251.1 249.7 249.4 249.6 248.8 247.4 247.2 246.2 244.7 243.9 243.3 243.6 245.9 247.1 250.4 255.8 262.2 265.8 268.7 269.9 270.3 271.9 274.1 276.2 278.2 278.6 276.9 272.1 269.7 266.7 263 259.5 255.4 251.3 248.1 247.3 246.8 243.4 244.4 244.9 246.9 247.3 247.1 248.1 248.2 248.1 247 246.8 246.3 245.1 244.8 240.8 235.6 228.3 219.1 209.2 196.3 182.5 166.1 147 140.8 134.9 129.7 128 127.2 127.6 127.6 127.8 127.6 127.3 126.8 126.8 127 127 126.3 126 127 128.7 131.3 134.1 137.8 138.1 137.2 136.4 136.2 135.3 133.7 133.2 132.6 130.8 128.8 126.1 125.6 124.7 124.3 123.9 122.4 116.6 120.9 126.3 130.1 133 135.4 137.7 138.6 140.1 141.8 142.3 142.3 142.2 142.9 143.8 144.3 144.9 146.1 147.6 150.2 155 158.9 163.9 169.5 173.9 179.7 185.4 191.1 195.8 203.1 210.9 216.2 221.8
231.3 227.5 221.7 216.4 214.3 211.1 206.9 203.9 200.6 198.1 194.2 191.8 188 186.1 184.7 182.3 179.7 177.5 175.7 174.7 173.6 171.9 171.6 170.7 169 169.8 170.4 170.2 169.7 169.1 168.2 166.2 165.7 163.2 161.2 158.7 157.6 155.8 155.4 155.6 160 160.9 160.8 160.6 161.8 163.2 166.2 171.3 175.2 179 180.9 182.8 182.8 182.8 181 174.5 164.3 172.8 176 176.6 179.4 182.8 187.2 190.7 200.1 209 218.8 227.9 241.2 247.8 249.4 251.5 252.9 254.7 255.1 256.5 254 254 253.1 251.7 249.9 249.8 251 251.4 253 257.1 262.2 266.2 270.8 273.7 275.9 279 281.9 285.7 286.2 286 282.7 279.4 276.2 273.7 270.6 266.6 261.2 257.9 255.3 253.8 253.1 251 252.3 253.8 255.5 255.2 256.1 256.5 256.3 255.4 253.8 251.5 249.9 247.4 244.7 240 234.1 228 220.7 210.2 200.3 185.7 168.1 154.6 144.2 137.4 132.2 130.7 127.6 129 129 128.8 128.5 128.1 128.2 128.3 128.3 128 127.7 127.3 128.1 134 137.3 138.9 138.8 138.7 138.4 137.6 136.6 135.9 134.5 133.5 133.3 132.1 132.4 130.7 128.7 127.3 126.6 124.1 122.6 116.5 121.1 130.1 133.9 134.3 136.1 138.2 140 141.1 142.2 142.7 142.9 142.8 143.2 143.5 144.3 145.1 146 147.3 150.2 155.3 161.3 166.8 172.1 177.2 182.1 187.2 192.9 196.8 202.5 209.3 214.5 218.9
228.7 224.2 220.1 212.4 208.4 206.6 203.2 199.9 196 192.3 189.3 185.5 182.8 182.3 179.5 176.8 173.4 170.7 168.7 168.9 169.3 167.6 167.5 167.8 167 166.3 165.9 165.7 165.7 164.8 163.9 162.6 161.4 160.5 159.1 159.7 159.1 156.1 160.2 162.7 162.6 163.1 163.4 166.1 168.7 171.5 175.9 179.4 182.9 184.3 185.8 185.6 185.3 183.7 182 172.4 166.9 177 178.7 179.6 181.3 186.6 192 196.8 199.6 205.5 214.3 224 237.5 245 249.7 253.6 259.5 262.2 265.7 264.4 261.1 262.4 261 258.7 257.3 255.8 254.7 255 255.9 258.4 261.9 265.2 268.2 272.3 276 280.6 284.3 287.7 289.4 289.9 288.2 284.9 281.7 279.3 275.9 272.1 268 264.3 262.1 261.1 260.7 258.9 259.7 261 262.4 261.7 262.6 262 260.3 258.7 257.5 255.3 252.7 248.4 243.6 239.4 232.7 226.2 218.1 206.6 197.9 186.2 174.1 158.7 147.2 139.6 134 132.4 128.3 128.6 128.7 128.8 129 129.4 129.5 129.5 129.3 128.8 128.5 128.1 127.7 133.8 138.1 138.6 139 139 138.8 138.1 138.9 138.4 137.2 137 136.3 135.1 135 134.4 132.6 130.5 129.6 126.7 123.4 117 119.4 130.2 136.1 137.8 138.5 140.1 141 141.6 142.5 142.9 143.4 143.3 143.8 144.2 144.6 145.5 146.9 148.3 150.7 155.4 161.5 167.5 175.5 179.5 184.7 191 194.3 199.2 202.9 207.1 211.8 217.2
224.2 218.5 212.1 208.7 204.5 201.2 198.9 195.3 191.2 188.5 184.2 181.9 179.2 175.9 174.1 171.4 170.4 171.3 173.5 172.6 169.4 169 166.7 165.2 166 164.3 163 163.4 164.1 163.5 162.6 162.6 160.9 163.7 164.5 163.9 162.1 158.3 158.5 162.5 164.2 165.8 168.2 172.7 176.8 180.7 183.6 185.4 186.8 187.6 187.7 186.9 185.2 183.6 180.6 171.5 172.7 179.9 180.9 182.9 186.8 188.9 194.1 200.6 203.2 206.1 210.4 219.7 232.4 241.7 249.5 257.7 265.3 270.1 272.2 271.3 267.9 267.4 265.5 263.3 261.3 259.4 258 258 258.9 260.2 262.4 264 267 270.6 275.3 281 285.5 288.6 289.4 291.8 291.6 290.1 287.8 284.7 281.3 278.2 273.9 272.7 270.1 267.9 267 265.3 265.1 265.4 266.2 266.5 266.1 264.2 262.8 261.4 260.5 259.2 256.5 250.6 243.5 237.6 231.2 223.2 214.7 203.9 195 185.4 175.7 159.2 148.5 141.7 135.4 133.5 129.8 128.8 128.6 129.2 130.3 130.7 130.7 130.6 130.1 129.6 129.3 128.9 128.3 132.3 137.9 138.8 139.3 139.5 139.9 140.8 142.2 142.6 141.6 140.3 141.2 140.1 139.1 137.7 136.7 136.4 134.7 131.8 126.9 119.2 116.8 127.2 135.5 139 140.6 141 141.3 142.4 142.8 143 142.9 143.8 144.3 145 145.5 146 147.2 149.1 152.1 156.6 161.5 168 176 181.7 186.8 192.5 197 201.5 205.5 209.7 214 218
217.3 213.6 207.9 203.5 200.9 196.3 193.5 190.9 186.7 184.5 182.1 178.3 175.1 173.5 171.3 175.4 175.3 174.3 175.5 174.7 173.9 171.6 170 168.7 165.9 165.5 164.5 165 166.8 162.3 162.6 168.1 167.5 167.3 167 166.6 165.9 166.3 163.7 160.5 168 171.3 176 179.6 182.4 185.5 187.1 187.8 187.6 188.1 188 187.1 185.8 183.6 179.1 170.8 178.8 182.1 182.6 186.6 190.6 192.8 194.6 199.7 204.1 208.2 211 216.1 228.4 237.1 245.3 259.8 268.3 274.5 277.9 273.7 271.1 270 268.2 265.8 263.2 262 261.5 261.1 261.4 262.3 263.2 264.8 266.4 269.9 274.9 280.9 285.4 288 289.7 291.4 292.2 291 289.1 286.6 283.9 280.3 277.6 274.8 272.8 270.9 269.2 268.2 267.7 267.8 268.4 268.1 267.2 266 265.1 263.7 262.2 261.6 257.3 251 242.4 234.7 228.6 221.3 212.9 202.5 193.4 185.2 175.4 161.3 149.3 143.5 137.4 134.6 133 131.5 129.2 130.4 131.5 131.8 131.9 131.4 130.9 130.4 130 129.4 129 135 138.1 139.6 141.7 144 144.1 145.3 146.8 147.4 146.4 145.9 146.1 147.4 145.8 144.7 143.5 142.2 139.2 136.1 132.8 125 115.9 123 129.1 136.7 140 141.2 141.8 143.5 143.1 143.2 143 143.6 144.4 145 145.3 145.6 146.9 148.9 151.7 155.7 160.9 167 174.7 182.4 187 192.4 199 205 209.3 213.9 218.1 220.7
211.9 207.4 202.2 199.1 196.3 194.4 190 186.4 182.8 179.4 176.1 173 173.4 174.7 177.1 178.7 177.8 176.7 175.7 175.6 174.9 173.7 172 170.9 168.7 167.8 167.8 168 171.1 171.5 170.2 169.4 169.6 168.6 168.6 168.6 169.2 169.8 170 169 171.2 177.7 182 184.6 186.7 188.3 188.7 188.5 188.3 187.5 187.4 187.1 185.8 179.5 173.6 176.2 179.4 183.4 185.2 187.7 193.8 196.7 198.1 202.2 205.2 208.4 213.4 217 223.3 232.9 240.7 256.9 266.4 273.2 276.6 274.5 271.7 270.4 268.2 266.8 265.4 265.9 265.6 265 264.2 264.3 264.5 265.4 267.3 270.9 275.6 280.2 283.9 286.6 288.3 289.4 289.2 288.3 285.9 283.9 281.1 278.4 275.7 273 271.4 270.2 269.1 269.4 269.6 269 268.7 267.6 265 263.6 262.3 261.6 259.9 257.6 254.3 247.1 238.4 230.9 223.9 217.2 209 199.5 190 182.8 174.6 162.2 150.4 144.3 139.9 137.2 134 130.6 130.4 132 132.7 133 132.9 132.3 131.7 131.1 130.5 129.8 130.9 138.1 139.1 140.7 143.4 146 148.8 150.5 151.4 152 152.1 151.2 151.6 152.5 151.6 150.9 149 146.7 143.5 140.4 137.3 131.3 119 117.1 124.7 132 138.8 141.5 142.3 143 143 142.7 142.1 143.1 144 144.4 144.5 145 146.7 148.9 151 154.7 159.1 165.6 171.7 179.3 185.9 194.7 201.8 208.2 214.9 218.5 222.4 226.6
207.7 203.1 198.4 195.7 192.4 189.8 186.8 183.2 179.4 176.3 174.1 177.7 177.6 179.4 180.5 181.3 180.4 178.8 179.3 178.5 176.8 175.8 173.4 172.2 172.2 172.9 171.8 171.7 171.9 171 171.2 170.8 170.9 170.9 172.1 172.1 173.1 173.8 174.5 175.9 173.9 183.2 185.5 187.8 189 189.5 189.5 189.3 189.1 188.1 187.1 186.2 180.6 178.7 181.8 181.6 177.6 186.2 187.8 191.9 197.1 200.7 203.3 204.2 206.8 209.1 212.7 217.6 218.7 228.8 235.1 248.9 258.1 269.4 274.1 272.7 270.2 268.7 267.1 266.9 266.1 265.5 265.5 265 264.7 265.1 265.7 267.7 269.8 272.4 276.4 279.7 282 284.2 285.8 286.4 286.2 284.9 282.9 281 278.5 277 273.8 272.2 271.1 271.1 270.3 270.7 270.1 269.5 268 265.5 262.9 261.5 260.1 258.1 256 252.8 247.8 241.5 233.9 228.4 221 213.1 205.3 196.5 187.4 179.1 171 160.5 150.2 145.2 140.5 138.4 134.3 131.6 131.9 133 133.9 134.1 133.9 133.3 132.6 131.8 131 130.8 132.8 139.1 140.5 141.8 144.4 146.9 149.7 152.4 155.1 156.3 156.2 155.6 156 156.6 155.9 155.1 152.9 150.7 147.2 144 140.9 137.5 129 115.4 120.8 126.7 134.4 140.1 141.9 142.4 142 141.3 140.7 142.4 143.5 143.7 143.7 145 147.3 149.5 151.7 155.2 158.5 163.5 170.9 178.4 186.1 196 204 214.4 223.9 225.7 228 230.5
203.2 200.1 196.2 192.6 189.9 186 183.6 179.4 176 178.3 181.2 181.8 181.4 183.1 185.5 185.1 185 184.1 185.5 183.5 180.2 178.1 175.9 174 173.8 174.4 173 173.3 172.8 172.9 172.5 172.1 172.1 173 175.3 176.7 177.7 178.6 179.8 181.4 178.7 185.9 187.7 189.2 190.1 190.7 190.4 190.2 189.7 188.8 187.3 180.8 181.2 185.6 185.8 182.2 179.6 189.6 191.7 197.2 202 204.9 207 208.1 209.4 215.4 218 219.4 219.3 224.1 233.9 241.8 250 264.7 270.5 270.3 269 267 265.5 265 264.3 264.8 265.4 265.6 265.2 266.5 268.4 270.3 272.4 274.5 277.5 280.2 282.2 283.1 283.4 283.4 282.4 281.4 280.5 279.1 278.2 276.7 274.4 272.7 271.1 271.2 271 269.2 268.4 267.2 265.8 262.9 260.9 259 257.6 256.3 253.1 249.2 245.2 237.9 231.9 226.2 218.7 211.7 202.7 195 188.1 180 174.1 162.1 151.5 146.4 141.7 137.3 132.1 133.2 133.7 134.4 135 135.1 135 134.2 133.4 132.5 131.6 131.8 137.9 140.9 142.2 143.1 145 147.5 150.4 152.5 156.6 158 157.6 157.9 158.5 159.7 159.8 158.2 155.7 153.6 150.8 146.7 143.7 140.7 135.4 122.6 117.2 124.1 129.2 137.9 140.1 140.1 139.6 140.5 140.1 141.6 143 143.1 142.9 145.3 147.1 148.8 151.2 154.5 158 162.4 169.8 178.2 186.3 194.2 203.2 213.7 221.7 226.4 228.6 231.5
200.3 196.6 193.8 190.8 187.5 183.8 176.6 179 180.6 182.1 183.7 183.8 186.1 188.7 191.1 190.9 190.9 189.6 187.6 185.5 182.8 181.6 179.5 177.8 177.2 176.2 174.1 174.2 174.9 175.3 174.9 174.5 174.8 178.1 178.9 180.2 181.9 184 184.9 186 183.2 186.5 189.9 190.6 191.3 192 191.7 191.4 190 188.4 183.3 185.8 188.5 190.1 190.4 179.7 190 192.5 195.9 200 203.9 208 212.1 213.5 214.7 220.6 223.3 222.5 219.6 222.9 232.4 238.3 245.8 259.1 268.2 268.8 267.9 266.2 264.2 263.1 263.9 264.5 265.1 266.3 266.1 268.2 269.6 270.9 273.9 277 279.9 281 281.9 281.9 281.8 281.7 280.9 280 280 279.3 278.5 276.9 275.3 273.6 271.8 271.4 270.9 268.9 267 266.1 264.1 260.8 259.7 259.4 256.5 253.6 251 248.2 243.5 238.1 231.9 226.4 220.6 213.8 207.1 200 191.4 183.9 176.4 167.2 157.2 149.9 143.8 139.7 132.7 134.3 135.4 136.1 136.7 136.3 135.7 134.9 134 133.1 132.5 132.1 137.9 141.1 142.3 145 146.9 148.6 151 152.6 156.4 158.7 159.1 160.4 161.7 162.7 162.1 160.2 157 155 152.6 149.1 146.4 142.4 138 125.7 115.3 121.8 125.2 135.4 137.7 137.3 138.5 138.5 138.5 139 140.4 141 141.9 143.6 145.6 148.2 151.1 154.4 157.1 162.3 170.5 177.6 185.4 193.9 202.2 209 217.8 225.8 229.2 230.6
195.3 192.5 190.1 188.4 183.3 177.1 179 182.7 183 185 186.8 189 191.5 195.4 195.9 197.4 194.6 193 191.3 187.4 185.8 185 182.9 181.1 179.8 175.4 176 177.4 177.9 177.6 177 177.6 179.7 181.9 181.8 184.2 186.1 187.6 188.3 189.2 189.7 184.4 192.2 193 193.2 193.9 192.2 190.6 188 185.3 187.3 190.7 191.7 192.8 192.9 189.3 195.2 196 198.3 202.2 207.7 214.8 219 220.1 221 223.3 224.4 222.8 221.9 224.6 230.4 236.2 241 253.9 265.9 267.5 266.4 264.4 262.8 262.1 263.2 264.1 264.8 265.7 266.7 268.5 269.9 272.7 276.1 279.2 280.2 280.1 280.4 281.7 281.3 281.3 280.3 280.2 280.1 279.4 279 278 276.5 276.1 275.1 273.1 271.8 269.4 267.2 265.3 263.5 261.8 260.2 258.6 257.2 254.7 252.4 248.4 243.9 238.2 232.3 227 221.2 214.4 207.5 201.5 194.8 187.7 180.7 171.8 160.8 150.9 145.4 139.9 133.9 135.8 137.5 138 137.7 137.1 136.3 135.5 134.6 133.6 132.7 133.4 138.7 140.7 141.7 144.8 148.8 150.3 152.1 153.5 156.4 158.7 160.2 162.9 165.8 165.2 163.3 162.1 159.7 157 154.2 150.9 147.6 143.7 138.9 130.6 117.9 119.6 120.9 128 136.1 136.5 137 136 136.5 137.1 137.8 138.6 140 141.7 144.8 147.5 150.4 153.8 157.1 163 169.9 176.7 185.8 194 201.6 208 215.6 224.7 227.9 229
191.2 188.6 188.8 182.2 179.4 182.4 184.7 186.7 187.3 190.6 192.3 195.4 197.3 198.2 200.3 199.7 197 195.2 192.6 189.1 188.4 186.8 185.3 183.4 180.7 177.1 179.7 181.2 181.6 182.4 181.6 182.6 185.8 187.6 188.2 189.2 191.1 191.6 192.7 194.8 193.4 183.2 191.9 196.9 194.2 192.5 191.3 190.1 189.8 191 192.1 193.8 194.5 195.4 188.2 192.9 197.6 198.9 201.8 206.5 213.1 218.3 221.3 223 222.1 223.3 223.7 223.9 223.6 224.7 230 232.8 237.2 250.9 260.4 264.3 263.6 261.7 261.8 262.7 263.3 263.6 264.2 264.7 267.5 269.1 270.4 273.6 276.8 279.5 279.1 279.2 279.4 280.5 281.2 281 281.2 281.3 280.7 281.8 282.5 282.5 281.2 280.4 279.7 278.5 276 273.3 270.8 268.9 266.4 264.1 263 261.2 259.3 256.7 253.6 248.7 243 237.8 232.8 226.8 221.2 214.4 206.9 201.5 195.1 188.7 182.4 175.1 164.5 153.4 147.4 139.2 134.9 138 139.7 139.5 138.6 137.8 137 136.1 135.2 134.3 133.1 136 139.8 140.5 141 143.3 146.9 148.9 152.1 153.7 156.1 158.5 162.3 165.6 167.5 166.6 165.5 164 162.4 159.8 155.8 152.3 149.5 146.6 142.3 136.1 128.1 116.3 119.3 121 130.8 134.9 135.9 135.3 135.8 135.1 135.9 137.3 139.3 140.4 142.5 145.4 148.7 152.2 156 162.6 169.5 176.4 185.1 193.3 200.7 206.2 213.6 223.5 226.4 227.2
190.2 189.4 184 180.8 181.5 185.9 190.2 191.4 194.2 196.9 199.4 201 200.9 200.9 201.7 200.9 197.9 196.1 194.1 191.2 189.5 188.4 186.6 182.8 178.6 181.2 184.4 185.1 184.5 186.9 188.1 189.1 192 193.3 193.5 194.8 196.2 197.7 198.3 199 196.2 184.8 192.6 196.9 193.3 193.3 193.8 194.1 195.3 196.2 195.7 196.6 197.5 197.5 190.2 198.4 199.8 201.5 205.3 210.3 214 219 222.3 224.5 224.3 224 224.4 225 224.5 225.7 227.8 231 235 242.6 252.3 258.6 258 260.9 262.6 263.7 264.3 264.7 264.5 265.7 268.7 270 271.4 274.2 277.7 279 278.5 278.8 279 280.6 282.1 283.3 283.7 283.9 284.7 285 285.2 284.7 283.7 282.5 281.2 280.8 278.1 275.7 273.5 271 268.2 265.9 264.2 262.7 260.2 257.8 253.8 248.8 242.9 236.7 232.2 227.7 220.3 213.7 206.6 200.8 194.3 188.4 182.6 175.3 166.3 156.4 150.1 140 135.9 140.7 141 140.1 139.3 138.3 137.3 136.4 135.6 134.8 134.4 136.3 138.5 139.2 140.1 140.9 144.7 146.8 150 152.8 155.4 159 162.2 167.8 167.1 166.9 166.6 165.6 163.7 160.9 157.6 153.8 151 148.6 145 140.2 135.7 127.7 116.3 116.5 119.1 124.9 134.5 135.1 134.9 135 135.1 135.7 137.7 139.3 141 143.5 146.6 150.6 155.3 162.7 169.6 176.6 184.3 192.8 199.8 205.3 212.5 222 224.4 225.8
189.4 185.7 183 184.2 188.2 191.2 196.4 199.2 201.3 203.5 204.4 203.1 202.8 202.5 202.3 200.9 198.9 196.8 194.8 192.9 191.1 189.2 184.2 179.6 183.8 187.7 189.4 189.7 189.5 192 193 194.4 196.9 199.1 199.6 200.9 201.8 202.8 203.6 203 197.5 184.6 193.6 195.4 196.4 197.8 198 198.2 199.1 199.2 198.6 199.8 200.1 199.7 199.3 203.3 204.8 205 208.5 212.3 216 219.1 224.6 225.8 226.3 227.1 227.4 227.6 227.7 226.9 228.5 230.5 235.1 238.8 245.8 250.8 254.2 259.5 263.4 263.7 263.8 263.8 265.3 266.7 267.9 269.5 271.9 273.8 276.5 277.8 278.6 278.8 279.3 281.8 284 285.1 286.1 286.4 286.9 287.2 287 286.4 285.8 284.6 283.2 281.8 279.4 276.9 274.4 271.8 269.3 266.6 264.3 262.1 259.7 256.4 251.7 246.9 240.8 234.8 228.8 223.3 217.3 211.3 205.3 199.5 193.4 187.2 181.2 174.9 166.9 157.1 149.4 140.1 137.9 142.1 141.5 140.6 139.7 138.7 137.8 136.7 135.5 136.3 136.9 135.9 135.6 135.9 137 137.9 141.1 143.5 145.3 150.9 155.5 159 162.4 166.4 167.8 168.3 167.7 166.8 165 162.3 158.8 155.3 152.2 149.2 146.2 142.5 139.1 132.6 126.5 120.7 117.1 114.1 124.2 132.3 134.2 134.2 133.6 134.2 136.7 137.8 139.7 142.4 145.2 149.9 155.2 163.1 171 177.8 184.1 192.2 199 205.6 213.9 221 221.8 223.9
185.7 183.7 181.5 190.6 194 198.1 202.7 205.6 206.3 207.2 207.3 205.7 204.7 204.3 203.6 201.2 199.5 197.5 195.6 193.6 191.5 189.5 181.9 184 189.9 191.9 193.9 195 194.2 196.7 197.6 198.1 201.1 205.5 206.6 207.3 207.7 207.8 208.1 206.6 197.7 186.9 194.5 199.1 202.3 203.2 201.6 201.8 202.1 201.9 202.7 203.4 202.7 198.1 204.8 206.1 207.8 209.2 211.9 214.7 218.3 221.3 226.8 228.9 230 230.5 230.5 230.8 231 229 228.9 230.4 233.2 237.1 240.4 245.7 251 255.9 259.6 261 260.5 261 263 265 267.5 269.3 272.1 274.7 277.5 278.6 278.9 279.8 282.2 284.4 286 286.5 287.6 288.3 288.8 289.2 289.1 288.4 287.7 286.1 284 281.8 279.4 276.9 274.3 271.5 268.4 266.1 263.8 261.7 258.6 255.4 250.9 244.1 237.8 230.5 224.2 218.6 212.5 208 201.2 195.9 190.6 184.4 178.2 171.8 164.8 154.7 146 139 140.2 141.6 142 141.1 140 139.1 138.2 137.8 137.7 139.3 137.3 136.3 136.6 135.9 135.9 135.9 137.1 138.6 143.6 148 154.1 159.1 162.2 165.9 168.1 168.5 169 168 166.2 163.6 160.2 156.7 152.6 149.4 146.3 143.7 139.3 135.7 130.8 127.1 122.3 118.8 116.7 124.3 131.5 132.8 131.4 133.6 134.2 137.5 138.9 141.4 144.6 149.1 155.3 162.9 170.1 178.2 184.5 190.9 198.3 206.9 215.4 220.4 220.4 221.1
183.5 182.3 189.7 194.8 200.2 204.4 208.2 210.3 210.7 210.9 210.2 208.5 206.7 205.6 204.8 203.4 200 198.2 196.3 193.4 190.6 184.2 186.5 190.1 194.2 195.6 198 197.3 198.3 201 203.7 207.4 210.1 210.4 211.9 213.4 213.6 212 211.1 208.4 198.5 192.2 200.5 204.7 206.2 206.8 205.6 205.3 205.3 205.6 206.1 206.1 204.9 203.3 206.6 208.5 211.4 213.8 215.6 218.1 223.1 227.4 230 233.1 233.2 233 233.2 233.6 234.2 231.9 229.6 230.4 233 234.7 238.2 242.2 246.6 252 255.1 256.4 258.1 259.5 261.3 264.6 268.1 268.9 272.2 276.5 279.4 280.7 280 281.3 283 284.6 286.3 286.9 288.7 289.8 290.4 291.3 289.6 288.9 288.2 286 283.7 281 278.5 276.2 273.4 270.1 267.3 264.4 261.4 259.3 256.5 252.9 248.3 241.5 235.4 226.1 219.5 213.3 207.5 202.9 196.4 191.1 185.3 179.5 173.7 165.4 158.2 150.1 140.9 141.9 141.4 141.9 142.5 141.4 140.3 139.5 139.5 140.7 141.4 142.5 141.5 140.3 138.6 135.9 135.9 135.9 135.3 136.3 141.2 145.2 152.9 156.9 159.3 164.6 167.8 168.6 169.3 169.4 167.4 164.8 161.6 157.9 153.6 149.9 146.7 143.3 139.9 137 134 131 126.7 120.6 114.4 119.9 124.2 129.5 129.9 131 133.2 136.9 138.6 140.3 143.6 147.9 154.7 161.5 169.7 178 183.6 190.9 197.6 206.5 215.3 217.6 217.7 218.2
185.8 189.3 195.8 200.9 205.9 210.3 213.4 214.7 213.7 213.4 211.6 210.4 209.6 208 205.9 203.1 200.4 198.2 195.9 192.2 187.9 188.6 193.5 195.2 197.8 199.9 199.9 200.8 206.9 210 211.8 213.2 214.2 215.8 216.5 216.3 214.9 213.2 211.2 207.7 202.2 200.9 199 208.6 209 209.6 210.7 211.1 209.6 210.4 210.4 208.9 207.4 205.5 208.4 211.2 213.5 217.2 218.9 222 227.2 229.9 232.4 234.2 234.9 235.4 235.9 236.4 236.6 234.4 232.8 233.1 234.6 235.5 236.3 239 243.6 247.6 251.6 254.1 255.1 257.5 261.2 265 267.3 269.4 272.8 276.9 279.7 280.5 280.5 282.2 283.5 284.2 285.8 287.3 289.7 291.1 291.8 291.8 290.6 289 287.2 285.4 282.7 280.2 277.5 275.3 271.6 267.9 264.6 261 258.8 256.4 253.7 249.7 244.4 238.4 232 222.8 216.2 207.1 202.7 197.1 190.9 186 180.3 174.8 168.3 158.8 150.9 145.9 143.2 143.7 143.5 144.4 142.9 142.3 141 140.9 141.1 141.1 141.5 143.2 144.5 142.8 139.4 137.3 136.5 135.6 135.4 135.2 137.2 144.3 147.9 152.1 156.4 161 166.1 167.8 168.4 169.6 168.7 166.2 162.9 159.1 154.8 150.5 147.2 143.3 139.8 137.5 135.2 132.3 129.4 125 119.8 116.3 119.4 123.9 129 130.1 133.6 134.4 137.4 139.4 143 147.4 153.7 161.5 170.5 178 183.5 190.4 198.4 205.3 212.3 213.3 213.3 214.5
189.6 195.8 202.1 207.6 212.9 217.1 218 218.4 218.6 215.7 214.8 212.7 211 208.9 206.6 203.6 200.9 198.5 195.9 191 187.5 193.2 195.6 199.1 201.2 203.4 204 209 212.2 215.2 216.7 217.4 218.3 218.8 217.6 215.9 213.5 211.1 209.4 207.1 208.6 208.6 197.4 211.7 212 212.9 214.7 214.8 214.8 214.8 213.1 212 209.2 208.1 212.2 213.7 215.7 218.7 221.1 223.9 227.5 230.3 233.9 237 238.6 238.3 238.9 238.8 239 237.1 236.4 236.7 237.9 239 239.4 240.4 241.5 245.6 249.4 251.4 253.1 256.3 260 264.3 266.9 268.5 271.3 275.6 277.8 278.5 279.9 282.1 284.9 284.3 285.7 288 290 291.9 291.9 291.4 289.5 287.3 285.7 284 281.4 278.9 276.4 273.5 269.8 265.6 261.4 257.6 255 252.9 250.2 246.3 240.5 234.2 226.6 218.8 210.8 203.9 197.6 191.5 185.6 180 175 169.9 163 153.2 147.5 145.6 146.8 147.6 147.4 145.4 143.4 141.8 141.2 141 140.9 140.5 140.6 140.6 140.5 138.8 138.1 137.7 136.8 135.8 135.3 135 136 140.3 144.2 148.8 154.8 158.9 161.4 164.3 166 166.9 167.6 166.6 163.6 160.6 156.8 151.9 148 144.4 140.7 137.4 135.3 133.2 130.2 127.1 123.1 113.7 117.4 119.9 123.2 129.2 131.3 133.9 136 139.5 143.4 148 154.2 162.2 169.7 178.4 184.3 189.3 195.5 203.3 205.5 205.8 206.1 208.5
196.3 203.5 209.5 214.8 220.7 223.3 222.7 222.8 221.5 218.9 217.9 214.9 211.6 209.4 206.4 203.4 201 197.8 193.6 190.2 191.9 195.9 198.2 201.2 204.3 207.6 210.7 213.5 216.8 219.4 219.6 218.9 219.2 217.6 215.6 212.7 211.1 209.9 209.1 211.1 211.6 211 198.1 213.3 215.6 218.7 219.6 219.3 218.8 216.2 214.4 213.7 211.3 209.3 214.3 216.4 218.4 219.6 222.7 225.7 229.3 232.7 236.1 241.5 243.4 243.2 243.4 242.3 241.5 240.9 240.1 240.2 241.3 242.1 242.8 243.4 244 244.2 247.4 250.1 252 255 258.4 262.1 264.6 266.3 270 274.4 276.1 277.4 278.7 280.5 282.4 283.7 287.2 288.4 289.6 290.3 290.3 289.1 287.8 285.8 284.6 282.3 279.5 276.9 274.4 271.7 267.4 263.3 258.8 254.6 252.2 248.4 245.5 240.9 236.3 229.8 221.2 213.7 206.9 200.2 193.4 187.2 181.1 175.7 170.6 164.5 158.6 151.3 148.1 145.5 149.3 151.3 150.1 148.1 143.2 141.3 141.1 140.8 140.8 140.5 140.4 140.5 139.9 138.6 137.9 138 137.1 136.3 135.5 135.1 134.8 134.5 134.5 144.1 149.7 156 159.2 161.2 162.3 163.7 165.9 165.4 162.2 160.3 158.3 153.9 149.8 145.9 142.1 137.9 135.8 133.3 130.4 127.8 124.3 120 113.7 117 119.6 127.1 128.9 131.1 135.2 139.2 143.1 148.5 153.7 161.3 169.1 177.9 184.9 189 192.9 198.1 200.1 199.5 200.4 202.8
206.3 212.8 218.3 223.9 226.8 227.4 227 225.6 224.2 222.6 220.1 216.6 212.3 208.9 205.8 202.1 198.7 195.2 191.9 191.1 194.7 199.5 201.1 204.1 207.8 213.1 215.2 217.8 219.6 220.5 220.5 219.8 218.5 215 213.7 213.1 211.8 211.3 212.9 214 214.4 215.1 198.7 217.8 220.3 223.5 223.2 222.1 220.3 218.7 217.7 216.4 215.1 209.8 215.2 218.5 220.5 221.9 224.7 227.7 230.6 234.3 239 246.1 249.5 248.7 247.9 245.7 245.1 244.8 244.4 243.9 243.9 244.8 245.6 246.3 247 246.6 247.4 250.1 252.3 254.2 256.6 258.7 261.2 264.7 269 273.1 275.9 277.3 278.7 280.4 282.1 284.6 286.9 287.6 288.5 288.2 287.3 286.4 284.6 283.5 282.7 280.2 277 274.6 271.7 268.5 264.5 259.4 256 252.7 248.6 244.5 241 237 231.4 224 217.1 209.8 203 196.5 189.2 183.4 177.4 171.8 166.9 161.5 154.9 150.7 149.7 151.3 152.8 152.4 151.1 149 143.2 141.7 142.2 142.7 142.7 141.7 140.7 140.7 140.6 139.4 138.4 138.2 137.4 136.7 135.9 135.4 134.8 134 133.4 134.7 144.1 149.6 155.3 158.5 159.9 160.9 161.1 162.5 161.6 159.9 157.6 154.3 150.7 147.1 143.3 139.1 137.1 134.3 131 128.4 125.7 121.3 118.9 114.2 117.3 119.7 127.7 132.1 134.7 138.4 142.3 147.7 154 159.8 168.1 177.7 185.1 188.3 190.9 194.3 194.7 193.9 194.7 197
216.7 223.3 226 229.2 230.6 230.2 229.6 227.2 224.9 223.3 220.1 216.2 211.5 208.2 204.5 199.9 196.6 193.5 192.6 193.6 198.6 202.4 205.9 207 213.4 217.2 219.3 220.2 221.2 222.1 221 219.8 218 216.7 215.8 214.7 215.4 216 216.5 216.9 217.7 216.7 209 222.7 225.5 225.7 224.3 223.2 222.9 221 218.6 218.7 218.1 215 218.5 221.4 222.8 224.8 227.7 229.6 232.7 237 243.6 249.7 252 251.3 250 248.5 248.1 246.8 246.5 246.1 245.9 246.6 247.5 248.1 248.3 248.5 248 249.2 251.2 253.4 255 257.4 260 263.7 267.8 271.4 275.5 278.1 279.3 281.8 284.8 287.2 287.7 287.6 287.3 286.1 286.2 284.5 282.6 280.9 280.2 277.2 274.8 271.5 268 264.9 260 256 252.9 249.3 245 240.9 236.7 232.3 226.7 218.5 211.4 204.7 198.4 192.5 185.9 180.7 173.4 169 165.6 159.2 153.2 149.3 153.1 154.6 153.9 153.2 151.7 149.8 146.8 143.9 143.9 144 143.9 143.8 142.6 141.4 141 140.1 139.1 138.4 137.8 137.1 136.2 135.4 134.3 133.5 132.7 131.8 134.6 142.1 146.9 150.8 156.5 157.4 157.1 157.2 156.7 156.6 154.8 152 148.7 145.6 142.7 139.6 137.5 135.6 132.3 129.2 126.4 122.3 120.1 118.8 113.6 117.4 122.6 129.9 132.4 137.7 141.5 146.8 152.3 158.4 167 175.2 182.2 185.8 188.3 190.8 190.5 189.4 190.2 191.8
223 229 231.4 232.6 233.1 232.7 231 229.6 227.3 223.2 219.9 215.9 211 208 202.4 198.2 195 193.6 196.1 198.1 201.1 205.7 207.5 212.1 217 220 222.1 223.5 224 223.6 222.2 220.8 219.5 219.4 218.6 219 219.3 219.8 220.1 220.4 220.3 207.4 221.3 224.9 227.1 227.2 227 226.9 225.7 223.6 221.9 221.2 219.8 219.3 222.5 226.1 227.4 228.6 230.6 233.1 236 239.8 246.8 251.2 252.5 251.1 250.2 249.3 248.2 247.7 247.3 247 247 247.7 248.8 248.9 249.2 249.5 249.9 250.1 251.6 252.8 254.9 257 259.9 263.6 267.2 271.1 275.3 278.3 281.7 284.3 286.4 286.9 287.5 288.1 287.7 286.7 284.9 283.1 279.2 277.9 276.1 272.2 269.9 267.5 264.2 259.6 255.6 252.1 248.9 244.4 240.1 236.6 232.5 228.4 221.2 214.3 207.1 200.6 194.1 188.6 183.5 177.2 171.2 167.2 162.8 158.2 153.8 154.4 155.8 155.6 154.5 153.5 152.3 150.6 149.2 146.5 145.3 144.7 144.5 144.4 143.4 142.4 141.4 140.6 139.7 139 138.1 137.2 136.5 135.6 134.4 133.3 132.2 131.6 132 132.6 140 144.8 149.6 151.9 152.8 152.1 151.5 151.6 151.4 149.1 146.3 143.4 140.9 138.5 136.9 134.8 132.6 129.8 126.5 122.8 121.4 120 118.8 112.9 117.1 121.4 128.5 135.3 140.7 145.1 150 157.2 165.2 171.6 178.1 182.6 185.3 187.6 187.1 186.2 186.2 187
225.7 230.8 234.3 235.3 235.3 234.3 232.2 230.3 226.2 222.2 218.6 214.9 211.8 206.7 201.1 196.8 194.9 196.6 200.1 201.7 205.9 209.1 212.3 216.1 220.4 222.7 223.9 225.2 225.9 225.2 224.9 223.6 223.3 223 224.1 224.5 223.6 222.5 220.6 210.5 209.4 223.2 226.5 227.9 229.1 229 229.6 230 229.3 227.5 226 224.8 222.1 219.8 226.3 230.5 231.8 232.9 234.1 237.1 239.7 243.5 248.5 249.8 251.2 250.6 249.7 249.6 248.6 248.2 248.1 248.3 248.5 248.2 249.8 249.7 250 250.5 251.3 252.9 255.8 254.9 255.8 258 260.6 264.4 267.5 271.2 275.8 279.5 282.5 285.5 286.3 286.9 287.3 288.4 288.5 288 285.6 282 277.5 273.6 270.5 267.7 266.5 263.6 260.2 256.8 252.8 248.3 243.5 240.2 236.1 232.4 228.7 224.5 217.4 210.6 204.5 198.2 191.3 187 181.8 174.2 168.9 165 159.6 156.2 152.9 158.3 159 157.6 156.1 154.2 152.7 150.6 149.6 148.3 146.4 145.8 145.3 144.8 143.8 142.8 142 141.1 140.4 139.5 138.7 137.5 136.8 135.8 134.6 133.5 132.5 131.5 130.6 130.4 131.1 136.7 140.7 145.5 147 148 147.3 146.6 146.9 146.3 143.8 141.2 138.6 136.8 135.7 133.2 131.1 127 126.5 124.1 122.7 121.2 119.6 118 112.1 118.2 124.7 131.5 136.9 143.4 148.5 155.7 162.8 168.2 174 177.8 180.6 183.2 184.1 182.9 182.5 184.1
228 233.2 236.9 237 236.8 234.7 232.6 229.5 225.6 221.9 218 214.1 210.9 205.5 200.4 196.6 197.1 199.8 202.4 205.2 208.6 212.2 217 220.6 223.6 226.6 227.4 227.9 227.5 227.3 227.6 228.1 228.7 228.2 228.1 225.4 221 213.1 208.4 222.4 224.1 226.9 229.6 232.1 232.1 233.3 235.2 234.5 233.1 229.6 228.1 227.9 227.9 218.4 229.4 234.3 236 237 238.3 240.1 242.6 244.9 247.9 249.9 250.5 249.6 249.4 249.2 249.3 249.7 249.9 250.1 249.7 249.3 249.6 250.5 251.4 252 252.9 255.2 256.4 256.2 257.9 259.8 262.6 266.1 268.5 271.2 276 281 284.1 286.1 286.7 286.9 287.5 288.2 287.8 287.3 285 282.6 276.9 271 266.7 264.7 263.2 260.5 257.4 253.1 249 244.8 240.6 236.4 232.1 228.9 225.3 221.2 215.2 208.7 202.5 196.4 190.6 184.3 178.1 172.1 168.4 165 166 158 161.3 163 162.2 160.2 158 154.7 152.5 151 150 148.7 147.5 146.9 146.2 145.1 144.2 143.8 142.9 141.9 141.2 140.4 139.5 138.3 137.1 136 134.9 133.8 132.8 131.9 131 130.5 130.6 130.9 135.2 139 141.1 143 143.1 142.2 142.5 143.2 140.9 138.7 136.1 135.2 134.3 132.2 129.7 127.6 124.6 123.4 122.5 121.4 119.9 118.7 117.3 112.1 119.2 128.4 134.5 141.7 147 153.1 160.6 166 171 174.2 177.6 180.2 180.4 179.9 179.6 181.1
231.9 236.7 238.7 238.4 236.9 234.8 231.6 227.7 225 222.1 217.9 213.7 209.5 205.3 199.9 198 199.5 202.8 204.7 208 212.3 218.1 221.8 225.5 228.3 229.9 230.2 230.6 230 230.4 231.1 231.6 231.9 231.8 231 225.1 213.7 215.8 225.7 226.9 229.4 230.9 233.7 236.4 236.9 238.4 238.4 237.2 234.5 230.6 230.3 230.5 230.5 221.6 232.6 237.2 238.6 239.7 240.6 241.8 242.6 244.9 247.6 250.3 250.9 250.7 250.4 250.1 250.1 251.4 251.6 251.4 250.8 250.7 250.3 251.4 252.3 253.2 254.7 256.5 257.1 258.3 260.8 261.9 264.5 267.3 270.1 274.4 278.2 282.6 285.1 286.5 286.1 286.5 286.5 286.8 285.7 284.7 282.1 280.2 275.8 270.3 263.9 261.6 259.7 256.8 253.8 250.9 246.9 242.8 238.2 233.1 228.7 225.6 222 217.7 212.1 206.6 200.5 194.2 188.1 181 175.5 173.3 170.2 169 169.7 156.8 168.4 168.1 165 162.3 159.2 159.4 157.9 155.4 153.2 150.5 149.1 148.1 146.7 146 145.6 145.1 143.9 142.7 141.9 141.1 140.3 139.1 137.7 136.3 135.1 134 133.1 132.3 131.4 130.6 130.3 130.3 130.3 133.3 136.8 138.1 138.1 137.7 138.6 138.8 138.1 136.4 134.4 133.5 132.6 130.9 128 125.7 123.8 122.9 122 121.7 120.5 119.2 118.6 117.6 113.4 122.4 130.6 138.5 144.3 150.1 156.2 161.8 166.6 170.8 174.8 178.2 178.8 176.3 173.2 177.7
235.3 239.8 240.3 239.5 235.8 233.5 229.9 226.2 223.4 219.5 215.9 212.3 208 203.7 201.2 200.6 202.3 205.1 208.5 212 217.9 223.6 227.3 229.7 232.3 232.9 233.2 233 232.8 233.3 233.4 233.4 233.7 232.7 230.7 217.7 215.7 227.6 228.1 230.9 233.3 235 237.8 239.9 241.1 241.4 240.1 238.4 235.3 231.3 232 233.1 232.9 227.3 232.7 238 239.8 241.5 242.3 242.5 243.5 245.8 249.1 251.4 252 251.7 251.4 251.2 251.7 252.4 253.3 253.7 254 253.7 253.1 252.9 253.9 254.9 257 257.5 258.4 260.3 262.6 264.8 266.4 268.4 271.8 276.2 279.8 283.3 286.1 285.4 284.3 284.6 284.1 284.1 283.3 281.9 279.2 275.6 272.1 266.7 261.8 258 255.7 252.8 249.6 246.8 244.1 239.9 234.9 230.1 225.6 221.7 218.4 212.6 206.7 201.8 197.3 191.6 184.2 177.8 175.6 174.2 173.1 172.9 159.7 157.3 173 171.7 168.8 164.4 164.6 165.6 164 160.7 157.1 152.8 150.1 148.7 147.6 147.2 146.9 146 144.8 143.6 142.7 141.9 141.1 140 138.8 137.7 135.9 134.4 133.5 132.6 131.7 131.2 130.8 129.8 129.5 129.5 129.3 131.2 133.8 134.2 135.2 134.8 135.3 134.3 133.1 131.7 130.5 127.6 126.2 124.7 123.4 122.4 122.2 121.8 120.6 119.5 118.6 117.6 115.9 116.9 125.4 135.4 141.6 146.7 153.1 158.8 162.9 166.1 170.5 175.4 177.9 174.8 170.4 175.7
238.1 241.1 240.6 238.3 234.8 232.1 229.4 226.1 222.7 217.3 213.4 210 207.8 205.7 204 204 207 210.2 213.3 216.8 223.5 228.1 230.8 233.7 234.4 234.9 235.2 234.9 234.2 233.8 234.6 233.9 232.7 231.3 225 217.4 219 229.7 231 234.6 237.2 239 241.3 242.7 243.5 243.3 241.5 238.9 235.8 233.6 233.8 234.2 234.8 231.7 230.6 237.4 240.1 242.5 243.9 243.5 244.1 246.2 249.9 253.9 253.3 252.8 252.6 253.5 254.5 254.3 254.5 255 255.4 255.4 254.9 254.8 256.4 258.3 258.7 258.4 258.7 260.3 263 264.9 266.2 268.1 271.8 275.6 278.6 282.1 284.3 283.5 283.4 283 282.2 281.9 282 281 277.3 271.6 267.7 263.1 256.3 252.9 251.1 248.6 245.6 243.5 240.1 236.3 231.7 226.9 222.1 218.1 214.6 209.8 203 196.7 193.7 187.1 180.7 178.7 177.1 176.4 175.6 163.5 158.8 169.7 175.3 173.6 174.9 171.6 171 169.9 166.5 163.8 161 155.7 151.5 149.2 148.9 148.5 148 147 145.8 144.6 143.5 142.5 141.2 140.4 139.1 137.9 136.3 134.5 132.8 132.6 132.2 131.3 130.7 129.8 129.4 128.5 127.5 127.9 129 128.5 128.6 129.2 129.1 128.8 129.8 127.1 127.6 125.3 124 123.4 122.8 122.6 122.4 121.9 120.8 119.7 118.6 117.9 117.1 112.9 117.7 130.6 137.3 142 148.2 153.9 158.4 161 164.4 169.6 173.1 170.9 165.4 172.3
239.2 240.3 239.4 236.7 233.4 230.2 227.7 224.6 220.6 215.2 210.7 208.9 208.4 207.3 206 206.7 211.6 215.3 217.9 223.8 228.4 232.3 234.7 236.1 236.5 237 237.2 236.4 235.8 235.2 234.4 233.4 231.7 228.1 220.4 218.8 230.7 232.3 235.5 238.9 241.2 243.1 244 245.4 245.4 243.7 241.7 238.8 236.8 235.7 235.3 236.2 236.6 235.5 230.6 240.4 243.4 244.3 245 244.6 245.3 247.4 252 255.7 254.6 254.7 255.1 257.2 258.3 258 257.9 258.1 258.7 257.3 257 258.5 259.6 260.4 259.6 258.7 258.1 260.4 263.7 265 266.8 269.5 272.2 274.6 277.9 281 283 283.8 283.7 282.5 280.6 280.6 281.1 281 276.5 266.1 260.4 256.9 250.2 246.9 244.8 243.7 241.8 239.8 235.7 231.5 227.3 222.8 217.7 216 210.3 201.9 196.5 193.9 188 183.8 181.9 179.9 180.1 173.5 161.2 159.1 165.4 179.1 178.6 178.3 177.3 175.4 174.3 171.7 167.8 165.3 162.4 158 152.5 150.6 150.4 149.8 148.7 147.8 146.6 145.3 143.7 142.3 141 140.5 139.4 138.3 136.7 134.9 133.1 132.8 132.2 132.4 131.7 129.3 130.4 129.3 126.7 127.1 126.6 126.1 126 126.1 125.9 126 125.6 125.4 125.1 123.5 122.8 122.8 122.8 122.7 122.6 122.1 121.3 120.5 119.5 118.7 117.8 116.8 114.2 119.6 129.9 136.3 142.9 147.7 152.4 156.1 159.1 162.6 165.5 166.5 160.4 169.1
240.3 239.8 239.2 236.8 233.1 229.9 225.6 222.3 218.5 212.9 208.9 208.5 208.5 207.2 206.4 209.2 214.9 220.4 224.5 228.7 233 235.5 237.5 238.3 238.7 239.1 238.9 238.1 236.9 235 233.7 232.4 231.3 230 221.8 221.1 233 236.3 239.7 242.9 243.8 246 246.5 246 245.4 243.8 241.7 239.1 237.9 237.1 237.4 238.3 238.6 238.5 234.3 243.4 245.2 245.7 246.4 246.3 247.8 251.2 254.6 255.7 256.1 257.4 259.5 260.8 261.3 261 260.8 261.9 261.3 260.2 261.2 262.5 263.3 262.4 261.3 260.9 260.7 261.5 263.8 265.3 267 270.1 273.1 275.5 278.5 280.9 281.8 282.6 282 280.3 277.7 278.9 279.3 278.2 272.5 262.8 254.8 250.3 245.8 243.5 240.8 239.9 237.6 235 231.7 227 222.3 218 214.6 211.1 205.8 198.8 193.8 188.9 186.1 183.5 181.1 171.8 166.4 162.8 164.6 170.7 181.9 182.4 182 180.3 178.7 177.3 175.4 172.6 169.1 166.2 162.8 158.2 151.5 151.7 150.1 148 147.5 147.5 144.8 143.3 143.9 141.9 140.8 140.6 139 138.7 137.2 135.2 133.1 133.4 133.2 132.2 130.6 129.8 129.5 128.7 127.4 126.3 126.3 125.8 124.8 124.5 123.9 123.3 123.2 122.9 122.6 122.4 122.4 122.5 122.7 122.6 122.5 122.2 121.1 120.3 119.5 119.2 118.4 117.3 113.4 117 121.2 129.8 137.3 140.9 145.7 150.2 153.3 156.8 158.6 158 159.1 166
240.1 240 239.1 237.1 234 229.2 224.8 220.7 217 210.3 208.9 209 208.5 207.2 207.9 213.9 220.7 225.1 228.8 232.6 236.3 238.3 239.6 240.4 240.7 241.1 240 237.9 235.9 234.6 233.3 232.1 231.4 231.7 226.8 226.1 235.7 239.5 241.6 244.6 245.9 246.8 247.2 246.5 245.7 245 242.4 240.8 239.6 239.7 240.1 240.7 241.1 241.3 238.1 241.8 246.2 247 247.8 248.8 251.9 254.8 255.9 256.9 257.9 260.5 263.2 263.6 263.3 263.7 263.9 263.8 263.7 264.8 265.8 265.6 265.3 264.2 263.2 261 262.7 263.2 263.8 265.1 267.1 270.3 273.1 274.7 276.7 277.9 277.8 277.2 276 275.5 274.9 275.6 275.6 273.6 269.6 261.2 251.5 246.9 242.9 239.3 237.7 235.6 233.2 231.3 228 223.9 218.5 212.9 210 206.5 200.9 197.5 193.7 189.6 186 184 174.1 171.1 181.7 181.7 181.7 183.8 184.1 183.8 182.8 181.6 180.2 178.1 174.6 171.7 169.4 166.4 162.9 156.8 153.1 151.3 149.2 149.4 149 147.6 147.2 144.5 141.1 141.9 140.4 139.5 138.5 138.5 135.6 134.9 133.5 133.7 132.9 131.8 130.4 129.1 128.4 128.1 126.9 126.1 125.1 124.1 125.4 124.3 123 122.7 122.4 122.4 122.7 122.3 122.1 122.1 122.4 122.6 122.4 122 121.1 120.1 119.9 119.7 119 118.2 116.8 113.4 116.3 125.4 133.2 136.3 140.8 144.9 148.2 151.5 152.8 150.9 154.4 162
240.9 242.1 240.9 238 233.9 227.8 223.6 219.4 213.9 212.8 210.4 213 212.3 209.6 210.9 219.2 224 227.8 232.2 236.1 238.8 240.3 241.3 242.2 241.8 241 239.8 237.8 235.4 234.2 233.4 232.6 232.9 233.5 226.9 227.4 238.3 241.8 244.5 246.3 248 248.9 248.4 247.7 247.6 246.8 245.1 244.5 242.9 243.7 243.4 243.9 244 244.9 241.2 241.5 247 248.2 249.2 250.7 253.4 257.3 258.6 259.4 261.7 265.3 265.6 265.3 265.5 266.3 266 265.1 264.6 264.5 265 265.8 266.2 266 264.6 261.2 260.6 262.4 263.5 264.8 267.4 268.8 271.7 273.7 274.1 273.5 272.7 271.8 271.3 271.1 270.9 271.9 272.1 270.5 266.7 257.8 249 242.5 239.2 236.1 233.2 231 228.8 226 222.7 218.5 213.8 208.2 205.1 201.1 197.2 194.2 191.4 188.3 181.1 175.7 168.8 184.2 186.3 187.1 186.8 185.6 184.7 184 182.2 179.9 178 175.5 172.9 170.5 168.1 164 160.5 156 153.3 149.6 152.1 153.9 156.2 156.8 154.9 152.7 150.9 145.1 141.1 139.3 138.5 137.8 136.2 134.9 134 133.7 132.6 131.5 130.1 128.8 127.9 127.1 126.5 125.5 125.3 124.6 125.1 125 128.5 125.8 123.9 121.9 121.8 121.9 122.1 121.7 121.9 122.2 122.3 121.8 121.4 120.2 119.9 119.8 118.8 117.6 117 113.9 116.7 117 124.1 130.4 136 140.5 143.4 145.3 146.7 144.8 151.5 158.1
243.7 244.7 241.6 237.8 232.5 226.5 220.4 217.3 217.4 216.2 215.8 217.9 218.1 211.9 216.7 224 225.8 229.7 234.6 238.1 240.6 242.2 242.9 243.4 242.1 241.1 238.8 236.5 235.6 235.3 235.1 234.6 235.2 233.6 224.8 230.8 241 244.4 247.4 248.8 250.1 250.5 250.2 250 249.6 248.7 248.1 247.7 246.9 247.6 248.9 248 247.8 247.9 242.7 246.2 249.6 249.7 250.6 252.4 256.1 260.9 263.9 263.5 265.4 266.4 267.4 268.2 268.6 267.9 267.4 266.5 265.2 264.6 264.3 264.7 264 263.7 262.3 260.6 259.4 262 263 265.3 267 266.7 269 271 271.7 271.1 270.6 269 267.9 266.9 267.3 267.3 266.5 264.4 258.3 248.9 242.2 238.2 235.4 232.3 229.6 226.8 224.6 220.9 216.2 213.2 208.7 204.4 201.2 196.8 194.1 190.4 187 175.1 170.3 176.3 179.9 183 187.6 188.8 187.6 186.6 186.1 183.3 181 178.5 175.8 173.5 170.9 167.7 164.9 162.3 159.4 156.1 153.2 156.6 159.5 160.6 161.2 161.8 160.6 158.9 156.9 152.6 148.7 145.2 141 136.8 136.6 135.5 134.5 133.5 132.4 131.3 130.6 129.1 127.9 126.8 126 126.2 125.6 124.7 124.6 124.1 126.8 124.9 124 123.7 122.5 121.2 121.2 121.3 121.4 122 122.5 122 121.3 120.6 119.8 119.3 118.5 117.8 117.9 116.6 113.1 116.5 116.4 121.5 129.3 134.2 138.6 139.5 138.8 141 146 152.5
245 245.3 241.3 236.9 231.5 224.5 222.5 221.9 221.3 220.3 219.9 220.9 218.2 215 222.5 226.9 228.2 232.6 237 239.7 242.8 244.2 244.7 244.4 242.6 241.2 239.7 239.3 238.5 237.8 237.6 237.3 232.2 228.1 226 238.6 243.3 246.5 248.6 250.4 252.1 252.9 253.3 252.4 251.9 252.2 251.4 251.1 251 252.2 252.4 252.2 252.4 249.5 242.8 249.6 251 252.7 254.1 255.4 258.7 264.1 267.3 267.8 268.4 269.3 270 270.8 270.9 269.5 267.9 266.7 265.1 263.6 263.4 263 262.1 260.9 260.1 259.1 259.4 261.6 262.1 263.3 264.4 264.5 266 267.9 268.7 268.8 268.4 266.6 265.1 263.4 263.2 262.5 260.1 256 247.8 242.1 236.8 235 232.1 229.1 226.2 222.9 220.2 216.1 211.6 207.5 204.3 198.8 197.3 193.5 190.4 186.8 175.6 173.6 179.2 183.3 188.2 185 189.1 189.6 188.6 187.9 186.4 184.5 183.3 181.4 180 178 175.4 171.8 168.6 164.5 159.5 157.3 163.4 164.2 164.5 165.7 166.3 166.7 165 163.2 161 156.7 151.6 147 142.9 137.7 135.8 135 134 133.3 132.2 131.3 130.7 129.2 128.6 128.1 127.1 126 125.3 124.7 124.2 124.1 123.9 123 123.8 123.5 123 121.5 121.4 121 120.9 121.8 122.6 121.9 121.1 120.5 119.8 119.1 118.3 117.7 118.1 117.9 113.5 116.6 116 116.4 119.6 125.8 133.4 133.4 132.3 136.7 138.6 144.5
243.5 243.3 238.9 233.9 227 229 227.8 226.2 224 223.1 221.8 218.3 216.1 220.9 225 228.5 231.8 235.6 238.6 242.6 244.9 246.1 246 245.2 244.1 243.6 243.1 242 242 240.6 235.3 228.3 228.6 229.1 240.1 243.9 245.7 248.2 251 253.1 255.6 256.4 256 255.7 255.2 254.6 254.3 255.1 255 256.4 256.4 256.3 255.3 250.2 249.4 252.6 254 255.5 257.7 259.8 262.9 267.9 269.1 269.8 271.2 272.1 272.3 270.9 270.5 269.2 268 267.9 265.9 263.8 263.1 262.4 261.3 259.8 258.1 257.4 257.9 259.2 259.1 260.1 260.4 260.9 263.4 264.4 265 265.7 265.3 263.9 262.2 260.7 258.4 254.3 252.3 247.8 240.6 235.7 233.6 232.1 229.8 226.9 223.4 220.1 216.6 212.4 207.3 204.1 200.2 196.7 194.5 189.4 184.5 178.1 172.2 188.2 184.7 189.3 189.3 186.9 191.1 191.3 190.3 189.8 188.8 187.3 186.4 184.6 182.5 181.1 177.5 174.1 170.6 165.1 157.5 158.3 166.5 168.7 169.4 170.5 170.2 169.8 169.4 167.4 164 159.8 153.5 147 142.7 139.7 135.6 134.6 133.5 132.7 132 131.3 130.5 129 127.1 127 126.8 125.9 125.4 124.9 124.4 123.9 123.5 122.2 121.4 121.9 122.1 120.8 120.4 119.9 120.4 121 121.7 122 121 120.1 119.2 118.2 116.6 117.2 117.6 118.3 116.7 115.8 116.4 115.9 117.6 119.2 122.8 127.7 126.9 129.3 131.3 135
241.9 239.8 234.3 230.9 234.2 233.2 230.5 228 225.2 222.6 220.9 217.2 221.5 223.8 226.8 230.1 234 238.3 241.8 245.3 247.8 248.6 248.2 248.2 246.8 246.3 245.4 243.5 240.3 230.4 228.8 229.7 233.8 240.6 243 246.8 249 251.4 253.9 257.2 259 258.6 258.2 259.4 258.9 258.2 257.7 258.2 259.8 259.8 259.7 259.6 256 254.6 254.4 255.2 256.5 258.4 261.3 265.3 268.4 271.1 272.1 272.7 273.9 273.8 272.2 270.9 269.8 268.9 268.7 268.5 269.4 268.2 265.2 263.1 261.1 259.4 257.8 256.4 254.6 255.5 255.5 256.8 256.3 257.4 259.7 261.3 261.8 261.2 260.3 259.2 258.3 256.2 252.8 248.5 244.7 239.9 235.5 231.7 230.2 228.8 227.6 224.9 222.2 218.6 214.7 209.7 205.2 201.5 197.6 194.3 190.5 182.1 175.3 177.2 180.5 188.5 188.3 193.4 192 190.4 194.3 193.5 192.7 192.2 190.8 189.5 187.9 186.4 184.2 181.1 179.1 175 169.2 164.1 157.1 161 169 171.8 172.7 173.1 173.2 172.1 170.9 168.2 164.7 160.9 154 147.5 142.8 139.4 137.5 133.9 133 132.3 131.5 130.5 130.1 128.8 127.2 126.7 126.3 126.1 125.5 125 124.5 124.1 123.6 122.7 121.5 121.3 121.8 121.8 121.2 119.7 119.6 120.5 121.3 121.3 119.5 118.7 118 117.7 117.9 116.7 117.2 118.4 116.9 113.9 116 115.8 115.7 116 118.2 119.2 122.5 125 124.9 126
240.7 237.3 239.6 238.5 237 235.1 231.4 228.5 224.8 223.8 222 220.3 222.5 225.9 229.4 233.1 236.6 241.6 245.2 248.5 250.8 251.4 250.7 250.4 249.1 248.1 245.1 238.1 237.7 238.1 240 239.7 242.6 244.5 247.2 250.1 252.9 255.9 259.4 261 261.7 261.8 261.1 262.3 262.3 261.7 261.2 260.6 261 261.8 261.6 259.6 255.9 258.2 256.4 258.6 259.2 262 265.3 270.2 273 274.2 274.7 275.8 276 275.8 273.7 271.5 270.6 270.6 271 271.3 271.4 268.7 265.5 264 262.3 260.5 258.3 256.1 254 251.9 250.8 251.8 252.1 254.9 256.1 256.6 256 255.1 254.7 253.8 253 250.9 247.6 243.6 238.7 235.3 231.9 229.8 228.3 225.9 224.9 223.3 219.6 216.1 211.7 206.9 202.9 198.8 195 191.2 181.7 177.9 184.3 189.7 192.3 190.5 194.2 195.7 192.8 193.2 195.7 195.3 194.9 192.9 191.3 189.9 188.6 186.9 183 179.8 177.3 176.2 170.6 165.7 158.7 162.1 172.4 173.6 175.2 175.5 175.5 174.1 171.5 168.8 165.4 160.9 154 148.2 145 142.4 140.3 134.2 133.4 132.1 130.8 130 128.5 128.6 128 127.7 127.3 126.5 125.8 125.2 124.9 124.5 124 123.3 122 120.7 121.5 121.3 120.7 119.6 119.1 120.3 121.2 120.4 117.7 117.9 117.9 118.4 117.7 116.6 116.1 116.2 115.4 114 115.7 116 116 116 116.1 116.8 118.3 119 120.4 118.6
242.9 243.3 243.4 240.6 238.3 235.5 230.3 227.9 225.8 225.8 223.7 223.4 227.4 229.4 232.3 236.1 241.6 245.2 248.9 251.5 253.2 254.2 253.5 251.6 249.9 247.6 237.8 240.2 243.8 242.7 243.4 244.9 246.2 248.6 251.1 254.8 258 261.4 263.9 264.6 264.9 265 264.5 263.7 264.5 264 263.1 262.3 261.5 261.9 260.5 258.6 259.4 259.8 259.4 261.4 263.3 264.1 267.8 272.3 275.8 277.1 278.7 279.7 279.2 278.2 275.9 273.8 272.7 272.3 272 271.6 270.8 268.9 266.8 263.7 261.6 260.6 259.4 257.4 255.4 252.2 246.8 245.9 247.3 251.4 252.8 251.9 251.1 249.5 250.2 248.3 247.5 245.8 243.3 239.5 235.6 232.7 230.1 228.7 227.1 224.6 223 219.4 216 212.6 208.2 203.9 200 195.7 191.5 183.2 183.8 186.6 190.5 194 193.7 195 198.3 195 195.3 197.2 197.7 197.3 195.6 194.9 192.9 191 189.3 186.4 182.9 179.1 177.7 175.5 174.8 167.3 161.8 164.9 173.8 175.3 176.2 177 176.4 175.6 173 169 166 160.1 154.3 150.2 147.3 146.2 143.7 137.1 135.5 135.4 134.7 134 133.3 133.4 131.5 128.5 127.6 127.3 125.8 124.7 124.5 124.6 124.4 123.8 122.6 121.5 121 120.4 121 120.5 119.4 118.9 119.5 119.1 118.9 119.5 118.8 118.8 118.2 117.1 116.3 116.1 115.8 115.3 112.8 116.2 116.2 116.2 116 115.2 116.1 116.4 116.3 115.3
244.3 244.9 243.7 241.5 238.2 234.6 230.6 228.3 227.7 226.7 224.2 227.6 229.6 232.1 235.4 240 244.9 248.9 251.2 253.4 255.4 255.4 254.5 251.9 248 239.8 243.5 245.9 245.5 245.6 246.9 248.2 250.2 253.1 257 261.4 264.9 267.3 268.3 268.1 267.6 267.8 267.5 267.3 268.4 268 265.9 264.3 263.1 263.9 262.9 261.7 260.9 261.9 262.8 266.2 267.8 268.5 270.7 273.6 278.2 280.8 282.1 282.7 281.7 280.4 278.4 276.7 274.9 274.5 274.1 273.6 272.4 270.6 268.6 265.8 263.6 261.5 259.9 258.1 256 254 252.5 247.3 243.8 242.3 244.2 248.1 247.2 245.1 245 243.3 241.8 240.8 239.1 236.1 232.5 229.9 227.7 226.5 225 222.8 219.3 215.2 211.6 208.3 204.7 200.5 196.2 189.6 184.6 188.4 192.1 193 193.9 195.2 195.5 200.4 200.4 201.5 202.4 202 200.9 200.1 198.5 197.7 196.2 192.9 190.3 188.4 185.4 182.2 179.7 178.4 176.2 168.7 161.7 172.5 175.3 176 176.3 176.6 175.7 174.9 172.4 168.9 164.7 160.4 156 153.8 153.8 153.6 144.8 144.3 143.3 143.4 142.2 141.6 139.2 138.7 136.2 133.5 130.5 128.5 128 126.9 126.1 124.8 123.8 123.3 126.3 123.7 121.6 121.7 121.4 120.3 119.9 119.3 118.9 119 119.6 120.9 120.1 118.8 118.4 117.8 117.5 117.3 117.1 116.5 116.1 113 116.4 116.4 116.5 115.4 115.3 115.1 114.8 115.3
245.8 245.1 243.1 241.1 236.8 234.5 232.8 230.2 228.9 227.6 226.7 230.1 231.7 234.5 238.2 243.3 248 251.7 254.3 255.6 255.7 254.8 253.9 251.1 247.1 242 247.7 248.5 248 248.8 250 252.3 254.8 257.9 263.7 267.2 269.6 272 272 271.4 270.7 270.9 270.4 270.5 270.7 270.1 269.2 267.6 266.2 266.2 265.9 264.6 264.6 265.2 266.5 269.8 272.4 273.5 274.5 277.7 280.2 282.9 283.9 283.4 282.7 280.5 278.8 277.9 277 276.1 276.2 275.3 274 272.6 270.5 268.7 266.6 265 263.5 261.4 258.4 255.9 254 251.5 249.2 245.8 241 238.5 240.3 240.4 239.4 238.3 237.5 236.4 234.3 230.4 228.2 225.9 223.4 222.8 222.1 218.9 215.7 211.6 207.4 203.1 199.6 194.2 189.1 185.8 189.9 194 196.2 196.8 197.7 200.5 203.1 203.9 203.3 206.5 206.7 206.4 205.3 204 203.4 201.8 200.5 197.9 195.8 191.1 187.4 185.2 183.9 179.5 172.9 166.5 167.5 177.5 177.4 177.3 177.5 177.4 175.7 173.4 171.4 168.9 165.8 162.1 159.7 159.5 159.6 159.2 149 155.7 152.4 150.8 148.8 147.4 145.4 143.1 140.2 138.1 136.6 134.2 133.9 132.3 129.6 128.2 127 125.9 128.8 127.8 124.9 120.9 121.6 120.2 120.2 120 120.3 121.6 122 122.4 122 120.4 118.8 118.8 118.7 118.4 118.1 117.7 116.8 113.9 114.4 116.9 117.1 115.3 114.8 114.1 113.5 113.2
246.2 245 243.9 241.6 239 237.4 234.3 232.7 232.2 230.3 229.6 232.7 234.7 237.7 240.2 245.3 249.5 252.5 254.5 255.5 254.9 253.8 252.7 251.3 244.7 244.4 251.3 251.9 251.4 252.2 255.3 258 259.8 263.6 268.3 272.2 274.1 274.8 275.5 274.7 274 274 273.4 273.3 273.5 272.3 271.2 269.4 269.4 269.4 269.4 267 268.3 269.4 271 272.5 275.4 277.2 278 278.7 280.8 282.5 283 283.1 281.4 280.1 279.1 278.1 277.4 277.1 277.2 276.4 276.6 274.2 272.6 271.1 269.3 267.3 265.5 263.5 261.3 258.2 256.3 254.9 252.5 249.9 246.1 243 235.7 230.9 228.6 229.7 231.4 231.1 228.9 225.4 222.6 221.6 218.9 218.1 217.1 214.5 211.5 207.9 202 194.6 190.2 188 188.5 190.8 193.7 197.8 199.3 199.5 203.4 206.1 206.5 207.3 209.6 211.3 212 212 211.2 211.1 209.3 207.3 205.6 202.8 199.1 194.6 190.7 189.6 185.2 175.7 166.9 174.1 179.4 178.9 179.6 179.8 179.7 179 178.5 176.8 174.6 172.3 168.1 165.2 165.3 166 164.9 164.9 159.1 161.9 160.7 157.6 155.8 156.3 154.4 153 149.4 146.8 144.1 142 141.7 138.7 135.7 132.6 131.5 131.6 133.1 130.6 128.5 124.6 124.5 124.7 125.1 122.2 122.2 122.7 123.4 123.8 122.7 121.7 119.8 119.2 119.1 118.5 118.1 117.8 116.8 116.1 115.6 113.5 115.6 116 115.3 114.3 112.9 113.4
248.3 248.3 246.7 244.5 241.2 238.4 235.2 235.2 234.2 230.7 232.3 235.3 237.8 241.8 243.9 247.3 249.9 252.2 253.6 253.9 253.6 253.4 252.9 251.9 245.4 246.7 254.6 256.3 255.7 257.3 259.7 263.6 266.8 271.8 273.9 276.9 278.1 279.9 279.9 279.3 278.3 277 276.8 276.8 276.4 275.8 274.4 273.1 273.4 273 272.7 268.6 273.6 274 276 277.4 278.6 279.9 281 281.7 281.6 281.9 282.1 281.6 280.2 279.4 279.6 278.4 278.1 277.8 277 276.9 276 274.6 272.7 271.5 270.4 268.5 266.9 264.2 261.6 259.2 257.3 255.3 253.3 251 248.6 245.5 242.2 234.4 230.4 223.1 222.7 224.4 223.3 219.9 217.3 215.1 214.9 213.8 212.9 210.6 207.6 203.8 193.7 188.5 190.1 193.8 196.4 197.8 199.7 204.4 204.2 204.2 206 208.2 210.8 213.5 215.5 216.6 217.4 217.8 217.6 216.9 214.1 211.4 208.4 204.4 200.6 196.6 193.3 190.1 184.7 168.7 168.7 180.8 181.5 181.8 181.7 181.7 182.2 182.7 181.1 180 177.8 175.9 171.3 169.6 171.9 172.5 170.7 167 169.2 167.5 167.2 164.5 163.8 164.5 164.2 162.2 159.6 156.7 155.6 153.4 149.5 146.3 144.7 140.2 138 139.3 138.5 136.3 134.7 134 133.5 133.2 134.8 132.8 126.7 125.5 124.9 125.4 125 124.4 121.9 120.7 119.1 118.3 118 117.8 116.7 116.3 115.5 116.3 116.1 113.2 112.8 114 115.9 115.3
252 250.5 248.1 245.4 243.1 240.5 238.5 237.7 234.6 233.1 236.6 238.5 241.8 245.2 247.3 248.8 250.1 251.5 252.4 253.5 254.7 255.4 255.7 254.8 246.4 248.6 259.5 261.2 261.5 265 266.3 270.1 272.8 276.1 280.5 281.8 284.9 285.4 285.3 284.8 283.7 282.3 281.5 281.3 280.8 281 278 276.9 275.8 276.6 276.8 275.8 277.8 278.2 280.7 281.7 282.7 283.4 284.1 284.3 284.3 283.7 282.3 281.8 280.2 279.2 279.1 278.9 278.7 278.4 278.1 277.1 277 275.6 273.3 271.2 269.1 267.1 265.4 262.8 260.5 258.2 255.9 253.8 251.5 249.5 246.9 242.5 238.6 234.4 232.5 226.7 219.1 213.9 215.3 213.9 211.3 209.1 207.9 207.4 206.9 203.9 199.7 193.4 193.5 195 197.2 200.6 201.7 202.6 204.2 209.2 208.2 208 210.2 212.9 216.4 218.9 220.3 221.7 222.8 223 222.4 220.5 216.6 213 209.2 205 200.9 196.2 192.9 189.7 182.7 170.1 176.1 183.8 184.4 184.8 184.6 184.8 185.3 185.7 186 184.3 181.7 179.3 176.5 178.2 179.3 179.7 174.1 167 172.3 173.3 173.9 174.7 171.1 172.4 172.7 171.9 169.3 166.8 167.8 165.8 162.7 159.7 157.6 152.8 149.3 147.7 144.8 141.3 139.4 140 139.7 138.4 139.9 140.8 135 130.2 128.6 127.1 126.6 125.4 123.5 121.9 120.3 120.1 119.2 117.9 117.2 116.5 115.4 116.4 115.8 115.1 115.1 115 114.9 115.1
253.5 251.7 248.5 245.6 243 242.2 241 238.6 236.1 237.8 239.4 241.5 244.3 246.7 248.1 249.8 251.1 253.3 254.9 256.1 257.9 259.6 259.9 253.9 246.3 261.1 264.8 266 268.3 271.2 274 277.8 280.6 282.4 283.2 287.5 291 291.7 291.6 290.4 289.9 287 286.2 286.5 286.4 286.3 283.8 282.2 281.6 281.7 281.6 280.4 282.1 282 284.2 285.8 287.6 288 288.4 288.7 289.3 286.4 284.6 283.4 282.3 280.7 280.2 279.6 279.4 279.2 278.7 278.4 278.2 276.8 275 273 269.6 266.8 265.2 262.9 260.4 257.8 255.3 253 250 247.6 245.7 243.9 241.4 237 232.7 228.3 223.6 219.2 215.9 211.9 210.7 207.9 205.5 203.8 200.4 196 197 197.8 198.5 200.1 202.6 203.8 205 207 208 210.2 210.3 212 215.9 219.8 222 223.5 224.4 225.4 226 226.7 225 221.7 217 212.2 207.7 203.4 199.6 195.2 190.2 186.2 179.1 171.9 183.7 186.4 187.4 187.7 187.6 188.1 188.7 189.2 189 189.1 186.1 185.3 185.9 186.7 187.1 186.1 177 175 179.3 180.4 183.4 184.5 179.3 180.1 182.5 182.5 181.3 178.9 177.9 175.2 172 169.2 168 164.4 161 158.3 155.3 151.5 148.7 147.8 147.8 145.6 143.9 142.4 140.1 137.9 131.3 130 129.9 127.4 124 123.9 123.2 122.7 122.6 124.1 120.5 117.4 115.5 116.1 115.3 115.2 115.1 114.8 114.7 114.9
255 252.1 248.9 245.9 244.2 244.3 242.5 238.8 239.7 241.9 243.4 245.1 245.9 247 249 250.9 253 255.6 258.4 260.2 261.1 262 252.2 248.7 247.8 266.8 270.1 272.8 275.4 280 282.5 286.4 289.2 290.4 292.5 296 299.3 300.3 300 299.4 296.8 294 294 295 293.6 293.5 292.1 290.2 289.6 290.1 290.4 284.3 288.9 288 289 290.3 291.9 293.9 294.6 293.7 292.6 289.7 287.2 285.5 284.2 282.8 281.4 280.9 280.1 279.8 279.2 279 278.5 277.5 275.6 273.3 269.9 268 266 264.8 263.2 260.8 257.8 255.4 252.9 250.3 247.4 244.6 240.7 237.2 235.3 231.5 227.5 224 219.6 216.2 213.5 211.5 207.9 200.6 198.9 200.5 202.2 202.3 202.4 203.6 204.2 206.7 209.3 212.2 212.9 214.7 215.6 216.8 221.8 224.4 225.7 226 226 225.7 225.7 226.3 224.8 220.7 215.6 211.2 205.9 201.4 195.9 191.2 186 182.3 182.2 172.8 184.7 189.8 190.6 190 190 191 192.4 192.6 193.2 194 193.2 194 193.8 192.8 192.8 192.5 179.8 188.3 189.6 191 193 194.8 187.4 192.7 193.5 192.8 191.9 189.7 187.9 185.4 182.3 178.5 176.3 171.8 168 165.8 163.5 160.5 157 155.2 154.7 152.7 150.6 147.4 144.3 143.9 132 138.8 136.6 128.6 132.8 129.2 126.8 128.4 127.3 132.4 129.1 116.9 115.2 115.2 114.8 115.1 115 114.6 114.5 114.7
255.3 252.6 249.7 248.8 247.7 246.5 244.9 242 242.1 244.3 245.8 246.8 247.5 249 252.6 254.4 257.9 261 263 264.5 264.9 253 251.9 251.9 263.2 273 277.6 279 282.9 287.4 291.1 294 298.9 299.7 301.9 304.8 309 309.6 310.1 308.4 307.2 309.1 308 306.2 305.9 304.6 301.4 298.4 296.7 298.7 298.4 290.3 294.8 295 294.9 296.2 297.6 298.3 299.4 298.6 296.5 293.1 290.5 288.4 286.4 285.1 283.2 282.2 280.9 280.4 279.8 279.5 278.5 276.8 275 272.9 271 269.2 267.6 266.5 265.6 263.1 260.3 257.7 255.7 253.3 249.6 244.9 239.6 235 232.6 231.2 227.7 224.1 219.7 218 215.2 211.5 199 201.5 205.9 207 207.1 205.9 205.2 207.5 209.6 212.5 214.5 217 217.7 220.5 220.4 220.2 224 225.5 226.3 226.5 226.4 225.8 224.9 224.5 221.5 218.6 213.7 209.2 203.3 198 192.5 188.2 188.1 188.2 188.2 176.1 177 191.9 194.1 195.3 197.6 197.7 198.7 198.6 198.9 200.5 199.4 198.7 198.2 198 196.8 194.4 184 194.4 196.7 198.2 200 201.8 201.5 202.7 203.5 202.3 201.1 198 195.5 193.7 190.9 188.3 185.2 181.4 177.6 174.7 171.3 168 164.6 161.6 159 156.4 154.1 151.2 148.2 144.4 137.8 145.1 134.4 137.8 141.4 140.7 133.3 131.9 131.9 138.1 139.3 123.2 116.6 114.6 114.6 115.1 114.9 114.5 114.3 114.5
256.8 254.4 252.9 251.8 251.5 247.8 245.6 244.6 244.3 244.9 246.8 248.6 251.2 253.1 256.5 260.7 263.9 266.8 268.4 265.7 255.6 253.3 257.9 267.7 274.2 280.1 284.7 288.1 292.2 297.1 301.6 305.6 310.7 315.6 318.5 321.9 322.5 325.3 326.7 327.2 327.5 326.3 320.3 317.1 317.4 317 311.7 309.1 304.5 306.8 302.1 295 301.7 301.6 302 303 303.1 303 304.3 302.5 300.5 297.1 293.8 291.6 289.4 287.2 284.9 283.7 281.9 281.2 280.5 279 277.9 276.2 274.5 273.4 271.9 270.3 269.6 268.4 265.8 263 259.3 257.3 255.1 252.9 249.2 246 241.5 237 232.2 227.7 224.8 221.7 219.5 217.1 209.4 202.5 205.4 210.3 211.6 210.1 209 208.1 210.2 212.8 214.7 216.7 218.6 219.8 223 224.3 223.4 222.8 223.8 225.2 226.3 226.4 226.6 225.7 224.5 221.7 218.6 215.6 211.7 206.6 201.1 193.1 190.5 191.7 193.5 193.1 190.9 177.6 179.2 197.8 199.6 201.2 204.1 205.3 205.3 205.1 204.9 203.6 203 201.4 200.7 199 198.1 187 193.7 199.3 202.5 202.9 204.1 205.1 207.3 210.2 209.3 208.9 207.2 204.8 202.8 199.6 197.8 194.4 190.9 188.4 184.4 180.2 177.2 173.9 170.7 166.9 163.7 160.7 158 154.7 151.2 138.1 146.7 144.6 140.1 143.9 143.7 142.7 138.5 137 136.4 139.8 139.7 128.1 120.4 115.8 115 114.2 114.7 114.5 114.3 114.3
260 257.9 256.7 254.2 252 248.8 246.6 247.3 247.3 248.1 248.8 254 257.5 260.3 263.2 268 268.2 270.4 259.9 257.9 255.1 267.7 272.1 277.1 282.6 288 292.8 296.8 301.1 307.1 311.9 320.9 330.7 339.6 340.7 342.1 344.4 348.1 349.9 349 347.5 343 331.2 329.9 325.7 323.5 321.6 317.9 315.9 312.9 303.7 302.8 309.3 309.4 309.1 308.4 308.2 309.3 308.5 306.9 304.1 300.7 297.9 294.7 292.4 289.5 287.3 285.7 283.6 282.2 280.2 278.4 276.7 275.7 273.8 272.2 270.8 269.4 267.7 267.4 264.8 260.6 257.3 254.4 251.9 249.7 246.8 243.3 240.4 236.7 232.1 228.3 224.3 220.3 216.2 209.1 208.4 205.9 213.2 214.4 212.9 211.3 211.7 213.4 215.9 217.8 218.9 220.2 222.6 223.5 225 224.9 224.4 224 224 225.1 225.9 225.9 226.1 225.4 223.5 219.9 216.2 212.8 206.9 199.9 195.8 194.8 197 197.5 197.6 196.9 194.8 176.7 186.8 203.5 205 205.9 207.4 207.8 206.8 205.7 205 203.3 201.6 200.2 199.2 195.9 191 198.4 202.5 208.3 209.7 209.3 211.7 211.6 214.4 214.9 215.3 214 213.1 210.8 208 206.2 202.3 199.5 196.4 193 189.1 185 181 178.3 175 170.7 167.5 164.8 161.5 156.5 148.3 150 150 144.1 146.4 146.6 145.4 144.3 143 141.5 140.1 138.9 138.8 133.2 125.9 116.9 114.8 114.3 114.5 114.3 114.1 114.1
263.2 261.7 259 255.3 251.2 249.1 250.4 251.2 250.9 253.3 257.5 260.3 264.3 267.6 268.7 270 267 259.8 257.8 258.9 273.5 278.6 283.4 286.5 292.9 297.9 302.9 308.2 311.8 320 330.5 344.7 356.7 366.9 368.7 371.1 371.8 374.1 372.5 368.5 362.7 354.8 341.2 335.5 332.3 331.1 328.1 324.1 321.8 311.1 305.6 313.4 316 316.6 317.2 317.2 317.5 316.9 313.4 311.9 309.3 306.1 302.7 299.1 297.2 294.3 292.1 289 287 285.2 282.9 281.6 279.9 276.6 274.1 272.3 270.7 269.3 265.1 262.7 261.4 258 255.2 252.7 250.9 248.2 245.4 241.5 235.2 233.1 230.1 227.4 224.4 213.4 210.1 212.7 214 207 215.1 214.8 215 215.4 216.8 218.8 220.8 221.3 222.1 223.4 225.6 225.2 225.5 225.4 225 224.6 224.4 224.9 225.1 224.7 224.8 224.4 221.4 216.3 208.6 203.9 200.3 202.9 201.7 201.4 202.5 202.3 201.6 200.7 182.2 178 180.9 204.5 206.8 207.6 208.7 206.8 206.4 203.7 201.2 200 198.6 197.9 198.5 198 201.1 207.2 212.5 215.8 217.5 216.7 219.2 220.7 222.5 222.6 221.8 219.5 218.1 216.1 213.3 210.6 209.1 205.1 202.2 198 193.7 189.7 185.4 181.7 178.5 175.2 171.7 167.8 161 151.7 155.7 155.6 152.7 146.3 149.5 148.4 147.5 146.9 145.1 143.9 141.9 140.5 138.1 136.7 132.8 119.2 116.2 114.5 114.2 114.1 113.9 114
264.9 261.8 257.8 254 252.7 254 253.7 256.6 257.7 260.6 265 267.2 269.4 270.9 270.9 263.8 260.6 259.1 272.8 276.9 284.8 291.3 296.4 299.9 304.5 309.8 313.6 319.3 324.5 337.8 351 367.3 384.1 393.4 395.5 392.4 390.8 393.4 386.8 377.8 368.9 358.1 345.9 342.4 339.6 337 332.7 328.1 317.6 316.3 318.3 320.9 323.1 324.1 324.5 325.6 325.8 325.2 321 318.5 315.7 312.4 309 304.1 303.9 302.5 298.7 296.9 293.5 290.7 289.2 288.2 284.1 281.3 277.1 273.7 271.8 270.6 266.3 261.5 256.2 254.4 252 249.5 246.7 244.8 243.6 239.9 235 229.8 225 220.6 213.2 211.9 216.1 218.5 214.4 210.4 218.8 219.1 219.4 220.1 222 223.8 224.4 224.2 224.6 226.6 226.4 225.5 225.6 225.6 225.5 225.2 225.3 226 225 224.2 222.1 219.8 217.7 215.1 210.9 207.9 208.7 208.7 208.2 207.3 206.9 205.9 205.1 193 179.4 186.5 188.6 190.4 203.4 206.6 205.6 205.6 205.7 205.5 203.6 203 203.2 203.7 205.6 206.1 210.2 215.3 220.6 222.2 224.5 225 228.7 229.5 229.7 229.5 228.5 226.8 224.6 222.4 220.4 217.4 213.8 210.8 207.2 203.2 198.3 194.4 190 185.9 182.2 178.4 173.7 165 160.5 163.4 160.8 159.1 156 148.4 155.1 153.8 152.4 151.3 149.5 147.6 144 142 139.6 140.3 139.1 134.3 126.4 117.5 114.1 113.9 113.8 114.4
263.3 259.5 257.9 257.2 256.6 259.7 260 264.1 266.2 269.2 270.7 270.7 271.7 272.2 269.2 262.6 265 268.5 277.8 285.7 296.7 306.4 311.5 313.3 316.8 320.2 323.9 332.2 341.6 351.1 372.6 390.4 407 415.5 417.7 413.8 407.7 402.3 394.1 382.9 372 360.7 354.3 348.7 342.6 338.3 335 327.4 319.2 323.7 328.4 330.5 330.7 333.4 334 334.9 334.2 332.2 329.2 325.9 322.9 319.9 317.3 315.4 312.5 312.9 309 305.7 304.1 301.4 298 296.3 289.9 284.7 280.4 275 271.9 271.1 268 264 259.1 254.7 250 245.6 242.3 238.6 237.7 235.5 232.8 224.7 218.2 216.6 220.2 220.1 220.2 219.7 214.4 212.9 222.5 224.3 224.7 224.7 226.9 227.2 227.7 227 226.3 225.8 226.2 226.3 226.9 227 227.4 227.1 227.2 227.3 227.7 228 227.5 224.2 221.6 216.8 215.2 212.4 213.4 212.9 211.8 210.7 208.1 207.4 205.5 182 190.3 199.1 202.7 201 206.7 207 208.1 208.1 207.4 206.8 206.5 206.8 207.4 210 213.1 216 219.6 224.1 228.3 230 230.9 234.1 237.2 238 238.6 236.3 235.5 234.9 231.9 228.4 225.6 221.9 218.4 215.7 211.6 207.5 201.8 197.1 192.4 187.9 184.3 180.3 170.2 166.4 169.2 168.8 166.1 164.2 157.5 158.6 161.3 160 158.4 157.1 154.8 153.8 149.8 145.1 142.9 141.4 139.5 137.7 133.8 127.2 116.2 114 113.9 114.4
261.8 258.8 261 262.4 263.8 265.5 268.3 270.8 272.4 273.1 273.5 272.5 272.6 270.8 266.7 266.2 273.4 277.6 283 292.6 304.7 316.5 320.4 322.6 329.3 335 341 349.4 358.7 373.8 390.6 410.5 425.9 438.7 445.4 436 422.8 410.6 401.3 388.6 376.2 365.4 359 352.6 346.3 341.4 336.7 325.1 331.1 332.3 336.1 337.1 339.6 342.5 343.9 343.2 342.1 339.4 337.5 335.3 331.2 328.8 327.5 325.4 324.6 323 321.5 317.6 314.3 311.9 306.4 301.7 293.1 284.4 284.1 279.2 271.9 268.7 267 264.1 260.4 255.4 249.2 242.4 236.4 230.6 227.1 223.5 220.4 222.1 223.4 223.5 224.1 223.5 222.3 220.8 217.3 221.7 227.7 228.9 229.7 229.4 230.3 230.2 229.4 228.8 228.1 227.5 227.7 228.4 229.3 230.1 230.7 229.4 229.4 230.4 229.7 226.5 224.6 223.1 220.7 220.2 218.6 217 215.8 214.2 213 211.2 208.3 205.2 188.9 185.6 195.2 204.4 206.5 206.5 207.2 210.1 211.7 211.8 210.1 210 210.3 212 213.7 217.5 220.3 224 228 231.1 235.2 237.9 241 243 244.3 244.3 243.2 241.9 240.7 238.7 236.6 233.9 229.4 223.9 219.2 215.4 211.3 207 201 197.2 191.9 188.7 184.7 178.6 167 171.2 173.2 172.1 170.6 168.3 160.2 164.4 165.7 165.2 164.6 162.9 162.7 159.5 157.1 152 147.5 144.8 142.1 140.3 136.8 132.3 125.5 118.5 115.3 114.2
265.2 265.8 266.3 269.1 271.9 274.4 276.5 276.7 276.4 275.9 275.9 275 272.4 269.1 266.1 271.1 280.3 284.1 283.6 293.9 305.9 318 327.9 336.4 348 353.6 362.4 372.2 383.5 395.2 411.2 427 445 464.7 468 454.1 435.1 420.3 404.6 392 380.1 370.9 363.6 356.6 351.6 345.5 340.1 340 337.9 339.1 342.5 345.2 348 349.4 351.2 351.4 349.5 347.4 345.8 342.8 340.7 338.7 338.3 336.5 334.1 331.6 330 329.3 326.2 321.7 314.8 307.2 296.6 282.7 280.5 279.4 271.2 265.1 262 260 256.6 252 247.2 235.8 231.1 227.5 227.3 227.5 227.8 229.1 228.8 229.6 229.6 229.8 228.9 223.6 217.3 228.6 232.1 233.1 233.7 233.2 232.5 232.3 231.5 231.1 230.6 230.2 230.7 231.1 231.7 232.7 233.3 232 232.5 232.5 230.1 229.6 228 226.1 223.4 220.9 219.2 217.8 215.4 214 212.7 210.8 208.9 200.1 185.9 194.2 201.4 206.1 208.9 210.6 211.1 212.5 215.4 213.3 213.7 214.9 217 217 219.3 223 226.6 232.1 235.2 239.8 242.7 247.8 249.9 251.3 253 252.3 251.1 248.5 244.7 239.5 237.9 234.7 228.6 221.5 217.3 212.8 207.2 202.9 195 191.4 186.5 181.8 170.9 169.1 170.2 174.7 175.6 173.8 172.8 169 160.8 170.1 170.6 170.2 169.6 168.3 166.8 165.3 163.1 159 152.1 151.7 148.7 146.1 142.9 138.7 132.8 128.6 123.3 117.3
270 272.8 275.6 279.6 281.9 282.5 281.4 280.4 279.5 277.7 277.5 274.6 271.5 267.6 268.1 278.2 282.8 288.2 294.3 297.4 308.2 319.2 333.6 344.6 361.5 377.8 391.2 401.4 410.1 421.1 436.1 451.7 472.5 479.6 477 466.3 442.5 426.2 411.4 397.3 385.3 376.9 368.9 362.1 354.7 346.9 347.9 348 349.6 354.9 358.8 363.6 365.2 362.9 362.2 360.6 359 356.6 354.7 352.3 350.8 349.4 348.5 344.4 341.1 339.3 339.2 338 333.2 326.1 318.1 308.6 297.4 283.3 273.5 273.3 270.2 264.9 258.4 254.8 248.9 241.1 237 233.7 237.8 233.9 233.9 232.2 232.4 233.1 234.2 233.6 234.7 234.6 232.4 220.8 223.1 233.9 235.6 236.3 237 236.6 235.5 234.7 234.9 234.9 234.6 234.2 234.2 234.1 234.3 235 234.9 235.1 235.1 233.7 233.7 233.4 231.6 227.5 224.5 222.1 219.9 217.5 215.3 214.3 213.4 212.5 209.4 189.1 189 200.2 205.3 210.6 212.9 214.4 214.8 215.6 219.4 217.9 218.6 219.8 221.3 222.2 225.5 229.9 234 238.2 243.3 246.2 252.1 255.2 258.1 262.5 263.7 263.3 261.2 259.3 254 249.6 242.4 238 230.4 221.8 217.5 214.4 209.6 204 197.1 191.3 184.8 175.7 181.1 178.8 176.3 177.5 176.4 174.6 172.6 170.3 172.5 175.9 175.4 175.1 174.5 173.6 171.8 170.6 167.9 164.4 162.5 160.4 158.8 155.5 150.9 146.2 140.8 137.3 131.3 128.6
279 282.4 286.3 287.8 288.8 286.8 284.3 283.3 281.8 279.6 277.1 274.7 272.8 268.7 278 283.5 287.1 292 297.8 305.8 314.6 324.3 336.1 348 366.3 386.3 405.9 427.8 443.6 452.7 467 481.3 486.8 487.3 480.8 473 459.8 437.5 421.8 404.4 391.6 383.1 374.4 368.2 362.5 354.4 357.4 359.7 365 375.1 381.7 383.9 384.5 384.2 381.7 377.6 373.8 371.1 369.2 365.4 363 361.1 358.1 355.9 355.3 351.4 346.1 342.6 335.3 326.1 317 307.2 295.6 283.1 271.9 267 264.5 261.6 256.9 246.9 240.3 241.9 242.6 241.7 240.2 239.1 237.8 237.3 237.1 238.6 239.4 238.8 238.6 239.1 233.8 218.5 232.2 236.9 238.4 239.3 240.1 239.6 239.3 238.9 238.8 238.4 238 237.8 237.5 237.4 237.6 238.1 237.6 238.2 238.8 237.7 237.3 235.9 233.2 228.5 225.4 223.2 221.2 218.9 216.8 215.5 214.6 212.4 195.8 189.4 202.9 205.8 208.9 213.5 215 216.9 218.7 220.1 222.8 221.6 222 223.2 224.8 226.7 230.1 236.8 241.6 246.8 252.6 258.7 261.3 263.6 269.8 274.5 273.5 270.7 268.1 266.9 261.2 255.3 246.7 239.5 231.8 223.1 216.8 210.8 206.9 202 193.9 187.3 183.3 185 182.9 182 181.2 180.4 179 178.6 178.4 179.5 180.4 180.9 180.3 179.8 179.4 178.4 177.2 175.3 172.9 171.1 170.7 169.5 167.6 165.5 161.4 156.5 150.2 144.8 140.8 132.8
290.4 294.3 293.8 294 293.6 290.2 287.9 285.7 282.5 278.7 277 274.7 273.6 268.9 280.9 287.5 292.6 297.5 303.1 314.6 323.4 332.2 341.3 351.2 367.8 386.2 411 439 465.2 485.2 494.4 503.1 505.7 505.1 501.9 485.3 465.5 454 432.4 413.3 399.4 390.2 381.9 375 368.2 367.3 369.6 374.1 385.9 400.5 406.1 406.2 405.2 402.3 400.5 397.1 394.7 390.9 388.9 387 384.2 382.1 382.6 382.2 373.5 359.4 345.9 340.1 332.3 324.2 314.1 306.4 296.7 286.5 276.9 268.5 263.7 258.4 249.9 242.9 245.8 246.7 246 244.9 244.4 244.5 244.4 243.3 243.6 243.5 244.5 243.8 242.8 241.1 227.4 228.4 240.2 241.4 242.1 242.8 243.2 243.4 243.2 242.4 241.9 241.4 241.4 241.3 240.9 241 240.9 241.8 242.1 241.1 241 239.2 236.9 234.7 231.6 228.3 225.2 224.1 223 221.6 219.2 217 215.6 208.7 194.1 195.2 208.3 211.9 213.5 215.4 217.9 219.8 222 225.2 226.2 226.9 227.3 228.5 230.6 233.5 238.3 244.7 250.1 256.4 262.2 267.7 272.8 277.6 282.3 283.6 282.9 280.3 277 271.6 265.5 257.6 248.9 238.3 230.2 222.7 216.9 210.4 204.1 198.5 193 192 189.7 187.6 186.1 185.3 184.6 183.8 183.4 184.3 185.4 185.1 185.6 186.1 185.5 184.8 184 182.9 181.6 179.2 179 178.6 177.2 176.5 175.1 173.6 170.4 165.6 162.2 155.1 148.1 142.3
298.7 301.4 300.9 299.4 296.7 292.9 290.1 287.1 282.7 279.2 276.8 274.2 273.3 277.9 287.2 294.8 299.5 306.5 315.5 327.7 333.3 339.6 344.5 356.1 367 384.1 409.4 437.8 464.4 494.3 516.8 522.1 525.3 522.3 516.7 503.3 477.4 460.1 444.7 424.4 408.7 398.1 389.1 382.1 372.2 378.1 381.1 392 408.5 423.2 429.1 432.1 430.4 427.6 423.1 420.1 417.6 415.6 414.2 411.1 409.3 408 404.3 393.7 375.9 358.5 347.3 340.5 331.5 321.2 312.5 304.7 294.9 286.6 279.7 274.1 264.4 252 245.4 250 251.4 250.7 251.2 251.3 251.1 251.4 252.3 251.4 249.9 248.3 248.3 248.5 247.1 244.2 226.2 238.5 245 245.7 246.3 246.6 246.5 246.7 246.9 246.2 244.9 244.8 244.9 245.1 245.5 245.7 245.6 245.7 246.1 244.9 242.9 240 237.5 234.8 234.4 233.1 231.3 229.6 227.4 225.5 222 219.7 213.8 202.2 193.7 206.2 213.7 216.2 217.3 218.9 221.5 224.1 225.6 228.3 232 232.3 235 238.2 240.3 243.2 247.9 251.4 257.5 265.3 270.4 277.9 282.7 288.7 291.8 292.1 290.4 286.3 279.9 268 260.9 253.2 245.3 234.9 227 219.9 214.3 209.4 202 200.9 197.1 195.2 192.7 191.1 190.7 189.6 189.8 189 189.5 190.7 191.5 190.4 190.2 190.5 189.4 188.6 188.3 187.5 186.5 185.3 185.8 186.2 186.2 185.6 184.1 183.1 181 176.3 170.2 163.2 157.3 149.5
307.8 306.8 306.4 304.2 300.8 295.6 290.8 286 282.4 276.9 275.1 275.5 276.4 285.5 298.7 305.7 312 319 330.4 339.2 344 350 353.8 359.5 372.3 383.9 404.4 432.6 461.6 491.3 521 529.7 529.5 527.4 521.2 512.1 496.6 480.6 467.2 440.6 419.9 404.1 394.5 387.9 382.7 387.6 395.4 410.8 429.9 445.1 452.7 457.5 458.2 457.6 453.6 450.5 447.4 445.7 443.5 440.1 435 429.7 412.9 391.7 373 357.3 345.8 340.3 330.7 319.8 309.6 302.1 293.3 286.4 279.8 271.6 257.8 247.8 252.8 257.1 257.8 257.4 257.5 258.4 258 258.7 257.7 256.7 254.7 252.6 253.5 252.3 250.5 241.7 226.4 241 248.8 249.8 250.7 249.9 249.8 250 250.2 249.9 249.3 249.2 249.7 250.1 250.2 250.3 250.1 249.8 249.7 247.3 244.9 241.9 239.3 237.4 236.3 236.5 235.3 234 231.5 227.5 222.7 222 212.8 203.1 200.5 214.2 218.5 220.6 222.8 224.1 226.4 230.3 232.2 236.3 237 239.1 243.5 246 248.1 251.3 256.7 260.1 269.4 275.3 283.5 290 294.5 298.3 298.3 297.6 294.6 289.3 280.6 269 257.5 248.2 239.6 232.3 224.5 217.4 211.3 208.6 206.8 204.3 201.2 198.9 200 198 196.9 196.3 197.7 195.8 196 196.8 197.6 197.4 195.6 195 194.1 193.7 194.1 193.8 193 193 192.7 193.6 194 193.4 193.7 191.4 188 184.7 178.5 171.2 164.5 158
