ncols 200
nrows 82
xllcorner 300000
yllcorner 244200
cellsize 50
358.2 350 345.2 341.3 335.5 329.7 336.1 349.4 360.5 372 381.7 390 394.8 401.2 408.1 414.1 419.3 422.6 424.6 426.9 429 430.3 431.2 429 429.3 431.2 425.2 420.5 420.5 421.8 418.7 411.4 404.4 398.1 393.4 384.3 365.7 340.5 308.7 292 285.2 281.4 271.4 256.9 244.3 232.5 224 203.4 196.7 197.3 213.3 232.2 252.9 270.1 283.1 291.8 299 304 306.3 297.8 286.9 272.9 257.1 249.3 241.3 233.7 229.5 225.5 219.9 211.8 196.8 212.8 217.5 222 227.2 231.1 230.1 227.1 221 214 207.6 201.3 189.5 198.4 200.2 200.5 199.1 198.6 197.7 189.9 197.4 204.3 216 232.1 245.3 251.3 261.1 272.3 277.4 288.9 297.1 308.6 316 318.4 320.1 330.5 337.1 340.4 345.3 346.2 345.6 344.9 344.1 342.6 338.7 332.5 327.9 324 316.5 313.3 309.5 303 296.1 288.3 279.3 267.1 253.7 233.6 207.2 178.4 157.6 139.8 128 118.1 116.4 116.3 116 115.6 112.2 111.9 117.4 139.2 164.2 181.4 193.1 207.4 221.7 229.9 239.3 247.9 252.6 261.2 274.8 284.9 294 297.4 294.7 291.9 288.2 281.7 279.2 282.9 284.7 283.3 280.7 283 293.7 300.1 299.8 298.5 286.4 280 272.3 262.1 254.4 247.7 243 235.8 226.5 215.1 202.2 192.9 187.1 176.8 164.8 158.6 170.4 194.5 202.2 207.4 207.3 207.8 205.5 204.1 201.3 193.8 185.8 179.4 174.3 169.8
359.9 353.3 349 343.4 335.3 330.1 341.4 356 368.4 377 381.5 388.1 392.6 399.4 404.7 410.1 413.2 414.4 416 419.2 421.5 422.4 422.5 420.4 423.2 425.3 419.5 413.6 412.8 417.9 415 407.1 395.9 391 388.8 380.7 365.6 344.2 313.5 293.8 282.7 272.2 264.2 256.6 242 228 220.3 196.7 197.9 208.5 225.8 248 264.3 283.7 296.5 305.7 311.2 313.1 308 295.4 285.6 275.8 254.7 247.9 241.5 234.5 229.2 225 219.7 210.6 205.4 216.2 221 226.2 231.4 234.6 234.4 229.8 222.6 216.3 211.1 199.1 200.7 204.9 203.8 204.2 203.4 202.7 203.1 198 204.5 219 238.9 255 265.9 271.4 282.8 293.7 303.9 310.7 318.9 328.1 335.6 337.6 338.5 345.5 344.8 346.9 349.1 348.4 347.6 349 351.7 348.8 344.5 341.1 337.8 332.5 328.5 324.2 317.7 310 302.4 296 286.5 277.2 264.5 248.1 224 195.9 169 147.8 134.3 119.4 116.2 116.4 116 115.7 114.9 112 117.6 129 154 170.2 186.1 199.2 211.5 223.1 230.1 239.2 247.1 253.3 262.8 274.2 282.7 290.8 289.4 287.1 285.3 279.2 276.5 279.3 280.1 278.1 273.5 271 277.9 290.8 293.7 292.2 289.3 277.6 267.9 260.2 252.8 246.7 242.3 237.9 231 221.1 207.6 199.4 193.7 185.4 172.9 160.1 159.1 186.2 195.3 201.7 202.3 199.6 196.9 193.6 190 183.7 176.1 171.8 167.8 163.3
358.3 352.1 347.3 342.4 336.9 335.1 346.6 362.1 373.6 379.5 381.6 383.4 387.2 390 396 400.8 403.9 405.9 407.3 410.6 415.5 417.3 415.6 412.7 413.9 416.7 416.3 409.3 406.5 411.9 410.3 404.1 390.3 379.6 376 370.2 357.1 341.9 314.7 288.9 279.5 270.9 261.8 250 239.4 224.9 213.1 198 204.5 222.1 245.5 260.1 276.3 293.2 304.5 314.1 318.7 317.8 307.7 294.6 282.1 272 254.7 243.3 238.5 232 224 218.4 211.4 200 213 219.5 226.2 232.5 237.6 241 238.8 233.7 225 213.6 203.4 205.2 207 210.1 208.6 208.5 208.1 206.5 207.7 201.5 219.4 236.2 262.1 285.6 295.6 300.2 303.9 312.7 333.6 342.3 345.6 349.1 350.3 351.6 351.2 351.2 352.4 351.3 350.9 354.7 355.8 353.9 353.8 352.4 348.9 344.5 341.1 338.2 334.6 331.4 323.8 316.2 307.9 301.5 293.7 284.6 273.3 260.7 240.4 212.8 180.7 157.3 137.7 119.9 115.6 116 115.4 115.3 115.8 111.9 117 120.2 144.9 159 174.1 190.7 202.2 212.7 221 230.9 240.4 246.9 253.7 264.8 272.9 280.3 282.9 283.6 280.8 277.7 272.8 278.3 275.8 271.9 265.8 263.6 266.2 273.3 286.9 287.2 284.5 275.4 264.4 255.2 248.9 243.1 239.2 235.7 230 225 212.9 204.1 197.8 192.2 180.3 164 156.8 181.3 188.6 193.5 195.1 191.9 189.1 184.8 180.1 173.8 166.6 162.1 159 154.9
359.3 352 347.1 342.1 338.4 338.5 351.5 366.2 376.3 377.8 378.7 377.9 378.2 379.8 387.1 394 394.4 397.8 404 405.6 409.5 412.2 409.3 409.4 407.5 408.1 408.4 403.9 401 403.4 401.3 394.2 383.5 372.4 360.4 353.1 347.3 339.3 322 290.4 275.9 269.5 261.2 247.3 229.6 220.3 203.6 198.4 217.5 238.6 257.5 274.6 290.7 299.6 310.2 320 323.4 317.3 305.6 290.8 277 265.5 251.7 238.8 228.7 222.3 214.1 205.5 203.5 210.6 218.3 225 232.7 240.3 247.7 248.8 244.7 239.4 228.4 215.1 208.3 210.1 210.9 214.4 213.1 213.1 213.5 211.1 211.9 203.8 230.6 255.3 284.3 307.3 314.5 321.5 323.7 333.8 352.1 361.1 364.5 363.7 362.9 361.7 360.7 360.8 365.1 364.4 364.9 361.6 360.1 359.5 361.2 358.6 353.8 348 344.3 343 340.8 335.8 328.9 321.4 313.4 307.6 300.2 291.3 281.7 271.3 255.8 237.7 200.2 166.6 144.9 127.8 115.4 115.9 115.7 115.3 115.9 112.1 117.3 117 134.4 146.4 160.5 180.5 192.5 202.5 212.2 219.9 231.1 241 247.6 254.4 263.2 269.7 276 277.9 276.7 274.7 269.7 273.9 271.5 265.8 258.4 258 264.2 267.2 272.7 281.7 281.6 276.7 260.5 250.5 242.8 237.6 232.7 229.9 225.6 219.2 211.1 205.4 201.9 197.6 182.2 170.3 151.6 176.6 180.5 184.5 186.1 184.7 182.1 177.1 172.3 164.6 156.5 150.8 147.4 144.7
358.9 351.9 346.2 341.9 338.4 341.7 355 366.9 374.4 374.1 370.2 367.3 364.8 370.8 386 390.9 388.8 392.5 398.9 398.8 401.9 405.1 402.7 402.2 398.3 396.5 396.7 396.6 394.5 395.4 391.5 381.8 373.2 364.1 352.3 342.1 338.4 333.7 319.7 291.6 269.7 263.8 254.8 241.8 226.1 208 199.4 211.1 232.5 253.5 273 288.7 299.3 307.8 316.3 324.7 324 315.7 301.5 287.9 273 260.3 245.6 234.8 219.5 210.2 206.4 206.3 214.6 220.1 225.2 230.8 238.6 247.5 255 257.1 254.1 246.7 233.8 219.5 214.1 216.6 218.2 219.4 219.5 219 219.6 217.7 213 221.8 245.5 273 299 317.9 331.6 338.6 341.9 346.1 360 371.2 373.9 372.7 373 373.4 370.9 369.9 368.3 369 368.9 367.2 364.6 364.3 363.6 359.8 355.5 350.8 346.7 343.7 343.2 340.4 334.2 325.8 317.6 314.3 306.6 297.7 288.4 278.8 267.1 250.6 224.5 185 154 135 116.2 116.7 116.1 115.7 115.1 112.5 117.3 117.2 122.1 137.5 148.9 168 181.9 193.5 204.7 215.5 223.8 232.2 240.8 247.2 253.6 260.9 266.8 271.1 271.7 270.1 267.5 268.6 266.1 260.5 252.5 258.6 265.4 266.5 266.9 272 278.1 278.3 265.3 248.5 237.4 230.7 226.3 222.9 218.5 212.3 204.9 201.8 200.7 198.2 190.7 180 163.5 154.4 169.3 172.4 172.1 174.9 176.1 171.8 159.8 150.3 141.2 138.2 137.2 134.4
357.1 350.7 344.5 339.3 336.7 342.5 353.8 367.3 368.3 366.3 361.5 358 355.1 369.6 381.6 383.5 381.4 381 384.4 390.1 395.5 397.6 395.1 393 388 384.4 384.2 385.2 385.1 385.9 380.8 371.3 364.8 355.6 344.8 335.8 330.4 327.4 314.4 288.3 269.1 256.8 246.1 232.8 213.3 200.7 202.8 224 245.2 265.9 283.3 295 306.4 316.2 323.6 328.6 322.1 312.8 296.9 281.8 269.2 256.6 242.5 225.5 209.7 207.2 213.5 217.2 222.4 227.2 232.1 239 247.6 257.5 264.5 268.7 265.1 257.9 244.7 227.2 219.7 222.6 224 224.5 223.9 223.3 225.8 223.3 214.8 238.8 263.1 286.5 311.6 333.2 350.3 358.2 363.7 365.5 372 384.2 386.1 384.7 382.3 380.5 378.5 375.8 376.7 378.6 376.4 373 370 368.4 368.9 366.5 361.9 355.8 349.3 346.2 342.5 341.7 340.1 335.9 330.1 321.7 313.9 305.2 296.6 286.8 276.4 261.5 244.3 210 168.7 142.8 120.9 115.3 115.7 116 115.3 112 117.2 117.2 117.6 127.9 136.6 151.9 171.7 184.5 195.8 207.8 218.7 225.6 234.2 239.6 244.5 251.4 257.3 262.8 266 264.9 261.5 261.6 260.7 255.5 250.8 256.9 262.6 263.5 261.9 262.3 274.7 276.2 264.3 247.1 234.1 222.8 218.3 214.2 209.6 202 196.8 192.7 192.1 190.7 186.2 179.9 174.1 166 142.3 145.6 149.1 163.8 170.6 165.5 151.2 139 137 135.4 133.5 137.4
351.8 346.7 341.4 335.3 333.5 341.4 351.2 362.6 361.4 356.9 353.4 350.7 347.7 362.8 371.5 372.7 372 373.6 376.8 383.5 388.5 388.8 386.3 382.9 377.6 368.4 369.3 369.3 370.6 371.9 367.7 364 356.5 346.5 336.8 327.6 325.3 322.3 310.6 291 271.3 251.9 239.7 216.6 202.2 202.2 214.7 234.5 254.8 272.7 288.6 301 312.4 322 326.2 325.8 320.1 308.9 291.2 274 262.8 250.7 235.2 215.9 210.1 218.2 223.9 226 228.6 233.3 240.6 247.4 257.4 266.6 273.6 279.5 276.3 268.6 256.3 241.2 228.3 228.6 229.1 229.5 229.2 229.8 231 227.4 221.4 250.6 273.4 301 329.2 350.9 363.5 375.1 380.8 381.2 382.5 384 387.4 388.8 386.5 384.6 385.3 385.2 386.8 390.8 389.6 385.4 381.1 380.1 377 375 371.9 364.4 357.1 349.1 342.8 338.6 337.6 337.6 336.8 334.1 328.8 317 307 296.3 285.1 271.8 255.7 233.7 186.2 156.3 132.2 114.8 115.5 115.6 114.9 112.2 117.1 117.2 117.2 117.6 128.7 138.5 154.1 172.9 188.7 200.3 210.6 218.8 224.7 231.8 236 242.5 247 252.2 257.7 258.6 256.5 256.4 255.8 251.9 247.5 253.1 256.5 256.2 254.7 253.4 261.9 271.4 260.8 245.3 229.5 214 208 204.6 199.5 192.1 185.3 183.3 182.7 181 176.8 173.9 169.3 163.3 155.1 139.3 141.1 154.3 156.5 147.7 137.5 135.1 134.3 134.1 144.4 159.3
348.2 342.1 338.2 331.5 328.6 333 346.5 355.7 355.2 349.3 344.1 338.2 338.8 356.7 362.5 364.2 364.4 368.3 369.8 373.6 376 376.1 372.7 371.7 366.3 357.2 354.3 350.9 352.7 352.4 353.5 353.2 347.9 339 330.8 321.9 319.4 316.6 309.2 286.9 268.4 246.2 233.7 211.4 202.8 208.8 223.6 243.8 262.2 278.5 294.6 307.2 318.7 326.2 328.1 324.4 318.2 303.1 287.3 271.2 258 246.8 229.4 211.9 219.9 226.3 229 231.5 235.1 240.6 249 257.8 266.7 275 283.1 289.1 286.8 279.2 267.6 253.5 238.2 236 236.3 234.1 233.2 234.9 235.7 232.6 235.6 256.4 284 316.2 344.8 362 370.9 378.3 382.5 385.9 386.6 387.1 393 395.1 394.2 395 399 400.6 400 401.6 401.5 397.8 393.9 389.5 386.5 383.8 379.7 372.7 365.6 357.3 347.9 339.2 334.6 333.2 330.4 329.7 329.3 329.7 322.2 311.5 295 285.1 271 248.6 213.5 171.3 150.2 117.4 115.7 115.9 113.7 112.2 117 117.1 117.3 117.1 117.9 130.6 140.9 154.3 176.1 193.4 202.3 211.6 217.4 223.1 227.8 233 236.7 242.3 248.5 250.3 247.3 251.1 250.7 249 239.2 244.6 247 245.8 242.9 242.2 248.7 257.3 253.5 240.3 224.5 206.2 198.7 194.6 190 183.1 177.5 175.4 176.5 175.6 170.3 167.1 162.5 158.8 153.2 140.5 137.1 142.9 142.9 135.3 133.2 133.4 138.5 152.4 168.1 183.1
347.4 341.1 335.9 329 326 323.3 333.1 344.3 346.1 342.6 335.3 327.8 330.2 347 351 351.5 354 357.8 357.1 357.3 357.6 357.8 356 354.4 349.9 344.4 340.4 335.8 335 333.6 335.9 337.1 333.8 330.2 326.2 318.8 313.2 310.6 304.6 281.1 263.5 241.7 226.5 205.1 203.7 212.4 227 248.8 269.4 286.7 302.5 318 331.3 331.4 329 323 310.2 294.7 283.6 267.7 254.9 241.9 225.4 213.8 223.8 230.3 234 236.5 240.5 246.4 257 267.3 274.8 284.1 293.5 298.9 297.7 289.4 277.6 264 251.2 244.8 241.2 239.7 239 241.6 240.6 231.9 241.6 265.1 295.5 329.4 356.7 369.3 375.3 382 387.3 390.1 391.4 394.4 404.7 409.9 410.3 412.4 415.4 414.3 412 410.3 410.5 407.8 404.5 399.3 395.1 391.4 387.8 382.8 374.4 366.7 356.2 344.6 333.5 326.2 323.6 324.4 322.1 322.8 327.4 327.5 314.7 302.5 286.8 266.1 238.7 196.4 163.9 133.7 115.2 115.3 114.7 112.2 116.9 116.9 117.1 117.3 117.1 118.3 130.1 142.2 158.7 182.5 193.5 202.3 210.2 214.8 219.3 221.4 223.4 232.7 239.3 242.3 237.2 245.6 244.3 244.3 236.2 235.3 236.8 235.5 233.5 231.9 233.2 241.7 244 232.4 216.9 199.3 189.8 184.8 181.1 176 171.8 168.8 169.8 170.4 166 159.1 153.9 152 149.4 140.6 134.1 133.6 132.8 132.6 138.8 146.5 163.1 178.4 193.4 206.8
344.3 338.9 333 327.8 322.8 319.2 323.5 331.9 336.3 333.8 329.5 318.6 320 335.8 340.4 341.5 342.2 341.5 339.8 339.2 339.1 337.7 336.6 335.4 330.8 325.3 321.5 321.7 318.8 318.3 319.6 321.1 321 322.3 321.9 314.3 307.7 306.3 299.4 276.1 256.6 237.3 220.3 207 205.6 216 232.3 256.9 278.8 293 311.8 327.6 340.5 335.7 331.3 323.9 304.9 288.7 276.8 263.5 250.8 237.4 220 218 228.2 232.5 237.5 241.2 246.1 253.1 262.7 272.4 282.3 295.1 304.8 309.5 307.4 298.5 286.6 274.5 260.9 253.9 248.7 246.2 246.4 246.5 242.4 237.1 248.8 274.7 309.3 342.9 362.5 373.3 381.5 388.8 396.5 401.4 402.9 407.5 416.8 421.5 425.9 427.6 428.8 426.7 420.8 417.2 414.9 413.2 409.8 405.4 399.6 395 389.5 383.9 377.4 370.2 361.6 345.9 337.1 324.1 317.5 317.6 315.7 316.1 320 326.5 327.2 318.3 303.7 283.8 258 225.4 185.8 153.6 124.5 115.2 113.3 111.9 116.9 116.7 116.8 117 116.9 116.8 121 134.8 142.9 165.7 181.9 191.4 201.5 205 207.6 210.6 211.2 216.4 226.8 231.3 229.1 235.5 235.3 237.5 230.5 220.3 227.2 226 224.3 224.5 226.4 228.3 231.9 224.8 206.2 190.2 182.2 178.1 175 171.7 166.7 164.1 163.8 165.6 163.3 154.6 146.7 143.9 142 140.7 136 131.6 135.9 142 154.9 170.2 188.8 202.7 215.3 227.8
343.8 334.2 329.9 325.3 319.7 315.4 313.5 321.1 327.5 327.5 323.8 314.5 313.8 324.8 329.3 332.5 333.2 332.1 328.7 323.5 321.8 320.4 320.1 318.6 314.3 303.9 301 307.4 305.1 303.4 304.1 305.9 308.3 309.1 310 309.3 303.4 299.4 294.2 274.4 253.3 236.6 222.8 208.5 213.3 222 241 266.4 282.8 301.7 319.9 336 342.4 336.8 332.5 325.4 303.3 285 270.1 257.7 245.6 225.9 216.2 228.7 231.9 235.2 239.7 244.5 253.4 260.4 268.2 278.5 293.1 307 317.6 321.6 317.1 308.1 296.4 285 273.5 262.5 258.1 255.3 253 248.1 242 240.4 256.1 283.7 319.7 348.4 370 384.2 392.5 398.6 406.8 412.3 416.4 421.7 428.8 430.8 437.8 438.7 439.5 435.3 427.6 421.5 416.9 413.5 410.1 405.6 400.4 393.7 387.3 381.2 373.2 371.1 365.8 356.6 346 330.9 318.6 309 310.1 312.1 314.3 315 323 324.2 313.3 300.1 279.6 242.6 205.4 172.2 144.5 118.2 112.8 111.9 117.1 116.7 116.7 116.8 116.9 116.9 118.5 124.1 133.2 143.8 166.5 178.8 187.6 192.4 196.8 200.4 203.2 204.8 209.7 218.2 212.9 223.3 225 227.9 222.4 211.8 215.3 216.4 215.9 215.9 216.2 214.7 219 213.7 198.2 181.8 176.1 172.2 169.1 166.4 163.6 161.3 162.4 164 157.3 143.7 135.3 133.9 133 132.1 140.8 141.9 153.2 162.1 177.1 193.7 210.2 224.7 238 250.2
350.3 336.6 327 319.5 316.2 311.4 307.8 308.5 314.9 318.4 318.8 311.2 305.7 313.2 318.8 318.7 318.1 316.3 314.8 312.1 307.7 305.9 305 302.1 300.7 292.9 284.5 286.1 288.4 291.7 292.9 295.3 295 296.9 299.4 298 295.1 293.6 286.2 273 254.2 237.6 220.1 210.2 223.8 232.6 252.7 276.4 292.6 310.8 328.7 342.8 343.5 337.2 332.3 322.4 297.9 277.6 262.4 249.8 232.6 219.9 224.1 233.7 236.5 239.5 243.4 251.6 262.2 270.2 278.2 288.5 304.9 319.9 331.3 334.1 327.4 318.7 307.9 296.7 285.3 271.9 267.4 261.6 255.1 247 244.3 245.1 262.8 296.7 329.2 351 374.2 399 405.5 411.4 418.5 423.2 424.9 428.4 435.8 437.8 445 443.3 441.1 437 430.8 424.1 417.3 412.3 407.7 402.7 396.8 389 386.9 382.9 380.4 376.1 370.6 361.5 351.4 338.4 324.2 312.3 301.7 305.3 306.9 307.8 309 318.5 317.4 311.2 295.6 266.3 229 194.3 168.8 138.4 113.1 111.9 117.2 116.8 116.6 116.8 117 116.8 117.4 118.9 124.1 134.8 147.1 164 172.7 179 184.4 188.8 193.8 195 194.9 196.9 186.1 205.2 208.2 208.9 210.1 200.5 206.8 206.4 207 210.3 211.9 206.4 204 204.8 190.7 178.1 172.1 167.7 165.1 163.2 160 159.1 159.3 148.6 137.3 132.2 132 132.2 129.9 140.6 151.3 167.3 179.4 188.1 199.5 212.7 229.3 247 261.6 275.8
355.4 342.7 329.1 319.7 312.9 308.8 302 300.3 300.9 304.5 307.4 308.6 302.1 301 302.9 304 302 300.1 301.9 299.8 295.6 291.6 288.6 286.9 287.4 284.4 275.6 272.7 276.1 279.7 280.3 280.2 281.7 287.6 291.4 287.5 285.2 283.5 279.9 268.8 254.7 238.5 209.4 221.8 234.1 244.5 261 279.8 296.9 313.9 327.7 342.7 345.3 335.6 328.2 310.1 290 269.8 254 238 220 222.1 232.7 236.5 241 244.8 249.9 258.7 270.2 279.8 288.9 299.5 313.7 330.4 341.7 343 337 328.3 319.7 309 294 278.2 270 262.5 253.8 248.2 248 251.6 277 308.9 335.1 355.5 380.6 403.3 411.4 417.9 425 430.6 431.5 434.1 439.6 441.6 445.1 444.6 442.3 437.5 432.9 426.7 417.7 410.6 404.3 397.7 395.5 396 394.4 390.7 384.9 378.5 370.5 361.1 350.5 339.3 328.1 315.9 305.7 292.8 301.1 301.3 302.7 307.4 314.4 314.8 308.9 290.3 259.9 222.3 193.9 164.5 128.3 112 111.5 116.4 116.5 116.6 116.9 116.9 116.5 117.7 118.5 125.5 135.7 146.2 155.5 163.7 169 171.5 173.4 177.5 179.8 182 174.9 188.5 191.1 192.5 194.5 195 197.8 198.3 198.1 197.5 204 201.4 198.4 194.8 186.6 178.3 171.4 164.9 160.2 160.8 159.4 149.7 142.3 131.2 130 129 130.7 140.4 154.8 169.2 182.5 192.9 202.6 212.2 222.8 234.1 251.1 268.7 284.6 298.6
358.1 348 336.2 323.6 314.8 307.9 300.9 295 291.6 293.7 295.1 298.1 296.9 292.4 292.6 294.5 294.2 293 293.2 290.4 285.8 281.7 277.7 274.9 273.4 271.2 264.5 262.1 265 266.4 264.5 263.8 268.9 277.5 279.9 275.8 275 275.8 273.3 263.4 250.8 233.1 209.5 231.6 241.8 252.5 267.3 282.1 299.5 316.6 336.6 346.8 345.8 336.5 317.6 301.9 282.9 264 246.9 228.5 222.8 226.4 233.9 241.1 245.7 251.1 255.9 263.9 274.9 287.6 298.5 309.7 323 339.5 347.5 350 346.4 338.8 331.6 321.7 304.7 284.8 274.3 265 256.9 253.5 255.5 260.4 288 317.6 339.7 363.1 388 402.2 413.6 422 428.2 436.1 439.9 441.6 442.5 443.7 448.4 450.4 448 442.9 436.4 429.7 418.8 407.6 402.1 398.5 399.6 400.2 397.9 392.8 385.1 377.8 366.6 356.3 345.5 336.2 326.2 315.8 305.3 294.8 286.8 294.9 296.4 298.5 305.4 308.2 304.4 297.5 290.1 256.1 222.3 191 155.2 130.5 119.2 111.2 111.5 116.8 116.7 116.7 116.9 117.5 117.9 119 129.5 138.2 142.8 149.4 157.2 157.6 157.3 159.3 162.3 164.6 159.6 171.8 174.3 177.2 178.3 187.1 188.9 192.2 190.7 190.1 194.1 196.2 194.6 190 184.5 179.1 172.8 164.1 157.4 156.7 147.2 131.4 130.1 128.2 130.4 143.6 153.5 169.1 184.7 197.3 207.9 217.9 227.3 237 247.6 258.5 270.4 284.5 296.1 313.9
360 350.3 340.7 331.7 321.8 312.4 304.5 298.8 292.6 288 291 289.7 288 284.9 286 287.3 287.1 287.1 286.3 283.5 280.8 277.3 272.8 268.3 265.8 263.1 255 255.4 255.2 253.9 253.6 254.4 259.9 264.8 267.6 269.4 271 271.1 265.5 255.9 235.5 220.4 215.9 242.4 251.2 261.8 272.5 285.8 305 328.2 344.5 354.8 345 335.3 312.2 292.4 275.4 258.7 242.9 224.8 235.9 236.2 232.1 244.7 250.8 256 260.8 267.8 280.6 294.5 308.4 319.8 334.6 346.1 353.3 355.7 353.2 351.2 346.3 338.1 322.3 309.2 301.3 292.4 282.2 275.3 276.1 286 306.9 331.6 353.9 376.2 397.3 407.5 418.6 428.8 435.9 439.5 442.8 445.5 446.3 452.5 454.3 454 452.7 448.9 443.1 435.8 427.7 418.6 412.9 408.6 404.9 403 400.5 394.6 388.4 378.7 368.8 359.7 347.1 336.8 327.3 316.8 306.6 298.3 279.8 284.2 290.4 291.4 292 297.3 296.6 292.3 285.8 278.7 249.9 218.6 193.5 157.6 135.9 118 111.3 111.1 116.5 116.6 116.8 117.2 117.6 118.1 121.6 133.6 136.3 139.3 143.5 143.7 142.8 143.4 146.4 149.8 151.5 154.8 159.5 162.5 167.6 174.2 178.5 185.5 187.2 182.3 185.4 186.4 186.6 184.3 181.4 177.3 172.4 161.6 156.3 143.3 130 128.9 128.3 139.9 153.8 170.1 186.2 199.6 214.6 226.3 235.9 245.2 255.2 263.5 274.3 283.8 291.1 298.8 312.3 324.6
356.7 349.6 340.8 332 325.2 317.4 309.3 301.5 295.3 290 285.5 278.9 279 278.5 279.4 279 278.1 279.3 279.8 279.9 277.8 274.6 269.7 264.7 260.8 256.3 252.3 251.8 250.9 250.3 248.7 249.3 242.3 253.8 260.7 264.2 265.9 265.7 262.6 253.6 230.1 215.5 235.3 254 261.6 269.9 282.8 299.9 320.5 335.5 344.7 350.2 339.4 331.4 303.5 284.3 268.2 254 234.5 232.9 242.9 243.8 230.9 244.8 253.7 259.8 265.8 271.3 281 300.2 315 329.9 343.4 353.3 358 362.9 363.5 365.6 361.1 354.7 341.2 332.5 329.1 320.5 311.7 302.8 304.1 310.3 323.7 346.6 372.6 395.4 407.6 418.6 428.8 436.2 439.2 442.2 447.8 450.4 449.7 456.1 455.7 454.8 454.3 451.6 446.9 440.2 431.9 425 420.3 416.8 410.8 406.3 403.2 400.1 396 388.2 380.3 370.1 358.7 348.5 336.5 323.2 314.9 304 289.3 268.7 280.6 288.8 287 285.7 287.5 285.7 279.8 274.5 263.1 242.3 218.2 189.8 164.5 142.4 118.1 111.3 111.2 115.2 116.5 116.9 117.3 117.8 119.1 124.5 129.4 132.9 135 136.7 137.4 139.8 143.2 145.1 143.9 144.3 147.2 152.5 158 161 169.1 178.6 185.1 179.5 173.7 171.2 171.6 174.9 177.9 174.8 164.2 153.1 139.2 128 127.4 129.8 149.2 166 181.8 199.4 214.9 230.9 243.1 252.5 260.4 269.4 277.9 281.9 289.6 298.2 309 318.3 329 333.6
344.2 339.7 333.2 326.7 320.9 318.5 312.3 304.8 299.3 294.5 290.4 282.5 272.1 271 271.3 270.1 269.1 270.1 271.9 273.6 275.3 273.3 268.7 263.7 257.5 253.8 251.6 249.2 247.9 244.8 244 249.5 249.3 238.5 248.3 261.1 262.4 260.6 262.9 252.6 231.6 217.2 244 261.4 273.4 278.8 285.7 302.7 322.5 334.8 339.7 341.2 335.4 322.5 297.7 276 261.1 246 227 241.3 246 248.3 240.7 244.9 254.4 261.8 268 273.2 281.9 299.6 317.7 334.3 349.9 357.3 363.6 369.3 374.9 379 374.2 367 357.8 354.3 355 351.7 342.9 332.9 330 342 350.8 369.1 390.2 408.4 421 425.9 432.7 437.8 442.1 446.4 451.5 453.3 452.6 454.7 455.2 455.5 454.1 452.1 449.4 443.7 436.8 431.9 428.6 424.3 419.1 413.4 410.5 408.7 403.7 395.1 386.5 378.5 370.9 362.1 351.6 338.1 323.9 307.1 291.1 277.3 265 277.4 286 280.7 278.7 277.5 273.3 267.1 260.6 247.3 235.7 217.1 194.8 165.4 140.3 118 114.7 111.2 111.9 116.4 116.8 117.2 118.3 122.1 134.4 134.4 133.2 134.4 136 137.9 139.9 141.2 140.7 136.1 143 146.4 149.7 153.9 160 168.6 176 174.8 168.6 166.6 168.6 172 168.9 157.8 145 133.6 125.8 130.6 141.2 154.2 170 187 205.2 226.6 240.2 252.4 264.1 270.6 278.2 283.4 289.6 295 302.6 313.8 323.7 331.4 337.3 341.1
333.3 328.1 323.2 318.3 313.9 313.9 312.5 307.2 302.9 298.2 292.1 285 275 266.4 265.4 263.6 261.2 259 260.6 264.4 268.1 269.2 264.5 261.1 257.4 252.7 249.9 247.9 244.9 245.8 248 259.6 260.2 255.5 246.9 242.6 260.8 257.3 257.6 244.5 226.1 219.1 245.5 271.6 279.7 286 291.4 301.8 326.9 337 339.5 336.7 328.5 308.1 287.8 268.6 253.8 237.5 230.2 244.3 249.8 251.5 251.2 239.1 250.8 258.1 264.5 271.8 279.7 294.8 315.9 336.6 352.1 360.7 368.9 376.9 387.6 390.8 383.6 376.3 371.2 372.1 374 374.7 371.3 366.4 370.1 373.7 386.5 397.6 408.9 420.1 426.9 430.6 434.5 441.1 447.3 447.9 449.6 451.9 454.5 455.4 455.7 455.5 454 454.2 454 448.3 443.2 439.8 437.9 434.6 427.5 422 417.3 413.7 409.5 400.9 390.5 381.4 373.2 364.9 353.3 341.3 327.2 311.9 295.9 284.5 268.5 257.6 281.8 277.2 272.1 269.7 265.3 260.1 254.2 244.5 235.1 222.4 210.9 190.6 159.7 132.1 116.3 115.1 111.2 111.1 116 116.2 117.3 120.4 133.8 135.3 134.9 134.8 135 136.5 138.1 138.9 137.4 132 139 141.6 144.4 148 150.9 156.5 163.8 170.6 163.1 162.4 165.5 160.7 143.5 129.5 127.6 128.7 137.2 148.8 157.7 170.6 188 204.7 225.9 244.4 254.9 264.1 273.3 283.8 299.5 304.8 305.7 308.2 316.1 324.5 333.5 340.2 343.2 349.1
324.5 317.5 313.8 307.8 304 305.2 306.9 303.9 300.1 297.2 291.5 284.1 273.9 265.3 260.3 261.1 255.9 255.2 254.3 255.5 257.9 259.4 253 252.9 252.1 250.5 248.3 247.3 246.2 249.5 260.5 266.3 267.9 263.9 256 242.3 235 254.8 247.2 224.8 218.1 223.4 259.6 276.9 286.1 295.8 301 315.4 330.1 339.1 343 335.2 318.6 298.3 277.6 258.6 245.3 233.8 239.8 250.8 258 260.9 256.7 254.2 251 251.9 259.2 266.6 276.2 289.4 310.6 335 352.5 361.9 373 385.2 396.6 400.1 391.8 385.3 384.6 391 392.9 393.8 395.7 392.4 395.2 402.3 413.9 418.4 424.1 429.6 430.9 432.8 438.1 446 453.1 451.9 449.6 450.5 452.9 455.4 455.7 455.5 455.8 457.2 457.3 452.8 447 443.6 439.9 436 431.4 425.1 421.5 417.4 413.4 405.6 394.3 383 374.3 366 353.6 340.4 327.1 313.3 299.4 287.4 274.1 260.9 272.4 271.8 266.8 263.5 259.3 253.9 247.7 241.2 232.3 222.1 210.9 198.8 175.9 153.6 121.1 116.7 115.5 111.3 111.1 115.3 116 118.1 133.5 135.1 134.8 135.5 135.7 135.5 136 136.7 135 131.9 135.9 137.9 140.2 141.8 144.1 149.7 155.6 158.6 158.3 154.1 159.3 141.9 126.4 127.4 128.8 140.2 151.7 159.5 168 183.3 201.1 219.2 243.3 256.1 266.4 274.5 286.4 297.8 306.9 311.2 313.7 315.2 323.3 333.8 342.3 348.5 354.1 360.7
315.7 311.6 305.7 299.8 297.2 296.1 296.1 293.6 292 289.7 285.1 277.4 265.6 260.5 258.7 257.3 255.8 254.1 253.8 252.8 251.2 250.3 250.2 250.1 249.6 249.2 247.9 247.3 247.8 259.3 269 275.4 275.8 269.8 263.2 255.6 242.6 232.1 234.7 219.1 224.6 249 269.3 278.1 288.5 301.6 309 318 331.9 338.3 342.7 332.8 309 284.3 262.9 249.9 238.5 238.5 247 261.7 268.3 270.8 267.2 261.1 258.6 254.8 255.7 262.3 271.5 284 303.6 331.1 351.8 367.1 380.2 390.7 401 404.3 397.6 392.4 396.1 405.6 411.7 417 420.2 415.5 417.4 425.7 432.2 436.1 435.5 441.4 441.6 441.2 445.5 453.1 455.8 454.8 452.6 451 452.3 453.8 454.7 456.2 458.3 459 457 452.8 446 441.8 437.9 436.3 432.1 425.8 420.7 418.7 415.6 406.7 394.2 383.1 373.7 364.1 353.7 340.3 326.8 312.7 299.5 291.7 278.2 264.8 248.8 263 261.7 255.1 252.5 248.1 241.5 234.2 228.7 220.2 210.6 198.7 183 169.2 138.4 117.7 116.5 115.4 111.3 111.1 115.7 116.9 133 134.2 134.6 134.9 135.3 135.9 135.6 135.5 134.8 122 125.2 135.4 138.1 139.7 140.8 144.9 149 151.7 154 149.7 136.3 126.4 126.8 131 141.7 153.1 160.2 165.7 176.3 197.1 215.6 235.3 254.7 266.6 276.8 285.1 296.4 304.3 314.1 320.2 323.6 326.1 335.1 341.7 349.8 358.8 361.9 366.2
304 300.5 297.5 293.7 290.4 288.1 282.7 279.3 275.1 272.4 266.6 261 268 270.8 268.1 266.6 265.8 265.5 263.2 258.4 262.4 260.7 255.7 253.1 253.3 255.1 258.2 257.7 257.7 264.5 271.8 278.5 281 276.9 269 260.5 252.7 242.4 229.7 224.3 247.4 264.8 270.9 277.9 288.4 301.3 312 320.7 333.8 340.2 341.8 329.2 302.8 277.2 255 244.4 237.1 242.6 259.7 273.2 280.2 281.3 276.2 267.7 262.5 259.1 262.1 259.6 269.4 279.6 296.6 320.8 348 367.2 384.3 393.2 401.3 405.1 403.1 402.5 408 416.4 425.5 432.8 433.6 432.1 434.1 438.9 443.7 446.7 444.4 445.7 448 450 452.9 456.1 457.2 456.8 456.1 454.8 456.4 456.2 454.6 455 459.1 457.9 455.7 451.8 444.9 439.4 434.9 432 426.8 420.5 415.3 412.7 410.8 403.8 393.1 382.3 371.7 361.4 350.2 339.6 328.8 314.6 300.6 290.6 283.8 271.7 256.2 236.5 248.4 247 243.4 240.3 233.7 227.9 222.4 217.2 209.6 198.3 184.9 167.1 149.2 119.9 116.4 115.4 115.1 111.3 111 115.7 127.2 133.3 133.6 134.1 135.2 137.1 140.5 139.6 132.4 124.4 126.7 124.6 136.4 137.4 138.5 140.9 144.8 147.2 148.5 139.6 126.5 125.8 130.4 143.2 149.5 155.8 164.2 172.9 188.4 211.4 231.3 249.4 266.6 280.5 287 293.1 301.6 310.1 321.1 326.1 330.8 335.7 342.5 349.5 356.2 359.8 364.6 376
290.6 288.6 287.6 286.6 279.9 268.5 268.1 265.9 264.9 264.2 270.6 277.6 280.6 283.5 286.8 286.6 285.9 280.7 276.5 272.2 272.3 272.1 268.5 267.9 268.5 269.2 268.9 270.8 272.3 272 275.7 280.5 282.4 280.5 273.5 262.2 253.6 246.6 241.5 237.1 257 268.8 269.6 274.6 290.9 305.4 315.8 322.8 333.6 340.6 337.2 325.5 296.6 269.8 252.9 242.3 239.7 251.4 269.9 282.7 292 297.9 296.3 286.1 267.6 263.2 265.5 267 262.7 278 292.6 312.6 340.1 362 379.8 391.3 401.3 405.2 408.4 410.1 417.8 427.6 439.1 442.5 443 442.5 444.7 449.1 451.6 451.8 451.3 449.3 452.1 456.3 458.4 457.2 458.5 458.7 458.3 459 460.7 459.5 456.4 455.2 457.4 456.9 454 448.3 441.8 435.4 429.7 423.6 417.3 410.9 407.3 404.9 402.5 399.5 390.5 379.6 370.1 360.1 348.3 335.4 323 311.8 301.3 290.8 285.7 274.2 259.3 248.8 225.6 235.9 231.6 231.1 226.8 221.4 217.5 213.7 207.6 197.6 186.1 169.3 151.6 129.6 115.6 115.6 115.4 115 111.1 115.1 121.4 132.9 133.4 135.5 143.3 148 151.3 142.3 119.4 136.5 144.4 134 123.6 135.7 137.1 138.8 143.4 143.8 134 125.6 127.8 132 139 145.6 148.7 157.8 168.1 184.5 207.4 228.6 243.8 262.7 280.6 289.1 294 298.8 304.5 317.6 326.3 330.4 334.3 338.9 347.8 354 359.2 369.8 380.6 394.8
279.5 278.9 278.4 267.9 268.4 269.9 273.1 275 272.4 273.5 278.6 284.9 290 293.8 297.3 297.3 297.4 290.8 287.6 283.2 281.9 281.6 279.7 277.5 276.6 275.3 276.7 278.1 279.5 280.1 279.8 279 279.2 281 278.3 265.4 252.9 245.3 232.8 243.9 256.8 266.7 269.4 273.6 287.8 303.9 318.4 329.9 340.8 345.4 338.1 323 293.3 265.7 248.6 239.6 242.2 258.1 279.9 291.3 301.8 315 315.1 306.8 284 271.3 270.5 272.1 259.6 279.2 290.4 306.4 327.8 350.6 370.8 386.7 398.6 407.8 414 418.7 426.2 440.9 444.9 446.5 447.2 447 449.4 455.2 459.2 459.8 458.8 456.7 455.8 459.6 460 458.5 457.9 458.3 459 459.8 462 459.8 457.5 457 457 454.4 450.5 443.8 437.6 429.6 422.9 416 409.3 403.5 400.1 396.8 395 394.3 387.3 374.8 364.9 355.7 344.7 330 316.1 307.1 297.3 288.5 283.8 277 263.5 252.9 238.7 215.3 221.4 220.6 220.6 216.4 212.8 209.5 204.2 196.4 186.4 172.7 153.8 134 117.4 115.1 115.2 115.3 114 110.5 118.3 133.1 134.3 140.6 152.7 134.6 126.3 118.3 124.3 156 163.9 154 138.3 121.3 131.2 136.4 133.8 126.4 125.3 127.3 135.3 141.1 142.6 144.8 149.9 165.7 182.4 205.9 225.2 239.6 254.3 271.3 285.2 293.4 300.6 305.9 313.9 324.2 327.7 330.8 334.9 343.3 350.9 358.4 367.9 382.6 398 404.3
274.8 271.1 270.1 270.8 277.8 281.6 282.7 281.7 280 277.7 283.6 290.5 297.3 304.4 306.6 307.7 306.6 304.4 300.3 296.3 294.2 293.6 291.6 288.9 286 284.8 283.2 283.9 284.3 281 279.5 278.1 277.2 278.7 276.2 266.5 252.1 245 233.5 241.1 255.9 267.3 271.1 276.1 287.3 302.5 316.1 328.6 337 343 341.3 321.9 291.4 263.1 247.8 241.7 245.4 262.1 283.3 297.5 309.7 324.5 328.1 327.3 312 290.3 279.7 278.8 272.4 277.8 290.7 302.9 319.7 338.1 358.5 376.8 391.8 404.5 414.2 422.7 432.6 444.2 446.4 447 448.1 447.8 449.1 459.2 463.6 464.3 463.6 460.4 460 460.3 459.8 457.8 455.7 455.1 455.5 460 462.3 460.3 458.9 457 455.2 452.2 447.7 441.6 433.2 426.1 418.3 409.7 404.4 399.5 395.2 391.4 391.1 386.9 379.8 370 359.7 351.5 340.2 322.5 309.8 299.8 293 285.6 280 277 264.5 251.9 240.4 228.9 209.5 210.8 213.7 211.6 208.6 205.9 201.3 194.3 185.1 175.4 157.7 137.2 128 115.3 114.9 115 114.8 110.6 116.3 131.2 134.7 143.8 137.7 119.2 145.2 161.6 165.5 170.1 174.1 165.9 160.7 146.1 132.1 122.4 124.5 123.5 126.8 133.1 138.6 140 141.4 144.6 156.4 177.4 195.6 214.4 232.1 245.7 257 273 285.7 294.4 304.5 311.4 317.1 325.5 328.6 331.3 335.3 346.5 354.2 365.9 377.8 391.5 399.7 403.8
280.2 276.1 276.4 279.6 284.2 288.8 291.1 289.6 285.9 286.5 293 302.1 310.5 317.2 318.6 320 319.6 319 316.3 311.4 307.7 305.2 303.6 302 300.1 294.2 286.7 285.5 283.1 280.7 278 277 275.7 274.8 271.2 263.1 250.4 245 236.4 242.4 254.4 266.9 273.8 280 288.7 306.2 322.1 336.1 339 336.7 337.5 319.1 293 262.9 247.8 243.2 248.6 257.6 280.8 299.2 313.2 329.2 335.9 339.8 334.2 315.9 299.8 287.3 280 278.6 289 300.7 312.7 327.7 346.9 366.4 385.4 396.4 407.8 419.2 428.6 442.8 445.5 444.6 445.8 445.1 445.3 454.1 466.3 466.4 466 463.3 460.7 459.7 459.4 457.1 453.8 452.2 453.9 460.4 461.3 458.9 457 455 452.5 448.2 442.8 436.7 431 424.3 417.5 409.5 404 398.1 393.5 390.2 386 379.9 372.1 364.7 356.7 348.3 336.3 318.9 306.3 296.2 288.2 282.2 274.8 272.3 262.3 248.7 237.4 223.8 211.5 203.1 205.6 206.2 204.6 203 197.6 191.8 183.6 173.3 158.5 141.5 130.9 120 115.1 115.2 114.9 114.4 110.4 125.3 133.8 131 115.1 149.5 178.8 192.9 192.5 190.8 186.7 175.8 170.4 166 161.3 156.4 149.2 141.4 134.6 137.7 139.3 139.6 142.3 147.1 159.7 180.2 196.6 213.3 233.2 245.1 257.6 273.2 284.7 294.9 303.5 312.5 318.1 326.3 330.1 332.6 340.3 352.1 362 371.5 384.1 394.6 400 403.6
284.9 283.4 283.9 288.2 291.6 296.4 300.2 299.9 301 307.9 316.9 326.2 337.6 342.1 340.3 337.3 334.8 333.6 331.2 327.4 322.6 316 311.7 311 308.2 296.6 287.9 281.9 279.6 277.9 275.4 275.1 274 271.9 267.1 258.5 249.8 245.7 238.9 245.7 255.8 265.4 274.8 285.4 304.1 318.8 331.5 343.5 347.4 337.6 331.1 319.3 293.3 267.6 249.2 244.9 252.5 268.8 291.8 299.2 314.8 328.3 335.7 342.3 341.9 335.9 329.5 308 295.7 283.7 282.4 299.8 307.6 323.1 338.8 354.2 375 388.8 398.9 411.1 422 438.8 441.3 440.8 440.4 440.3 441.5 449.1 461.5 464.7 466.7 464.6 462.1 459.8 459.1 456.7 452.7 451.6 454.3 462.6 460 456.8 454.8 451.5 447.2 442.7 436.7 430.3 425.1 418.9 412.7 405.4 399.2 394.8 392.9 385.6 378.7 373.1 365.4 358.1 350 341.9 333.5 323.1 310 297.9 286 278.1 268.8 267.4 259 246.1 233.4 217.8 209.5 203 199.6 202.2 200 198.7 193.5 187.6 180.8 171.3 157.3 144.1 131.2 120.5 115.4 115.2 115 114.6 110.7 118.3 124.9 117.1 133.4 163.4 189 193 195.5 195.4 193.2 194.2 183 178.3 180.1 178 170.6 162.6 151.1 147.6 146.1 145.9 147 149 160.4 177 192.8 208.6 232.8 244.4 252.9 272.7 285 295 302.7 311.3 317.4 321.5 329.3 334.1 344 358 364.7 378 389.1 395.9 399.6 402.7
291.6 293 294.9 299.2 305.8 313.9 317.7 320.1 325.4 333.7 341.3 347.6 352.9 354.2 354.8 351.4 347.2 342.3 338.7 333.3 329.4 324.5 315.3 305 296.6 290.6 285.5 281 276.7 274.4 274.1 272.5 271.3 268.4 263.4 253.3 247.5 244.7 239.2 248 256 264.9 280.1 297.6 314 327.3 338.4 346.1 344.6 341 330.7 321.5 292.1 269.2 254.6 246.7 257.9 277.4 303 311.4 317.8 323.1 332.8 343.1 349.5 353.1 348.4 339.2 318.9 303.6 294.5 299 310.1 320.7 333.8 346.7 361.8 380.1 391.6 400.5 412 426.9 433 432.7 434.5 435.5 437.7 446.5 457.2 460.9 462.8 461.6 459.6 457.3 456 453.8 451.8 453.6 458.2 460.2 456.3 452.4 448.4 444.6 439.8 434.9 430.4 424.7 419.6 414.2 408.6 403 398.5 394.2 393.9 389.1 381.1 371.1 357.5 349.5 342.1 334.5 326.6 318.8 309.6 301.6 286.5 275.2 264.6 256.6 251.6 239.4 227 212.2 204.7 201 194.2 198.7 198 194.5 191.6 186.2 177.8 167.2 154.2 141.1 131.7 120.7 115.4 115 115 114.6 111.1 116.3 116.1 136.7 160.2 186.5 189 193.4 197.3 199.4 197.4 197.6 192.9 186.7 185 185.4 186.2 176.4 162.8 157.6 157.3 153.2 154.5 159.8 158.5 172.2 187.7 202.4 227.6 242.9 250.9 266.7 284.3 293.5 299 304.4 309.4 316.5 328.5 338.3 348.4 362.8 369.9 383.1 392.7 396.2 399 401.7
307.3 308.2 309.7 312.6 320.7 327.9 332.6 338.1 345.4 351.5 357.5 362.1 364.8 364.3 363.4 361 355 347.2 339.2 332.2 324.4 317.8 304 294.7 289.8 285.6 280.9 276 273.5 272.1 269.9 267.6 266.3 262.8 256.2 248.3 245.2 243.1 239.8 249 257.2 268 283.2 298.9 317.1 330 339.2 347.9 349.9 347.1 334.8 319.7 295.1 268.7 253.5 248.8 261.6 282.3 302.8 312.9 323.6 328.7 337.4 347.7 357.5 371.3 377.6 367.7 350.9 323 312.3 305.4 307.3 322.4 329.8 342.5 353.8 369.4 381.4 392.6 403.1 416.9 422.5 424.4 427.9 430.9 436.1 445.7 457.1 461.3 463.3 462.8 461.5 457.9 453.8 451.5 451.9 452.1 454.7 452.1 450.4 446.8 442.3 437.3 432.5 430.5 426.7 421.6 415.6 410.2 404.6 402.7 400.5 400.3 396.3 393.1 386.7 379.9 365.9 350.4 343.2 334.2 323.1 310.2 300.9 295.7 285.9 279.1 265.6 256.5 248.4 233.1 217.1 210.1 201.6 198.5 194.7 194.3 194.5 190.8 187.1 183.4 175.1 164.7 152.1 141.4 130.4 118.9 115.2 114.8 114.5 112.8 111 121.7 131.4 145 170 187 190.3 195.9 201.3 201.2 203.4 201.2 204.1 193.9 190.2 191.3 189.2 188.5 174.7 168 166 160.6 159.9 166.5 170.4 172 185 197.3 214.3 238.7 249.5 257.9 272.9 285.1 291.7 297.6 305.1 318.6 329 339.8 352.7 365.5 375.6 385.9 392.9 396 397.4 399.4
323.9 324.8 325.8 328.7 334.4 338.8 344.2 350.8 357.7 364.5 370.1 372.7 375.1 372.4 366.8 360.8 355.9 347.3 336.2 326.4 317.7 304.5 295.4 290.4 285.7 280.5 269.4 268.1 267.1 266.7 264 260.8 259.4 254.8 249.3 245.8 244.3 241.7 241.7 248.3 258 272.9 288.9 302.2 316 331.4 343.7 351 354.4 349.8 341.4 322.5 294.9 270.6 254.1 251.6 265.2 284.4 306.2 315.2 327 337.6 344.2 350.5 355.2 366.2 380.6 389.4 379.3 359.8 336.6 328 328 333.7 344.2 350.3 357.1 368.2 384.8 393.4 401 407.7 414.7 418.3 422.9 428.2 434.1 449.7 455.6 459 459.4 459.5 458.6 457.2 455.1 451.3 451.9 453 451.6 449.2 447.7 444 438.8 433.7 428.8 425.3 424 421.6 421.3 416.8 411.4 406.3 403.3 399.4 396.4 392.1 386.4 379.9 377.9 366 346 333.7 322.4 313.1 301.6 288.6 278.7 273.1 262.8 255.9 249.5 233.3 218.4 205.6 198.3 194.1 192.5 193.7 182.8 183.6 183.2 180.5 175.4 162.4 152 140.5 128.1 118.8 115.2 114.8 114.3 110.8 118.4 130.7 134.8 142.6 158.5 185.2 200.1 210.7 213.6 214.6 212 212.2 208.1 210.2 197.2 192.9 193.1 191.9 188.8 185.9 178.1 170.8 166.6 172.9 177.6 183.8 186.3 198.4 207.6 225.3 244 250.8 257.3 273.7 286.1 294.2 304.6 321.2 331.4 342 358.5 372 378.5 388.7 391.3 393.6 396.1 398.5
336.4 338.9 343.3 342.4 345.6 348.7 355.6 364.2 371.1 378.3 382.7 383.8 382.4 380.4 372.6 362.4 351.5 341.2 329.9 318 304.3 296.8 292.3 287.2 282.5 269.5 273.7 268.8 260.1 258.8 257.4 255.5 252.6 250 248.2 246.2 244.9 241.7 242.6 248 259.9 277.9 294.1 307.4 316.6 330.3 342.3 352.4 358.9 354.4 346.9 325.7 297.1 274.3 258.3 253.4 267.9 289.7 304 312.9 324.6 338.7 350.7 356.8 357.5 364.2 377.8 388.4 396.5 392.4 373.3 361.6 354.3 358.4 369.8 384 390.9 386.8 396.5 408.8 412.7 413.3 413.4 415.7 421.9 426.7 438.9 447 449.8 450 450.8 451.4 450.7 450.7 450.8 453.2 451.9 454.9 454.7 455.8 454 451.9 447.1 444.1 437.1 434.3 430.7 425.7 418.5 413.5 408.1 404.2 399.1 394 390.1 388 384.3 380.1 377.9 373.2 357.4 339.7 319.3 310 302.1 289.6 278.2 272.4 269 259.2 248.1 234.6 214.6 200.8 190.2 185.3 183.3 184.9 182.2 177.6 171 161.9 160.9 158.2 151.1 138.7 125.3 116.5 114.8 114.2 113.7 110.7 124.2 131.5 137.1 142.7 158.2 196 213.9 216.3 217.8 219.1 215.9 216.7 214.2 214.8 212.5 206.1 206.6 198.1 195.6 194.1 193.9 183.5 172.8 179 184.9 189.8 197.3 204.3 208.8 217.8 235.1 244.8 253.8 267 284.5 294.9 306.2 321.9 332.7 344.6 363.1 374.3 383.8 386 389.2 392.9 395.1 396.2
348.9 349.7 353.3 356 358.1 360.6 366.2 370.8 376.3 379.4 382.1 382.8 380.1 375.2 370.2 362.9 349.8 333.7 320.8 308.7 298 292.5 287.8 284 275.4 281.1 279.9 276.5 268.9 257.3 254.7 253.2 251.4 249.5 248 246.3 243.7 243 244.9 251 261.6 280.5 296.5 309.4 320.6 331.1 340.6 348.5 355 356.2 348.7 328.8 301.7 280.3 262.9 254.6 265.7 286.6 301 309.9 323.2 336.3 345.5 356 366.2 369.1 379.4 389.5 395.3 402.2 398.3 390.6 393.8 397.6 403.1 408.6 410.6 404.6 402.9 410.8 419.6 418.4 414.8 416.7 421.6 425.3 437 441.2 442.6 442.4 447 450.4 452 451.2 453.6 457.8 456.5 458.6 458.7 456.7 454.3 450.2 446.3 444.4 438.4 433.1 427.6 424.2 418.9 413.2 407.3 401.2 392.1 386.3 382.7 379.9 379.5 377.8 376.5 373.1 366.6 347.9 331 310.6 297.7 289 280.9 273.7 268.9 263.6 249.9 239.4 225.2 203.3 195.1 189.1 190.1 193.1 192.8 191.3 184.4 176.4 150.9 151.2 146.4 136.3 127.5 118.5 113.6 113.8 111.9 110.5 130.8 133.6 138.4 148 181.1 214.3 223.9 225.8 217.6 215.9 216.1 219 221.6 218.5 217.3 214.8 207.9 209.6 199.8 201.6 200.6 201 182.4 182.8 195.1 199 206.2 212.5 216.5 217.6 225.8 240.2 252.1 266.8 284.3 299.8 309.1 322.7 333.8 348 364.2 372.6 380.8 384.2 387.8 391.2 392.7 393.9
359.3 360.1 360.9 362.8 365.6 369.1 372.1 373.4 375.4 378.2 378.1 375.3 371.6 366.7 361.8 354 344.9 329 311.5 301.7 293.5 289.1 283.1 284.8 285.2 285.5 287.1 285.3 281.4 270.1 254.2 252.4 250.6 248.9 247.4 245.8 243.3 246 248.9 255.8 267.2 282.7 296.2 308.7 321.3 334.7 344.6 350.2 353.8 357 349.8 333.3 306.7 283.6 267.6 259.2 261.6 278.6 294.9 304.8 319.4 333.2 343.9 353.1 362.2 375.3 383.6 387.1 392.3 398 400.9 403 406.1 411.3 415 416.3 417.7 418.4 407.8 412.7 417.8 418.3 416.4 417.8 423.5 426.7 430.1 437.3 439.2 445.8 456 459.4 458.5 461.5 459.1 458.7 456.5 457 455.2 452.6 450.1 446.8 442.8 438.5 432.4 427.2 422.6 419.1 417.9 415.2 414.1 412.1 402.1 395.9 388 382.7 378.4 373.1 370.9 367.4 362.6 353.4 341 326.2 303.6 294.8 287.7 277.9 265.9 260.4 250.4 236.6 223.4 213.3 203.8 199.8 197.2 199.8 201.1 198 190.6 178.2 158.3 137.9 134.9 135.8 126.2 118.9 113.3 113.7 110.5 121.6 133.8 133.3 139.3 160.4 194.9 220.2 226.5 228.9 218.6 216.7 217.6 228 230.3 227.7 220.2 219.2 215.6 212.6 211.1 206.6 208.9 211.1 205.6 190.8 200 208.4 212.8 219.2 224.5 225.6 230.8 237.3 251.7 268.3 287.9 302.2 310.8 324.6 335.9 346.9 359.6 373.6 378.9 382.7 386.1 389.1 390.3 391.5
368.1 368.1 368.4 368 370 371.5 372.1 370.6 371.2 372.7 372 368 363.8 359.8 352.4 344.9 336.1 323.4 309.2 296.3 290.1 285.1 288.5 290.2 299 301.3 299 297.4 291.6 279.3 257 252.1 250.2 248.8 247.9 245.6 246.1 249.6 255.7 260.5 273.5 285.1 297.7 308.4 323.6 337.3 348.2 353.7 354.1 356.3 352.4 336.1 314.2 291.2 273.2 265.3 261.3 271.2 287.2 300.2 314.5 327.3 337.4 347.5 356.9 372.2 384.3 390.3 398.7 402.3 401.9 404.3 408.9 410.1 411.5 412.9 413.8 411.5 411.5 415.4 415.5 414.6 414.5 415.5 420.4 425.9 435.8 451.1 452.5 452 455.8 458.6 460.1 460.1 459.9 459.4 460.3 454.9 452.8 449.6 448.2 447.2 443.7 442.5 437.5 433 426.8 426 420.1 416.3 415.4 416.3 410.5 401.1 395.4 388.3 383 377.4 372.7 366.5 362 355.2 344.6 331.2 318.6 306.9 296.7 286.1 271.5 262.5 250.3 238.9 229.2 216.9 210.5 208.5 209.4 212.7 211.6 208.7 198.9 182.5 173.3 156.2 137 123.3 119.4 116.5 112.9 112.8 110.4 133.6 135.1 133 138.7 159.7 196.4 222.6 229.6 231.8 219.7 223.2 229.4 221.3 236.8 234.3 232.7 222.7 223.9 224.1 223.2 224.5 216.5 218.3 217.3 207.1 208.2 216.6 220 226.8 234.1 235.3 235.1 239.5 252.5 270.1 295 304.4 311.8 323.1 333.7 351.5 363.2 375 377.1 380 383.2 387 387.9 388.9
374.5 374.6 371.8 369.8 367.8 368.7 366.6 365.3 364.8 366.4 366.6 363.4 358.3 352 344.7 336.8 328.4 317.7 308.7 300.1 290.9 292.3 295.1 302.1 307.1 309.5 311 307 296.2 277.7 254.4 250.7 249.3 248.1 246.2 246.3 249.3 253.6 259.4 266.3 279 290.8 306.9 317.9 329.3 339.2 348.1 355.6 359.7 354.7 352.2 340.2 321.4 299.6 281.5 274.3 267.1 268.2 280.8 294 308 321.2 331.2 341 353.4 372.3 383.9 392 399.6 405.3 407.8 413.5 419.2 419.8 411.5 411.5 411.5 411.5 411.5 412.7 416.3 414 414 414.6 418.6 425.2 444 451.5 451.3 450.3 452.8 453.8 457.7 462.4 464.4 465.3 463.1 458.6 457.4 457.4 452.4 449.8 447.5 445.1 439.2 430.6 427.8 425.8 420.9 416.6 417.2 421.5 417.1 409.2 400.8 396.5 390.7 388.6 385.9 379.1 367 355.8 346.9 333.2 319.9 311.8 301.3 289.5 278.4 267.1 256.3 250.4 242.2 231.4 227.8 225.2 227.3 229.4 223.9 218.2 212.9 200.8 181.4 175.4 152.5 129.9 123.7 115.6 113.6 110.4 114.5 134.3 133.7 133.4 141.3 159.9 190.5 217.8 231.2 223.4 222.3 233.1 238.3 240.6 238.7 244.1 236.4 238.7 230.6 236.5 238.3 235.2 231.2 222.3 221 220.5 217.1 227.5 232.3 235.3 245.7 245.4 238.5 243.1 256.3 273.7 300.4 306.7 311.3 326.9 340.1 354.5 367.1 375.8 375.6 377.3 381.3 384.2 385.2 386.1
373.6 371.2 369.1 366.6 363.9 362.9 359.6 358.2 359 359.8 359.2 357.5 351.7 344.9 337.9 330 320.9 313.4 307.2 298.2 297.5 300.5 307.4 320.1 318.6 310.8 310 308.2 295 271.1 252.7 250.2 248.7 247.8 250 252.6 253.5 259.5 265.2 273.8 290 306.5 320.2 328.9 336.5 343.1 349.7 355.9 360.9 353.6 349.6 342.5 327 305.3 291.3 286 278.9 270.6 283.5 290.1 299 312.2 324.3 334 349.5 365.6 377.6 386.3 394.2 401.9 406.6 411.5 417.7 420.3 418 416.1 411.5 411.5 411.5 411.5 414.5 413.7 413.8 415.4 423.9 430.7 443.5 449.3 448.3 448.6 447.6 456 462.9 468.8 467.9 466.3 464.4 460.6 460.9 460.2 456 450.1 449.3 445.2 437.5 431.5 430.7 430.3 425.1 419.4 420.2 423.1 419.9 414 407.4 401.5 396.5 390.3 388.2 384.2 377.8 362.6 347.8 335.2 322.6 312 301.3 291.2 279.7 271 265.1 261.5 256.6 248.2 245.7 243.4 239.9 233.6 226.6 219.1 215.2 202.7 180.5 172.6 148.3 129.1 125.8 123 112 110.2 122.6 132.2 132.1 135.1 161.9 168.6 179.1 198.9 213.9 226.6 233.4 243.4 247.1 253.4 241.1 247 245 244.7 240.5 242.7 245.3 245.2 249.5 231 227.1 225.7 229.9 228.3 235.3 240.6 243.3 240.8 239.4 245.6 264.6 285.5 303.1 309.2 317.1 331.3 348.9 358.5 371.4 374 374.7 376.4 378.5 380.2 381.9 383.3
368.8 366.2 363.1 360.4 357.2 354.2 351.3 350.7 351 351 348.5 347 342.3 338.4 331.6 324.3 317.8 311 303.3 302.7 304.7 305.3 312.7 321.2 325.9 322 311.7 305.4 288 265.2 252 250.2 249 251.7 256.3 261.5 270.7 279.4 286.3 292.6 307.8 325.4 334.9 339.4 344.7 349.1 353.6 355.4 358.5 354.3 347.1 340.6 330.3 312.1 299.8 297.4 290.9 273.9 288.5 299.2 306.8 316.5 320.4 332.1 347.4 361.3 371.5 380.3 388.9 398.6 403.5 407.3 410.7 415 415.9 417.7 418.6 411.5 411.5 412.7 414.8 414.8 414.1 428.4 439.1 439.5 446.3 448.8 448.5 448.1 449.3 457.2 465.7 469 469.5 467.9 466.1 464 464.9 461.3 456.5 452.6 452.7 449.3 442.7 438.5 435.5 434.4 430.6 426.8 422.4 421.6 419.6 417.4 414.1 406 400 392 388.3 383.9 378.2 369.9 354.6 341.9 330.4 316.5 306.1 298.3 291 283.8 274.9 275.2 276.1 271.7 264.5 252.4 244.7 235.8 225.3 216.7 211.9 200.4 177 167.9 144.5 128.8 125.3 120.4 110.1 113 118.7 131.5 132.2 140.1 169.7 189.6 195.9 208.3 224.6 235.5 241.5 247.8 254.3 256.6 253.1 252.7 255 257 252.6 253.7 247 248.6 251.7 254.8 244 235.9 237.8 233 232.8 236.5 237.5 239 239.9 256 283 298.1 308.4 314.6 324.1 341.4 348.7 361.8 370.5 371.5 372.5 374 376 377.7 378.9 380
364.7 362.1 360.5 357.8 354.1 349.5 348.5 347.4 342.7 341.4 338.7 335.1 333.1 329.8 326 321.3 315.8 307.2 308.5 308.9 309.7 312.1 320.2 328.1 329.5 323.3 317.3 302.8 282.9 259.8 251.9 251.1 252.6 257.6 269.7 277.8 288.2 299.4 307.4 314.8 329.1 339.5 345.7 349.4 351.8 352.3 354.3 355.9 355 352.7 345.5 339 331.8 318.2 303.3 300.3 296.9 281.3 294.2 303.4 315.6 329.7 340.9 345.8 350 361 368.5 378 392.3 402.5 408 412.7 416.9 419.2 417.1 418.3 417 412.8 416.7 416.2 415.8 421.3 424.7 434.9 436.5 441.3 452 454.4 454.6 455.1 456 458.5 466 469.4 471 469.7 466.5 466.6 469.5 465.8 461.7 456.8 457.3 457.2 452.3 448 441.9 436.8 434.3 430.3 425.5 422.5 422 420.9 419.1 415.1 408 399.6 393 388.7 382.6 373.6 363.9 349.1 338.1 326 316.3 309 302.8 299.7 295.7 291.8 290.2 281.1 266.3 255.9 243.2 232.6 221.7 213 208.4 196.4 173 161.6 142.9 128 124.1 117.7 109.6 113.8 116.2 131.3 131.9 146.4 179.3 193.5 202.7 209.8 226.9 239 245 251.3 262.5 264.9 262.8 253.9 258.5 259.5 257.1 254.8 249.7 254.1 256.2 258.9 260.3 251.9 244.5 242.6 241.2 238.5 242.6 248.1 255.5 279.7 293.7 306.8 315.7 322 335.6 346.8 356.2 367.4 368.4 369.5 370.6 371.7 373.5 374.2 375.2 376.5
366.3 365.9 364.6 362.2 359.1 354.2 346.8 346.1 339.8 333.6 330.8 328 325.6 323.2 322.3 316.4 311.4 311.8 313.1 315.7 318.7 321.1 330.3 334.4 333.6 324.4 315.9 302.3 275.4 255.9 252.1 253.1 256.1 266.9 279.8 289.5 299.2 312.2 320.9 330 340.3 349.7 354.6 357.8 359.8 358.4 355.1 352.9 351.2 350.1 344.6 338.9 332 321.4 306.6 300.5 298.5 281.5 299.9 309.2 321 331.6 346.1 355.8 365.1 370.2 377.7 386.7 394 402.2 408 413.3 418.6 422.1 422.5 423.6 419.3 421 430.5 433.6 431.5 428.9 434.8 447.3 452.1 453 454.5 454.9 454.8 458.9 461.3 463.6 466.3 469.2 471.5 472 468.7 467.8 469.4 466.4 462.6 458.2 455.2 455.5 451 448.6 443.6 441.6 442.6 438.2 434.4 429.9 424.4 423.8 422.2 418.4 413.7 406.4 397.1 391.3 384.5 376 368.1 361 342.7 332.3 322.7 317.5 310.2 305.5 300.1 294.4 289.4 281.2 269.1 258.5 244.5 233.7 223 210 205.8 194.4 171.6 154 135.5 127 123.6 116.9 109.4 114 115.2 131 132.7 154.7 184.4 203.1 207.4 211.6 223.5 242.4 250.8 261.6 269.4 273.6 268.5 258.9 259.8 262.5 267.7 257.8 255.3 270.5 269.3 263.6 266.5 267.3 267.6 259.1 257.4 255.4 256.6 264.5 276.5 292.2 300 314.4 323.9 333.9 343.3 351.7 362 365.6 366.8 367.8 368.7 369.7 370.9 371.5 371.7 372.6
373.1 374.8 375.3 373.3 371.9 369.6 361.8 355 350.2 344.2 336.9 331.8 328.5 324.2 320.2 314.8 311.7 316.5 317.6 320.1 324.7 327 331.3 335.1 337.1 327 315.2 301.5 272.4 255.4 253.2 253.7 262.2 277.2 289.6 297.5 308.5 319.6 329.4 338.9 347.8 355.1 358.7 362.1 361.2 361 356.3 351.2 347.4 347.1 342.8 337.7 331.6 322.5 312.3 303.2 300.1 290.6 302.6 313.9 322.5 332.4 344.9 358.9 369.7 377.3 383.3 391.4 397.8 402.4 406.8 411.2 416.6 423.9 425.9 427.1 427 429.9 440.9 445.5 444.2 438 440.6 457.8 463.7 458.4 456.7 455.1 458.7 463.1 465.5 467 467.6 469.5 470.5 468.1 466.4 463.4 462.5 460.3 458.2 455.9 455.1 453.8 450.4 448.5 448.2 446.8 443.5 440.7 437.4 435.1 427.5 420.9 418.4 415.1 411.2 409.1 399.9 390.9 384.2 377.1 369.1 363.4 349 336.7 325.6 317.5 311.5 305.7 300.9 297.1 292.3 286.3 275.8 263.9 251.1 238.8 226.5 214 204.2 191 169.7 147.9 131.7 125.7 122.3 117.6 109.4 113.5 117 131.6 135.8 163.1 193.3 205.8 209.7 215.4 222.1 246.4 259.4 268.4 280.1 279 274.1 270.9 263.9 267 271.8 265.7 262.4 273.1 276.8 278.5 270.7 271.1 274.1 276.4 279.7 281.7 283.4 287.1 289 297.3 306.9 319.5 331.8 339.8 349 358.9 363.2 363 364.2 365.2 366.2 367.2 368.4 368.4 368.8 368.8
381.4 384.3 384.2 383.6 383.7 380 375.3 370.5 363.3 357.1 349 340 334.1 328.8 324.4 317.3 320.7 322 322.7 323.3 328.5 332.5 332.9 334.4 334.8 328.8 314.4 298.3 271.9 256.8 254.6 258 269.9 285.9 296.6 304.9 314.7 325.9 334.8 345.6 356.9 361.3 363 361.3 360.5 359.5 355.4 350.2 344.8 342.9 340.5 336.1 332.5 325.5 317.9 309 302.6 296.7 302.6 315.8 324.9 334.3 345.8 359.4 371.8 379.3 386.3 395.8 401.8 408.2 413 414.6 421.5 428.3 431.2 432.7 433.8 435.7 442.2 447.1 446.8 441.1 446.2 464 465.8 462.4 458.4 456.8 460.3 465.1 468 468.7 469.1 466.8 464.4 462.2 460.4 461.3 462.9 461.7 462.2 459.5 457.7 454.6 452.3 450.4 447.3 445.1 442.6 440 438.9 438.7 434 427.5 420.2 414.7 416 413.9 406.8 395.7 382.3 374 368 361.7 354.8 343.5 333.2 322.3 315.4 311.1 308.5 305.3 301.4 294 285.6 276 260.6 248 234.7 219.7 202.7 189.2 167.4 145.6 128.8 125 122.5 116.8 109.4 111.8 118.6 131.7 142.1 170 197.1 210.1 213.6 218.6 224.7 241 260.9 276.9 283.8 285.8 282.5 283.8 278 270.7 274.1 276.3 269.9 273.3 278.5 282.7 282.4 275.4 277 278.9 281.4 286.2 290.7 297.1 301.8 308 314.4 325.4 337.8 344.4 355.3 358.2 360.5 361.2 361.8 362.7 363.7 364.7 365.2 365.3 365.3 365.1
386.6 388.6 388.7 389.2 388 386.5 382.3 377.5 372.2 367.5 360.7 355.1 347.7 339 333.2 327.1 325.3 327.2 327.9 328.6 332.4 336.1 338.2 338.4 334 329.7 315.4 296.6 272.6 256.3 255.6 259.9 272.4 286.4 298.1 308.4 319.4 331.9 341.2 351.9 361.1 368.3 368.4 363.1 359 356.6 354.6 349.2 343.8 340 337.5 333.8 334.9 329.2 321.5 313.8 305 296 301.5 313.9 327 336.8 352.5 363.8 373.6 382.5 389.1 401.2 410.4 413.4 414.3 418.8 426.7 431.9 436.2 439.1 436.6 436.3 438.8 443.5 445.5 443.4 450.1 460.5 458.6 456.3 455.9 454.9 458.2 463.9 464.7 463.9 461.3 458.8 456.7 458 459.8 461.1 461.9 460.4 458.9 457.2 453.1 450.3 447.6 446.5 443.6 442.6 440.5 440.7 439.2 436.1 435.9 430.9 426.2 415.9 414.3 412.3 407.3 396.4 386 376.7 370.4 363.6 356.6 346.2 339 332.7 325.4 319.9 317.5 313.2 308.8 301.8 291.6 280.3 270.4 262.2 243.7 225.2 211.7 184.7 165.2 146.3 127.8 123.3 121.6 116.4 112.2 110.3 125.8 131.8 147.7 173.3 200.7 214.1 217.3 222.4 224 235.2 266.9 277.6 284.5 290.3 293.8 297 298.1 284.3 283.1 282 284.4 286.4 282.1 285.3 290.4 288.1 286.9 286.2 291.8 297 302.1 307.3 311.4 318.6 326.7 331.6 344 351.3 355.4 358.1 358.5 359.1 359.3 360.3 360.8 361.1 361.2 361.4 361.4 361
392.3 394.1 395.5 395.3 392.3 387.3 384.1 381.9 378.4 374.1 368.7 363.3 357.6 351.8 343.9 336.5 332.4 333.4 334.8 335.4 334.2 337.9 339.5 341.2 336.4 328.4 316.1 296 273.7 256.7 257.2 261.7 275 288.3 299.7 310.3 325.3 337.7 347.3 356.3 364.1 369.8 372.1 365.1 358.7 354.5 352 348.9 343.3 338.5 334.7 331 333.5 328 318.5 308 301.7 302.9 300.1 313.1 328.9 343.2 356.3 365.6 375.2 385.3 390.9 398.4 406.2 413.2 419.2 423.2 427.9 433 435.1 438.7 440.9 436.7 436.5 438.6 439.2 443.5 452.1 454.5 452.9 449.8 450.2 452.4 455.9 455.4 456.2 456.8 453.8 451.2 453.6 456.8 456 456.7 456.6 454.2 453.2 451.8 447.5 444 441.7 440.5 441.9 442.3 440.1 439.6 438.5 435.2 431.9 427.2 422.4 417.6 411.8 407.7 405 397.1 390.9 382.3 376.7 370.5 364 358.4 351.3 344.2 336.1 328.8 324.8 319.4 313.9 304.2 294.2 281.1 269.6 263.4 246.3 225.5 223.9 188.9 167.8 146.7 128.5 121.8 120.8 115.8 109.1 110.6 130.7 132.2 146.4 178 203.4 209.7 219.1 223.8 226.5 235.6 266.6 280.9 287 292.5 298.1 303.4 308.1 301.7 297.6 288.7 286.8 288.9 292.6 295.4 291.3 292.3 295 298.5 301.1 307.5 310.1 316.9 324.5 331.7 336.4 341.3 348.9 350.1 354.5 355.3 356 356.5 356.8 357.4 357.8 358 357 357.4 356.8 355.9
398.5 400.1 401.6 401.4 398.8 391.2 386.9 384.2 381.6 378.9 373.2 367.8 362.5 354.7 348.2 341.4 338.3 339.4 341.6 339.8 338 338 341 341.9 336.5 326.5 317.1 296.2 275 257.6 258.6 263.4 278.7 289.7 300.4 312 323.2 337 350.8 363.1 370.8 373.1 371.7 364.8 359.3 353.3 348.2 346.1 341.6 337.7 332.8 328.1 326.9 322.2 314.8 307.7 312.2 308.4 305.4 313.8 330.2 342.5 355.1 363.6 371.7 378.2 384.6 391.1 398.9 405.6 411.5 417.2 423.2 428.4 431.2 434.6 439.1 438.2 436 436.1 436.2 442.2 449.3 449.3 447.3 442.5 444.2 446.6 447.2 447.4 448.3 449.5 448.3 450 452.8 454.1 451.5 452.7 453.1 450.3 449.1 444.2 439.7 436.6 435.8 438.9 441.6 438.9 437.8 437.3 434.1 430.6 426.1 422 418.2 414.3 410.4 405.5 399 395.6 390 388.7 383.1 374.9 368.4 363.3 358.3 353 347.2 339.8 331.3 324 313.7 304.4 293.7 283.3 268.4 262.3 250.5 227.6 226.5 192.4 168.6 150.1 126.4 120.9 118.5 114.8 109 121.4 131.1 132.4 151.3 181 203.5 208.3 220.4 224.7 229.7 235.7 261.4 282.3 286.3 293.7 301.1 306.5 311.7 313.4 309.6 303.3 292.4 291.6 295.3 297.6 299.1 296.5 302.7 306.2 307.8 316 326.1 333.3 336.5 342.7 346.2 349.3 349.3 349.8 350.8 351.9 353.2 353.7 354.2 354.8 355.2 354.2 353.1 352.9 352 350
400.7 402.7 402.8 401.2 398.9 394.6 392.8 390.4 384.1 378.1 374.4 370.5 365.8 360.4 353.9 343.4 343.5 344.7 345.1 344.4 341.2 340.3 342.8 343.3 335.8 326.3 317.6 297.7 276.6 258.5 259.8 265.9 283.2 294.2 302.3 315.5 330.5 340.9 351.5 360.7 369.9 378 370.6 364.6 358.8 352.4 346.4 342.9 339.9 335.9 331.2 326.5 322.1 320.1 310 316.1 317.3 315.4 312.9 310.5 326.6 340.2 352.6 363.4 369.3 374.5 378.9 384.6 392.3 398.8 405 413.6 419.2 425.2 430 433.7 438.4 439.7 436 436 436 438.6 443.1 443.4 439.2 435.5 437.7 438.6 439 439.4 442.4 445.6 446.3 445.8 448.6 450 447.8 445.6 444.7 442.1 439.6 435.9 432.9 431.5 432.9 436.9 436.2 433.2 432.4 430.3 427.4 424.2 420.3 416.6 412 408.5 405.2 401.7 396.6 390.3 386.7 384 380.3 375.6 369.9 365.1 359.2 354.1 349.2 343 334.4 326 313.8 302.1 294.9 281.8 269.1 261 248.1 230 218.8 189.5 169 153.6 129.9 119.8 117 112.2 109 129.1 132.1 132.6 153.6 181.6 203 208.7 220.7 228.2 232.4 236.7 245.7 267.1 283.6 296.4 303.9 309.6 315 319.2 315.2 313 307.5 295.4 295.4 297.7 300.8 304.2 310.6 319.9 324.5 326.8 333.3 337 340.8 344.4 345.7 346.2 346.9 346.9 347.6 348.2 349.7 351.1 351.6 352 351.7 350.6 349.3 347.8 346.1 343.9
405.3 409.9 410.3 409.6 404.9 399 396 393.3 389.9 385.1 376.8 369.2 365.9 362.5 356 345.3 348.7 349.9 349.3 347.4 345.3 345.9 347.8 344.5 337 325.9 315.8 293.4 276.8 261 261.8 269.7 285.7 296.9 305.8 316.3 329.4 342.9 355.6 365 372.8 374.2 368.5 363.5 356.9 350.7 344.7 340.3 338.2 334.1 329 324.9 322.3 314 315.7 319.2 322.1 321.4 320.7 319.9 324.4 336.3 348.6 359.1 365.4 372.3 377.1 384.1 391.9 398.8 404.9 411.2 419 424.3 428.4 433.1 437.9 442.3 438.1 435.9 438.4 441.2 440.4 438.2 433.5 428.6 429.4 429.7 431.6 437.6 440.1 441.8 440.4 439.2 441.5 443.1 440.7 437.8 435.7 433.4 429.6 431 429.6 428.2 427.7 431.5 432.2 427.9 425.6 423.1 420.3 417.7 414.2 409.9 406 403.2 399 395.4 392.6 387.9 381.9 377.5 374.1 370.2 365.9 361.1 356.4 351.6 345 340 332.6 322.8 311.5 301.5 293.5 283.1 271.3 259 245.7 228.9 213.2 186.5 167.3 154.7 133.4 123.6 117.5 109 116 130.3 132.4 133.1 148.7 179.9 200.4 209.3 215.4 223.9 233 239.8 247.5 268.1 283.2 297.1 306.6 312.3 317.6 321.6 321 315.5 314.7 305.1 307.5 312.9 313.9 318.6 321.9 327.3 329 332.1 335.3 338.8 342 342.5 343.1 343.5 343.8 343.9 344.6 345.4 346 347.6 348.8 348.4 348.1 346.5 344.3 342.5 340.1 337.3
410.8 413 413.7 411.5 407.7 402.6 397.9 393.5 388.4 383.9 381.9 372.2 364.2 360.7 352.3 351.1 353.6 354.8 353.9 351.7 349.6 347 347.5 344.3 336.8 326.1 312.1 292.1 272.8 262.6 263.7 271.6 288.6 299.2 308.2 318.5 332.1 345.6 357.5 366.3 371.3 369.5 366 361 354.6 347.8 341.1 336.3 332.3 331.7 327 320.7 316.5 318.5 321.9 326.5 326.7 324.9 328 329.1 325.7 333.1 342.8 352.6 359.2 366.3 373.3 381 389.8 397.8 403.8 409.2 416 421.4 424.9 429.4 434.4 439 437.1 434.1 435.2 443.8 443.2 441.8 433.1 423.4 422.7 424 426.4 432.8 433 432.6 432.2 433.1 433.4 433.9 433 429.9 430.2 428.1 424.8 424.3 422.4 421 419.2 423.4 424.7 421.6 418 416.5 414.3 411.3 407.8 404.3 399.7 396.2 392.2 388.5 385.8 382.9 379.4 375.9 371.4 366.3 360.4 354.5 350.9 346.6 341.5 336 329 320.6 311.1 303 293.9 283.5 272.5 258.5 246.8 231 216.1 185 166.3 156 133.9 124.9 115 109 121.6 131.4 131.6 133.5 139.6 179.5 192.9 204.2 215 221.6 229.3 241.5 248.1 261.8 276.3 297.9 309.3 313.2 318.8 322.2 320.9 314.6 315.3 314.3 318.7 320.2 322.2 324 325.3 327.3 330.6 336.1 338.3 339.7 340.1 339.8 340.1 340.9 340.9 341 341.3 342.8 342.4 344 345 345.7 343.8 341.2 339.4 337 334.2 330.7
413.6 414.2 412.7 410.5 406 401.5 398.9 394.1 388.4 382.4 377 375.7 368.7 360.3 354.6 356.1 357 358.4 356.9 355 352.1 347.9 346.4 344.9 335.7 325.3 311.2 292.5 271.4 264 264.8 276.3 292.7 304.8 313.5 325 338.1 350.9 362.4 368.6 367.6 365.5 363.2 358.1 351.9 349.5 342.8 337 334 331.9 327 320.4 321.3 327.6 329.3 330.4 329.8 330.4 337.5 335.3 335.5 336.8 341.3 348 355.1 360.9 367.6 376.3 384.9 393.6 401.6 406.8 412.6 418.8 421.9 425.5 430.3 433.8 433.2 429.7 429.2 434 435.3 434.3 434.7 424.2 422.2 421.4 423.9 426.6 427.4 427.5 427.9 427.7 426.9 428.4 427.7 425.2 426.7 424.3 420 418.2 415.4 413.8 412.3 413.9 415.6 413 410.7 410.2 407.9 404.9 402.5 398.7 394.7 390.7 386.5 382.4 379.2 376.9 374.3 374.1 373 367.1 360 351.8 348.3 343.4 340 334.8 327.9 320.1 310.5 300.2 291.2 281.8 272.3 259.7 246.9 229.9 214.7 187.9 168.6 158.9 135.1 124.8 109.9 110.6 123 130.8 131.3 133.1 140.3 179.7 192 204.2 212.3 221 227.8 238 249.3 257.7 270.7 293.7 300.4 312.5 318.7 321.1 318 313.6 314.1 316.5 319.1 319.8 321.1 322.8 324.4 329.8 333.8 336.7 337.9 337.4 337.2 337 336.5 338 337.6 337.6 338.7 339.6 339.6 339.6 340.7 340.6 339.1 335.6 333.2 329.6 328.3 329.3
417.4 417.4 414.7 410.2 404.5 400.6 398.3 394.8 389 382.2 376.7 373.6 369.6 361.3 361.7 360.2 361 361.2 359.7 357.5 353.8 350.6 348.1 343.3 335 326.7 309.6 288.4 269.8 265.3 268.4 281.8 300.4 312 319.4 327.2 339.6 351.8 363.7 370.3 369.8 364.5 361.6 357.3 354.4 353.5 347.5 339.4 333.4 329.4 326.3 321.8 322.9 327.8 332.3 333.3 338.4 336.3 341.5 342.8 343.2 344.2 347.7 352.3 355.9 361 367.4 371.7 379.8 388.3 398.8 404.7 410.4 413.4 416.7 420 424.6 428 427.5 425.1 422.5 426.2 425 424.8 423.6 419.2 418 418.2 418.3 419.7 420.6 422.3 422.6 422.4 420 423.2 422.1 419.9 420.1 418.1 415.6 412.7 409.5 407.9 406.1 404.1 406.2 403.3 402.9 402.8 400.7 399.1 397 394 390.2 387.1 383.1 378.5 375.1 372.5 371.5 371.7 371.2 365.6 359.5 354.1 349.2 346.2 342.6 337.3 330.9 320.9 311 300.9 291.6 281.4 271.8 261.4 249.3 232.9 217.2 188.6 171.1 160.3 135.7 124.7 108.8 115 124.7 130.5 130.4 132.1 142.7 171 190.3 207.3 213.5 223.1 229.4 234.9 245.5 257.3 267.3 291.9 287 294.9 313.7 319.2 320 313.3 312.9 315.9 318.3 319.1 321.2 321.1 325.1 332.3 334.5 336.5 336.5 335.2 334.4 333.9 333.7 334.3 334.2 334.6 335.8 336.6 335.3 334.3 333.8 333.9 332.2 330.6 327.2 323.5 329.5 331.9
417.5 417.1 413 409.8 406 400.5 398 392.7 389.1 381.8 375.9 370.9 366.7 365.7 365 363.1 363.3 364 362.4 359.5 355.5 353.3 351.5 342.6 334.9 327.3 313.2 286.5 269.7 266.7 272.9 287.3 306.1 317.7 326.4 333.4 344 355.1 363.5 369.6 371.6 369.8 364.7 360.5 357.4 357.2 355.4 347.3 336.6 330.4 327.1 324.4 324.6 329.3 334.1 337.1 341.2 341.8 342.8 346 346.8 349 352 356.6 362.4 366.4 371 375.3 381.2 387.7 396 402.6 406.2 410 413.1 414.8 419.1 424.6 423.3 420.8 416.6 417 416.1 413.2 413.1 410.9 413.3 414.3 412.9 412.6 413.6 414.7 414 414.6 414.1 413.7 412.1 410.2 410.1 408.7 407.5 405.3 402.9 400.8 399.4 397.6 396.2 395.5 395.6 395.7 394 391.9 391.4 389.4 386 384.7 380.2 376 373.5 371.1 369.1 368.2 366.3 362.7 359.2 355.5 350.5 346 342.3 337.2 330.1 320.8 311 300.9 291.2 280.8 270.6 261.5 251.5 239 218.1 195.5 175 154.5 136.5 125.7 108.8 116.4 125 128.9 129.2 132.7 143.8 167.1 185.3 206.1 214.1 224.3 232.8 236.6 238.6 259 265.6 274 279 288.7 305.5 314.7 307.1 312.8 312.3 313.5 315.3 316.8 323.4 326.1 327.4 331.3 333.5 333.9 333.7 332.6 331.9 332.1 330.5 331 330.8 331.7 332.9 333.6 332.8 329.5 327.3 326.9 325.8 323.9 320.6 321.7 326.3 326.9
420.8 420.5 417.1 410.9 404.6 401.6 393.3 389.3 385.8 379.3 374.1 371.8 371.3 368.6 366.1 363.7 363.8 364.3 363.5 361.2 357.5 353.2 351.4 344.1 335.9 326.6 311.1 285 270.9 268 275.7 290 309.1 322.3 331.3 339.3 345.7 356.9 365.2 369.5 372.1 371.3 368.1 364.1 362.4 360.8 360.4 357.7 345.6 334.7 330.1 328.2 326.8 327.4 330.8 336.1 339.5 343.1 344.4 347.5 351.7 354.2 357.5 364.1 370 376.5 378.6 381.6 384.9 391.1 397 402.8 410.9 418.4 416.6 414.7 418.2 423.3 423.4 416.3 414.5 408.9 406 402.3 401.9 407.3 410.7 410.8 408.9 406.8 406.6 407.1 407 407.4 406.5 404.9 403.2 401.9 400.3 399.1 397.2 396.9 395.5 394.9 394 392.2 390.4 389.7 389.4 388.5 387 387.2 386 384.1 382.2 380.5 378.2 375.4 371.9 366.9 365.5 363.7 361 357.6 353.6 350.6 346.4 343.1 339.8 335.8 330.6 320.7 310.5 300.4 292.4 282.3 271.9 262.4 252.4 241.4 227.2 202.3 179.4 153.6 136.3 120.7 108.6 116.7 124.3 128.7 129.1 135.2 142.3 158.9 179.7 200.4 215.7 224 236.6 241.9 238.1 251.2 263.3 270.8 278.7 281.7 287.1 292.3 303.1 309.7 310.5 311.2 312.5 314 318.6 322.8 327.1 328.4 330.4 330.4 330.3 330.2 329.7 328.6 328.3 327.7 327.5 328.9 330.3 329.7 328.3 325 321.7 320.2 318.3 317.4 314.3 320.1 321.9 323.1
420.8 419.7 416.2 411.7 406.6 401.2 396.9 388.9 383.3 379.8 377.7 376 374.8 372.5 368.6 364.7 363.5 362.5 364.2 361.2 357.5 353.1 347.9 342.1 334.9 324.4 307.9 284.3 271.6 269.7 277.8 292.9 312 322.9 334.3 345.3 352.2 361 367.5 371.1 372 372.6 370.1 368.5 367.3 364.8 365 363.3 358.1 343.1 334.3 331.7 330 331.9 331.9 327.5 338.2 343.2 346 348.2 351.7 355.3 364.2 371.6 379.4 384.3 388.7 391.8 393.8 396.5 399.4 406.2 414.4 419 418.2 416.4 418.5 422.3 422.7 415.3 411.4 405.4 399.9 394.2 393.6 401.6 407.5 409.4 408.7 404 400.4 400.7 402.9 404.9 403.5 400.8 398.7 395.9 394.2 391.1 388.7 388.7 390.3 390.6 390.6 389 387 385.6 384.8 383.4 382.8 381.9 380.5 379.8 378.9 377.1 375.3 373.2 369.4 365.7 361.3 357.9 356.6 352.7 349.2 344.2 342.4 340.8 340.8 340.4 335.7 323.5 313.1 306.4 297.4 285.5 274.3 263.7 251.9 238 222.8 202.7 177.1 153 135.7 121.1 108.4 115.6 122 126.7 133.3 133.9 141 156.2 174.4 194.4 213.8 225 237.7 237 236.8 247.4 260.3 269.7 273.7 288.7 293.5 295.9 302.5 308.6 309.3 309 310.1 312.6 315.4 316.6 322.5 324.7 326.8 327 327.1 327.1 326.7 325.4 329.7 333.8 332.5 330.8 336.2 332.6 322.8 319.6 316.1 312.9 310.6 310.6 311 315.4 318.6 319.8
421.8 419 415.5 409.8 405.3 400.3 394.9 390.3 387.2 384.2 382.4 380.2 378.2 376.2 373 370.3 367.7 365.6 363 357.5 352.3 355.5 349.4 341.7 334.2 326.3 301.7 280.8 273.2 271.8 279.7 295.7 312.9 327.9 338.7 346.6 353.4 363.2 369.9 373.3 373.7 374.2 372 370.9 369.9 368.4 368.8 367.6 362.6 354.3 341.6 335.1 333.4 333.6 336 334.7 333.3 341.5 344.8 347.2 350.5 355.5 362.6 369.9 378.3 385.3 391.5 394.4 397.1 400.3 402.8 406.5 411.8 414.3 413.3 412.1 414.6 416.7 416.6 412.9 407.9 401 395.5 389.4 389.4 395 406.6 416.3 416.3 410 402.1 395.3 398.6 401 401.6 400.6 398.5 394.5 390.7 387 385.2 384 385.6 386.8 387.4 387.3 385.2 381.1 380.7 380 378.9 376.6 375.9 375.6 375.2 374.6 372.9 371.5 369.4 365.6 362.3 356.6 353.2 347.1 347.7 342.6 334.8 335.1 336.2 337 335.9 331.2 323.2 315.1 305.1 293 281.3 267.6 254 239 218.2 195.2 172.5 150.9 135.6 123 108.4 115 118 125.1 129.7 133.7 139.6 156.6 169.2 185.7 205.4 216.6 219.1 229.6 237.1 246.8 259.4 267.2 272.9 293.3 299.7 299.4 300.9 307 306.9 307.3 307.2 310.4 312.6 315 320.6 322.2 323.4 324.3 324.4 323.9 323.3 324.6 335.4 335.3 334.7 334.8 336.5 335.4 324.1 315.3 310.3 306.3 303.4 303.5 306.9 310.9 314.9 316.2
424.5 422.5 419 413.5 407.1 401.5 397.8 395.3 392.1 389.2 386.5 383.8 382.4 379.1 376 375.4 374.9 370.9 365.3 364.4 361.4 358.7 354.7 344.5 335.6 326.2 303.5 283.7 275.8 273.4 281.2 298.2 314.5 327.2 339.7 351.7 355.4 364.3 372.2 375.2 376.6 375.4 374.3 373.6 372.3 372.2 372.2 370.5 366.4 360.8 353 341.7 337.9 336.1 337.5 337.8 335.8 339.3 340.3 346.5 349.9 355.4 364.3 371.2 379.4 385.7 390.3 394.3 395.9 398.1 398.9 402 404.8 406.9 406.3 406.2 407 407.4 406.7 406.9 403.4 399 394.1 387.5 386 391.6 403.8 415.1 414.6 411.7 405 395.4 393.6 396.2 397.1 397.9 396.5 394.3 391.9 387.9 384 381.2 382.5 385 387.4 388.8 387.7 384.5 380.9 375.4 374.4 372.8 371.5 371.5 372.6 373.5 372.9 371.6 369.4 366.4 363.5 359.4 355.7 353.6 350.3 344.4 337.6 329.7 329.2 329.3 327.2 322.7 319.9 314.9 309.3 300 287.4 273 256.3 240.1 222.4 202.2 178.7 155 134.6 125.2 108.4 113.7 117 125.5 129.7 133.6 140.5 156.1 167.5 182.5 195.1 202 212.8 230.4 241 250.5 260.3 262.9 271.1 290.1 303.9 297.9 299.4 304.3 304.5 304.7 303.7 305 309.3 312.7 318.1 318.9 319.8 320.7 321.3 320.6 320.1 324.3 332.2 335.1 336.1 336.2 339.7 340.4 329.7 323.2 310.4 301.7 300 299.4 299.3 304.4 307.8 309.7
425.9 423.8 421.1 416.5 410.5 405.8 404.3 403.3 399.6 396.9 393.8 391 387.2 383.8 379.2 378.3 377.1 372.8 373.1 370.5 365.7 363.4 357.4 351.2 339.2 326.1 305.9 287 276 275.8 283.8 298.1 311.9 322.3 334.9 347.5 356.6 363.1 370.7 376.8 379 380.1 377.5 376.3 375.7 375.5 374.1 372.2 370 367.7 362.2 351.8 344.3 341 340.1 339.5 336.7 342.1 341.6 343.8 349 354.4 363.3 370.4 381 388.3 393.5 398.2 399.9 400 399.5 397.1 397.4 398.2 397.7 398.4 399.9 399.4 398.7 398.8 396.2 393.8 389.4 384.6 381.9 389.2 399.1 407.9 409.8 407.6 403.2 398.8 390.2 389.1 390.6 392 393 393 391.9 388.6 385.2 382.2 380.3 383.4 387 389.8 390.1 387.9 384.3 378.2 372.4 368.5 368.3 369.1 370.4 372.2 374.2 373.9 372.1 369.7 365.3 360.4 357.6 355.6 351.7 346.8 338.8 331.8 327.2 320 314.3 308.1 304.4 298.4 290.4 285.9 276.9 265.9 255.1 241.6 222 203.5 181.3 152.3 134.3 125.9 108.3 109.5 115.7 123.7 129.6 133.6 140.7 158.6 171.7 185.8 192.5 200.4 212 228.6 241.2 251.3 259.7 263.4 274.3 285.8 299.5 296.6 298.6 300.8 302.9 303 300.8 301.9 303.1 309 315 315.9 316.2 317.1 317.4 317 315.2 326.2 332.2 340.6 338.2 335.8 341.9 344.3 337.3 330.8 319 303.7 297.7 296.7 296 298.4 304.9 313.2
426.3 423.7 421.3 419.5 417.2 412 411.1 409.9 406.8 403.8 399.9 394.6 391.8 387.2 382.5 381.3 379.1 377.4 376.4 374.3 369.6 369.8 363.1 353.5 342.3 328.5 313.7 293.8 279.6 278 285.5 297.8 308.8 318.5 330.5 342.7 354.5 363.5 369.7 375.9 381.3 383.1 382 379.6 378.8 378 377.3 376.8 376.2 373.8 369.6 361.3 351.7 344.8 343.1 341.2 335.7 342.2 346.7 344.8 348.4 354.9 362.7 370.6 379.3 385.9 391.8 397.4 401.8 402.2 404.7 400 396.8 392.1 391.8 392 392.4 391.2 390.2 390.6 389.6 386.7 383.9 379.6 378 384.1 393.2 401.2 401 400.9 398.6 395.6 391.3 386.8 384.4 386.8 388.4 389.3 390.5 389.4 386.2 383.3 380.1 380.3 384.1 387.6 390.7 390.8 387.3 382.3 375.3 370.8 366.9 366.8 369.1 371 373.1 375.3 375.9 374.5 371 364.9 358.6 356 354.5 350.7 343.9 336.8 329.8 326.1 323.3 319.5 312.9 307.6 302 293.3 281.6 269 250.3 233.3 217.1 198.9 176 149.9 136.9 127.2 122.7 108.4 112.8 121.5 127.7 135.7 141.6 161.4 175.1 189.2 196.2 199.4 212.1 227.2 241.1 250.7 257.9 262.2 273.4 283.5 288.6 293.7 296.1 298.6 301.3 302.1 299.3 301.4 301 304.1 311.5 312.7 313.4 313 311.7 313.4 310.8 324.6 335.1 337.4 334.4 336.3 344.9 348.4 346.2 343.2 329.6 314.8 300.7 296.6 296 296.4 302.8 308.3
424.8 423.7 421.7 420 419 416.8 416.9 414.7 411.5 408.8 404.5 397.9 394.4 388.8 386 384.2 381 380.1 379.4 376.8 376.1 375.3 371.2 356.7 346 331.5 315.3 300.2 282.2 280.2 287 299.9 309.4 318.1 327.2 339.3 351.2 361.7 371.5 375.9 380.9 385 386.1 384 381.9 382.7 382.5 382.5 381.6 378.6 376.6 370.7 361.8 350.8 346.7 342.5 337.2 343.5 348.2 352.6 352.7 356 363.6 370.8 378.9 384.6 389 393.8 397 399.5 400.4 401.2 400.3 393.9 387.1 385.9 385 383.5 382.8 383.8 385.6 384 378.4 374.9 372.1 379.9 386 390.9 392 393.1 392.8 393 390.7 386.6 383.1 381.3 383.4 385.9 387 386.7 386 384.1 380.8 377.7 379.9 383.3 386.5 387.7 386 382.3 378.3 373.2 367.6 362.2 367.4 369.6 371.8 374.2 376.3 377.7 376.2 371.4 365.5 358.8 353.8 351.6 347.2 340.8 333.7 330.6 327.8 323.4 318.6 310.1 301.9 293.9 285 273.5 255.3 237.1 221.7 202.3 178.9 154.4 137.2 128.1 122.6 111.3 108.1 117.2 128.3 135.5 144.2 163.9 178.4 191.5 199.5 201.6 211.8 225.2 240.6 250.5 256 261.2 272.4 288.9 290 293 295.9 298.3 302 304.1 299.1 300.1 300.3 301.5 306.3 308.5 309.6 309.1 307.7 307.9 307.6 319.5 333 333.1 333.3 340.4 342.6 344.4 344.5 343.9 342.1 329.9 314.8 296.3 296.3 295.9 297.6 299.2
427.9 426.3 425 423.5 422.6 421.7 420 417.1 414.1 410.8 406.4 400.7 397.6 393.1 389.3 386.4 385 384 382.3 380.7 381.8 379.9 376.2 364 351.5 337.1 319.2 304.4 295.4 283.2 287.7 298.7 308.4 316.2 325.4 335.7 347.5 357.7 367.1 375.6 379.6 383.8 386.9 388.9 388.9 386.5 387.4 387 386.6 386.1 384.5 379 372 361.1 350.5 345.2 340.6 345.1 349.9 355.6 358.5 360.3 364 369.2 377 381.9 386.9 391.7 395.4 397.8 396.8 398.8 399.4 398.8 393.1 384.6 379.8 377.2 375.7 377.1 377.5 377.2 374 370.7 368.3 373.3 376.3 380.4 383.4 384.9 387.3 389.2 390.3 388.4 383.3 379.9 379.2 381.2 382.2 382.8 384.1 383.8 381.8 379 375.5 377 379.7 381.6 382 379.1 375.9 372.4 368 363.1 363.4 365.4 367.1 369 370.9 372.7 374.3 374.9 369.8 363.9 357.2 352.2 347.5 343.5 339.4 337.3 334.4 328.9 323.2 315.1 304.8 295.3 286.6 275.2 257.5 238 220.5 201.3 181 157.9 136.5 128.1 123.3 119.6 107.8 114.9 130.8 136.1 149.3 168.2 183.3 194.6 207.3 207.5 209.4 219.4 235.8 250.1 247.5 258.8 274.1 289.5 291.1 292.5 295 300.6 304 304.1 297.3 297.5 298.5 299.5 302.9 305.1 305.4 304 302.5 301.8 300.3 315 326.9 334.8 336.5 337.3 338.2 343.5 344.3 343.7 343.7 338 328.6 310.6 298.8 296.1 296.5 297.9
428.3 429.4 427.4 424.7 423.6 423 422.4 418.5 414.5 411.3 408.1 404.4 400.2 395.4 390.8 388.4 389.4 386.3 386 384 385.2 385.4 380.6 368.8 355.9 344 330.1 313.4 301.3 290.8 285 295.8 304.8 314 323.8 334 344.1 353.7 361.6 371.6 379.1 381.6 386 390.9 393.2 394.4 391.8 392.4 392.3 392 391 385.5 380.1 370.8 357.7 349.6 343.5 345.8 353.9 360.1 362.8 364.7 367.6 370.1 372.4 376.6 382.2 387.2 390.1 393.4 393.2 396 397.5 396.6 395.4 394.7 386.6 379.7 375.5 370.9 370.7 371.5 370.6 367.4 364.2 366.8 369.5 370.9 373.4 376.6 381.3 386.2 385.8 384.8 382.8 379.9 376.6 375 377.1 378.6 380.1 382.1 381.6 380.1 376.4 372.2 372.5 374 375 373.7 370.4 367 364.1 360.7 352.9 359.3 359.7 358.9 362.2 361.6 362.7 366.8 370.2 366.9 360.7 355.2 350.7 348.2 346.1 345.3 341.6 334.5 327.9 318.8 309 299.9 292.3 280.3 261.2 240.8 218.5 200.9 183.1 159.9 137.6 128.6 122.2 117.3 107.6 113.3 131 138.1 153.4 173.9 189.8 201.3 214.5 215.9 218.9 217.6 227.2 235.7 240.7 253.3 272.4 288.2 290.9 292.3 293.9 303.7 305.2 302.5 296.8 293.2 295.4 297.2 299.9 301.5 300.9 298.9 297.8 296.3 296.6 313.3 322.5 334.3 334.1 335 338.7 339.5 341 341.3 340.7 338.6 327.2 314.4 302.7 295.5 295.1 296.7
429 429.2 428.1 425.7 423.6 423.2 421.2 418.8 414.7 412 409 405 400.1 397.5 392 394 392.4 389.5 389.8 391 389.6 387.5 382.2 371.9 359.8 347.1 338 324.2 310 297.7 290.3 287.9 301.6 309.5 320.4 329.5 339.1 347.1 358.1 363.1 372.4 380.8 384.2 390.9 395.3 398.3 397.1 396.8 395.1 395 395.9 392.2 386.9 377.9 366.1 355.5 347.7 345.2 352.2 363.5 365.8 367.7 372 376.8 379.3 379.8 380.9 384.4 388.4 389.8 392.1 397.1 401.5 398.8 397.5 393.8 390 387.8 383.2 375.8 370.1 366.3 366.6 364.6 360.7 361.8 363.1 364.1 364.2 369.1 374.9 378.2 378.4 377.8 378 377.8 375.5 373.4 372.4 375.2 377.3 379.7 380.8 380.2 378.4 374.1 369.8 367.7 368.1 367.2 364.3 361.1 357.4 354.5 348.4 350 350.5 350.7 350.5 351.8 353.9 357.3 362.2 363.6 361.4 358.6 354.9 351.9 351 350.4 348.7 341.5 331.7 321.9 311.6 302.4 294.4 282.3 264.6 243.1 220.1 200.4 180.3 155.6 140.7 130.4 123.4 116.2 107.7 116.2 133.5 139.4 156.7 183.1 192.3 207.7 217.6 221.8 222.4 220.4 223.5 230.6 236.6 248 266.1 280.4 289.2 287.7 292.3 299.3 302.3 301.1 293.2 288.4 292.2 294.1 297.2 298 296.3 294.6 291.5 289.2 295.3 309.3 316.9 329 328.6 332.2 333 333.2 336.9 337.7 337.1 335.6 322.9 314.5 305.8 297.5 294.4 294.4
428.7 428.3 428.1 426.3 424.8 424.8 420.9 417.8 414.7 411.6 409.3 406.1 403 400.1 399.1 398.9 397.6 395.7 394.7 395.8 393.6 390.2 384.9 372.8 363 352.9 343.8 334.1 319.3 305.4 297.5 289.6 299.1 308 321.1 332.1 342.1 349.4 357.3 367.3 376.6 382.9 383.7 389.6 395.9 400.4 401.4 399.6 398.8 397 398.8 399.3 393.4 383.1 372.1 362.6 354 350.1 350.6 351.9 362.8 367.7 377.6 383.4 387.5 389.7 390 390.6 392.8 393.4 394.7 395.7 398.8 400 400.1 397.4 393.7 386.7 382.6 380.5 376.4 368.5 362.9 360.4 358.6 358.4 357.7 357.5 358.7 362.9 366.4 368.9 369.5 369.8 371 371.6 372.6 372.4 368.4 372 375.6 378.6 380.1 380.2 379 376.8 372.4 366.9 362 360.9 358.4 354.9 351.3 346 342.4 339.6 341.6 342.9 342.8 343.9 345.1 347.1 349.6 354.2 355.3 355 353.7 353.4 352 350.9 349.8 346 335.3 325.3 314.7 305 295.5 284.3 268.7 248 224.9 199.9 177.6 159.1 142.5 130.9 122.6 114.2 107.8 123.7 133 142.4 160.4 184.9 195.8 211.4 221.5 223.8 224.5 220.8 222.2 228 231.2 244.5 259.6 270.7 271.3 275.3 285.9 291.1 293.6 296.8 289.6 284.2 287.1 289.3 292.1 293.4 291.4 288.4 284.7 280.9 291.5 300.7 306.5 320.3 319.8 325.9 326.9 325.7 333.3 334.6 333.7 330.9 316.8 311.6 306.5 299.6 294.1 293.2
430.4 427.1 424.8 424.3 423 423.4 420.8 417.1 414 411 411.6 409.3 405.1 399.2 402.8 401.9 400.9 400.6 400.4 399.8 396.5 392.9 387.7 375.5 364.7 355.3 347.1 341.5 327.3 310.1 298.3 292.1 298.8 309.2 320.6 330 341.1 349.3 356.5 364.9 374.5 384 388.3 389.7 393.7 400.5 402.4 401.6 401.1 399.4 399.8 402.6 400.4 389.6 378.3 369.3 361.7 359 357.6 357.4 363.8 371.4 377.3 380.8 388.1 393.6 395.7 397.9 397.4 399.3 400.5 398.8 397.8 398.6 399.5 398.7 395.3 392.6 388.8 381.9 376.9 370 365.3 360.6 358.8 356.2 354.7 356.6 354.3 355.6 356.5 358.8 359.6 362.4 364.2 365.8 367.7 368.7 364.9 373.1 376.9 378.6 380 380.4 379.6 377.5 375 370.7 365.1 360 354.4 348.8 343.6 333.4 332.1 327.3 332.7 334.9 334.1 333.6 336 335.1 338.1 342.9 346.7 346.5 346.1 347.4 348.4 347.7 347.9 346.3 338.7 325.3 313.7 306.3 296.8 287.5 273.5 252.5 229.5 205.8 179.7 160.6 143 130.4 118.6 110.8 107.9 127.3 134.2 149.6 166.4 186.1 196.8 212.3 217.3 218.3 224.9 223.8 220.8 221.7 228.7 238.8 250.8 263 264.6 274.2 277.1 286 284.5 284.6 282.6 278.9 280.7 283.4 285.8 287.6 285.1 281.5 277.4 274.5 284.6 290.7 296.9 305.5 312.2 322.6 323.7 323.1 328.2 330.1 328 321.1 309.9 307 304.3 301.4 295.9 294.9
431.3 428.7 425.2 422 418.8 418.3 417.2 415.5 413.2 413.2 412.4 408.8 402.5 404.8 404.8 404 404.5 404.8 404.4 401.8 397.7 392.4 387 378.8 366.5 358.2 350.5 343.1 333.8 315.6 302.5 297.9 302.1 312.2 322.5 332.5 339.9 348.7 356.4 364.7 372.3 381.7 388.8 393.1 393.7 397.9 400.9 402.1 403.1 402 399.6 401.8 400.6 394.8 383.7 375.2 371.6 370.2 369.1 368.4 368.2 377.8 383.5 388.7 391.5 395.6 399.6 401.6 401.4 404.6 405.4 404.7 404.9 404.3 403.5 401.2 399.1 394.4 391.3 385.7 381.2 373.1 365.7 363.8 359.2 356.3 353 350.6 351.5 352.5 348.2 348.4 350.6 352.3 356 357.8 360.2 357.7 363.8 370.8 377.8 380.4 381.6 381.7 380.9 378.4 376 372.6 368.4 363.4 357.8 353.5 347.5 339.3 330.2 318.6 320.8 324.3 323 323.9 326.2 328 330.1 333.6 337 336.3 336.9 336.2 336.7 338.3 340.2 341.6 340.6 326.1 313.9 306.2 298.2 287.8 276.9 255.3 231 204.8 183.1 161 144.2 130.3 115.5 107.8 116.6 126.6 136.1 154.3 170.9 185.9 194.4 205.1 207.4 216.9 224.1 226.1 221.8 220.7 225.7 229.5 244.1 254.5 260.5 265.3 271.2 267.2 270 274.6 272.3 270.2 274.5 277.7 281.4 281.8 277.4 273.3 268.9 266.2 276.3 281.4 288.9 296.3 307.5 315.8 317.9 317.3 320.7 317.1 310.7 305.9 306.9 305.5 301.3 291 298.6 299.7
431.3 428.2 424.9 421.1 418.1 413.6 413.2 413 413.7 413 409.4 406.4 406.5 407.7 407 406.4 407.9 408.3 407.2 402.3 397.9 391.1 384.9 380.6 366.8 359.3 352 342.2 333 319.2 306.5 300.5 307.8 313.8 323.5 335.7 345.1 351.5 357.3 364.5 371.8 381 388.5 395.9 400.3 397.9 400.4 402.7 404.6 405 401.4 399.1 397 394 386.7 381.1 379.5 378.2 378.7 378.1 376.5 381.1 386.1 393.3 399.3 402.2 402.2 405.2 406.2 408.4 410.5 410.1 410.3 409.1 407.9 405.4 401.1 395.8 392.1 387 382.5 376.3 374.2 369.1 363.4 358.9 354.9 351.5 348.9 349.1 346.8 343.4 341.3 342 345.8 348.7 349.7 350.5 357.2 364.3 372 380.8 384.9 384 382.5 380 377.5 374.1 370.1 366.4 362.2 357.3 352.6 345.2 335.1 325.1 314.2 310.7 314.6 316.7 317.8 319.9 320.2 322 325.2 324.2 324.5 326.9 326.9 327.5 329.8 332.1 335 332.1 319.3 305.3 295.1 287.5 277.1 262.3 238 210.1 183.5 163.7 146.3 128.2 112.6 107.4 119.3 126.2 136.1 155.6 173.6 184.4 191.8 200.4 202.8 213.1 223.5 225.7 224.9 224.4 224.2 225 233.1 244.9 255.3 256.2 261.5 260.6 261.6 260.7 262.4 264.2 269 273.1 276.7 274.9 269.8 265 261.5 260.7 266.4 272.7 281.8 291 299.7 308.4 305.6 301.9 300.6 298 300.1 301 303.7 301.7 291.7 297.4 300.6 303.7
431.4 427.9 424.6 421.7 415.9 413.1 411.5 410.9 411.7 408.8 406.6 408.6 410.3 411.2 410.9 410 412 410.3 407.3 402.8 397.5 390.3 381.7 378.9 367.5 359.6 352.2 341.9 329.9 320.7 307.9 306.2 314.4 321.8 329.6 336 343.7 352.9 360.7 366.5 374 381.2 388.8 397.3 403.2 404.8 402.6 404.8 406.2 407.2 404.7 399.7 397.5 392.8 390.1 389.1 387.4 385.7 386.1 385.6 385.2 385.3 391 398.2 405.6 410.8 412.9 412 411.2 412.7 414 414.5 415 413.6 411.2 408.5 404 400 396.9 394.3 389 383.1 383.4 375.8 368.9 361.4 356.4 352.3 347.6 343.4 343.4 340.2 336.8 335.6 336.7 339 338.1 347.7 352.3 359.7 366.7 374.7 383.7 385.8 383.9 381.6 379 375.4 371.7 368 364.1 360.7 357.2 351.5 343.6 332.7 320.5 307.4 300.2 306.4 308.5 308.9 308.5 310.2 313.1 314.1 313.2 315 315.8 316.1 318.2 319.3 324.7 326.4 320 308.1 298 288.6 278.5 263.2 239.1 211.6 186.4 167 149.3 132.7 110 107.7 118.5 125.3 133.2 156 174.4 182.5 191 197.2 204.1 212.8 219.9 221.7 224.3 224.9 226.3 222.7 224.5 234.4 248 251.3 251.2 251.8 253 253.6 254.3 260.6 266.7 270.9 270.9 266.3 261.6 257.9 257.4 257 260.9 265.7 270.7 283.5 292.3 298.3 297.4 298.3 295 294 294.3 296.5 298.6 294.6 283.8 296.7 300.9 306.9
432 430 425.9 421 416.7 413.9 411.7 410.9 410 409.3 410.7 413 413.1 413.5 412.1 410.3 411.8 410 405.9 401.5 396.4 386.2 377.8 373.6 368.1 355 348.4 339.6 325.4 317.4 308.2 312.1 322.8 330.7 335.7 342.1 350.1 357.7 364.5 369.6 377.6 384.9 392.6 399.2 403 406.9 406.2 406.2 407.5 408 406.9 401.8 399.3 398.1 394.7 393.9 395.6 395.2 392.3 392.6 390.7 388.8 395.2 401.8 407.6 412.6 416.4 418.7 418.3 417.5 418.2 417.9 418.5 417.7 414.4 411.6 407.6 403.9 400.7 400 397.8 394 390.3 383.5 374.3 364.8 358.3 353.6 347.7 343.8 338.8 333.1 332.4 332 329.6 330.1 337.3 343.4 347.5 354.8 360.6 368.5 375.7 382.7 384.2 381.8 379.3 376 373.1 369.4 366.1 362.8 359.9 355.8 350.1 342.9 331 317.4 303.7 293.7 299.7 299.6 299.6 301.2 301.4 303.4 302.8 302.8 303.6 305.9 308 309.3 313.2 314.9 318.2 310.6 299.8 289.3 278.9 264.8 244.7 218 190.5 170 152.8 132.1 108.7 108.8 117.9 123.9 130.6 151.6 170.7 176.2 190 195.9 203 207.5 207.3 212.5 222.6 224.6 224.9 223.8 218.3 225.7 237.1 245.2 244 241.4 242.5 242.1 248.6 257.2 263.1 265.8 262.8 258 254.1 253.2 253.1 253.4 255.5 260.7 262.6 273.7 281 285.8 290.1 297.4 292.9 290.8 290.2 292.7 289.7 285.7 287.4 294.9 299.2 305.7
432.4 430.7 427 422.4 418.3 415.2 412.8 411.3 411.9 412.4 412.7 414.1 416.3 415.5 413.5 411.4 408.5 406.8 404.6 400.5 393.7 382.2 374.6 368.5 362.1 353.5 340.6 331.5 321.6 311.7 312.6 317.9 327 336.3 343.4 350.8 358 364.1 371.2 376.9 382.4 388.2 395.9 401.9 405.7 407 408.3 406.4 408.5 407.5 406 404.3 402.6 402 400.3 399.7 401 402 401.5 399 397.4 394.5 399.7 406.1 412 416.5 419.3 420.5 421.6 423 422.8 422.2 422.8 421.5 417.9 414.6 411.9 408.7 405.5 402.9 401.3 399.8 398.7 394 384 371.5 359.9 350.6 343.9 339.7 335.9 331 325.2 327.2 326.4 329 333.4 337.1 342.1 348.8 354.5 362.2 369.1 373.5 380.1 380 378.8 376.4 373.4 370.4 367.4 364.4 361.8 359.1 355.1 348.9 340.3 329.2 314.5 299.6 286.4 285.5 286.3 287.7 289.3 292 294.1 293.7 295 295.9 297.3 299.1 301.7 303.7 305.8 311.1 299 288.2 278.9 266 250.3 222.7 195.2 173.9 151.8 136.4 108.5 109.2 116.3 125.2 129.3 147.9 164.3 173 184.3 193.4 197 202 202.9 205.9 207.1 218.1 220.1 222.1 222.2 215.3 224.6 232.4 232.1 230.7 227.8 234.9 248.8 255.1 260.4 258.5 254.6 251.6 249.9 250.3 250.1 250.2 253.4 257.7 260.8 265.6 269.5 271.9 277.1 285.4 288.2 288.6 288 285.4 282 282.2 291.2 294.2 298.3 303.9
431.3 428 426.6 423.2 419.8 414.8 413.3 414.6 415.4 415.6 415.3 413.7 414.5 414.7 413 412 406.7 402.8 401 399.2 391.3 378.9 370.7 363.4 354.1 345.7 334.6 325.6 320.4 316.8 319 322.6 331.1 337.6 344.4 357.1 366.6 372.4 375.9 382 390.2 398.2 401.2 406 408.5 407.6 407.2 406.8 407 408.5 407.8 408.3 406.8 405.5 403.9 403.9 405.1 406.9 407.1 405.7 404.5 401.7 403 409.7 414.2 418.1 420.9 421.2 421.3 423.7 425.9 428.4 427.3 426 422.8 418.3 414.3 411.3 407.7 404.7 401.8 400.7 403.4 399.7 392.8 383.8 367.9 352.9 345.3 340.7 335.5 331.1 326.8 322.3 323.3 325.3 330 333.1 336.9 342.6 348.6 354.6 360.5 365.8 372.2 374.8 375.2 375.2 374.1 371.3 368.5 366.3 363.6 360.7 358 353.5 347.5 338.2 326.4 311.7 295.8 286 280 274.7 277.8 283 285.5 286.3 287.5 287.9 288.7 288.5 290.1 291.5 294.2 300.2 299.4 288 279 266.8 252 231.4 199.9 173.9 152.1 136.6 111.7 107.6 114.5 122.7 128.5 140.9 160.4 175 181.6 184.9 194.2 197.1 201.7 201 201.6 205.3 207.2 217.8 219.4 217 216.9 222.4 222.1 215.4 226 241.4 248.3 253.1 252.7 251.9 249.7 247.4 248.5 248.1 248.1 248.7 252.1 256 260.1 263.4 265.8 267.1 270.8 277.5 284.9 287.9 286.7 282.8 273.2 286.8 291.4 294.6 297 299.5
432.2 428.9 425.2 423.4 417.9 415.6 417.7 417.9 416.8 417 415 412.9 412.5 413.8 414 410.3 405.4 401 397.7 395.2 388.3 377.1 367.6 359.2 351.2 340.5 332 326 319.3 325 324.3 328.4 337.8 346.3 349.4 355 366.6 375.8 382 386.4 393.3 400.9 407.8 411 413.1 412.2 407.9 406.6 405.9 408.3 408.1 411.2 411.1 409.5 407.8 407.5 408.1 409.3 411.9 411.8 410.2 406.2 405.6 408 412 416.3 419.3 419.5 421.3 423.1 424.7 426.5 427.2 426 424.4 421 416.4 412.8 409 404.9 402.5 401.4 400.8 400.4 395 386.3 375.7 362.9 354.3 345.5 339.3 333.9 329.5 324.7 319.7 320.4 327.2 329.8 332.3 335.7 340.7 345.7 351.4 356.9 361.8 367.2 369.9 372.7 373.3 372.5 370.1 368 365 361.7 358.4 355.8 350.4 344.3 334.9 325.1 309.5 294.8 283.8 279.1 272.2 272.2 277.4 279.6 280.9 280.8 280.4 278.8 280.3 282.1 284 288.7 293.6 291.2 281 269.7 255.3 237.3 204.1 174.7 150 135.8 118.4 107.5 113 121 124.9 138.4 157.6 168.3 179.4 186.2 188.6 196.4 198.8 197.9 198 199.9 197 196.7 199.7 200 208.3 213.9 211 206.2 219.9 233.7 239.9 245.7 248 246.2 245.2 245.4 246.4 245.7 246.2 247.2 251.1 257.2 261.4 264.9 267 268.4 275.4 283.3 285.5 284.9 283.3 279.4 277.8 285.4 291.2 296 295.1 294.7
431.3 427.5 424.9 421 419.6 420.4 419.3 421.2 418.5 417.8 415.3 412.4 411.7 411.9 411.7 407.3 403.4 398.6 393.8 390.6 385.1 376 364.8 355.7 345.1 338.7 327.7 322.1 328.8 329.3 330.6 335.6 342.8 350.7 358 363.8 369.8 373.2 380.5 388.1 396 400.7 406.2 411.8 415.3 416.8 410.7 408.3 406.3 405.7 407.1 411.4 413.7 414.1 412.8 411.7 413.9 415 414.6 415.3 414.3 411.9 410.4 410.3 412.3 414 415.8 417.8 420 422.3 423.9 424.8 425.1 424.4 422.7 421 417.2 415.5 411.8 407.3 401.4 399.9 401.7 397.2 393.2 387.6 378.5 369.6 362.7 353.8 346.9 339.4 332.2 327.4 322.3 317 319.6 323.8 325.7 328.5 332.5 336.8 342.5 347.5 352 356.3 361.3 364.4 370.4 371.7 371.4 369.6 366.5 363.2 359.8 356.2 351.7 347.4 341.6 332.1 321.5 306.6 292.2 282.7 277.8 270.8 267.9 272.4 274.5 275.8 275.2 269.4 271.5 274.3 272.7 276.4 280.9 284.2 281.6 271.9 259.4 243.9 209 177.1 151.5 133.4 123.9 107.4 111.7 119.3 122.2 133.5 150.4 164.5 175.7 183.7 186.9 191.6 193 196.8 194.8 192.5 191 187.3 187.4 188.4 198.3 204.4 198.5 201.9 211.2 224.3 231.3 236.8 238.2 240.4 244.1 244.4 243.9 243 243 246 251.1 259.4 264.3 265.8 268 270.5 275.2 278.9 280.4 279 278.3 268.2 280.8 285.1 290.7 293.1 292.7 290.5
434.7 429.5 426.1 422.9 423.9 422.4 424.8 424.5 421 418.8 415.7 412.7 410.9 410.9 408.1 404.8 400.1 396.3 390.6 385.6 383.1 373.8 359.1 343.8 339.1 338.4 333.7 330.9 333.4 333.9 335.7 343.8 352.1 357.6 361.5 368.8 376.4 380.9 379.7 385.8 395.6 402.5 405.2 409.3 413 415.4 412.7 408.9 406.4 405.5 405.9 411.6 414.3 415.5 416.6 417.6 421.6 419.6 418.8 416.3 416.4 418.3 416 416.1 415.5 415 416 418 420 421.6 422.4 423 423.9 422.9 420.9 417.7 414.4 411.7 408.7 406.3 402.7 399.6 398.8 397.5 394.5 387.9 382 371.3 369.2 362.6 356.3 349 342.8 334.6 329.8 325.9 317.2 312.5 320.3 321.6 325.6 328.7 334.1 338.4 343.4 347.5 352.7 356.2 362.7 370 370.8 370.6 368.6 365.3 361.8 357.7 353.6 349.7 344.1 337.6 329 317.2 304.7 292.6 281.4 275.7 264.3 260.3 264.3 268.4 270.7 267.8 261.7 263.9 262.4 264.3 268.8 272.2 276.3 269.1 257.8 245.9 216.8 182 154.9 134.4 123 107.2 107.3 114.1 119.9 129.3 142.3 156.7 168.6 180.1 184.2 188.3 187.8 193.6 191.1 188.3 186.2 180.7 177.5 184.4 188.7 187.1 192.2 203.7 206.6 216.8 225 229.1 230.1 236.2 242.8 241.6 240.5 240.2 241.5 247.2 253.1 260.4 264 267.6 271.1 272.5 273.1 274.6 275.8 273.2 267.6 271.9 278.9 283.4 289 289.3 288.5 287.6
436.9 431.4 427.5 426.6 425.6 425.3 424.7 425.2 422.5 419.2 415.9 411.4 408.7 408.4 406.2 402.1 397 392.9 388.7 383.8 378.9 371.5 358.9 347.6 353.5 347.7 342.4 338.3 338.9 342.5 346.8 353.4 359.8 365.8 367 371.7 380.3 383.9 383.1 385.4 392.4 400.9 405.4 406.2 408.6 413.5 414.6 410.4 407.8 405.5 405.5 409.2 412.8 415.3 416.3 417 421.4 420.8 417.6 415.8 416.4 417.2 417.2 418.2 420 418.8 418.7 419.1 421.8 425.8 426 425.5 423.9 421.7 419.7 416.8 412.5 407.1 404.4 402.7 401.2 400 398.3 394.4 391.3 390.6 386.4 382.4 381.2 378.4 373.1 367.8 359.2 352.7 342.2 334.6 326.6 319.8 310.6 310.7 315.9 323.1 326.7 330 333.2 338.5 343.3 348.2 352.8 364.2 369.6 369.5 368.3 367.3 363.1 360 355.1 350.7 346 340.7 333.6 324.4 315 304.6 292.8 279.7 273.4 267 263 251.7 258.5 265.9 262.6 255.1 254.1 252.1 255.4 260.3 265.3 262.2 253.1 244.6 223.5 187.7 157.8 135.5 122.5 111 107 113.1 116.4 124.3 134.4 150.2 158.7 174.6 181 183 185.7 186.3 186.4 184.2 182.8 174.8 177.2 180.4 178.2 180.3 199.3 207.8 210.1 215 222.2 226.8 228.9 237 239.8 237.7 236.5 237.5 241.9 248.8 254.2 259.9 265.5 269.9 273 272.5 272.8 273.3 273.9 269.5 257.1 274.4 278.3 282.5 288.1 285.5 283.5 283.2
437.3 432.4 430.4 429.3 427.9 427.4 425.9 425 422.9 418.6 414.8 409.6 405.6 406.2 404.4 400.3 395.2 390.1 386.1 380.9 371.3 361.4 364.7 357.4 358.1 358.3 356.4 352.5 352.2 350 354.8 366.4 371 370.5 374.8 373.3 377.8 383.3 385.7 385.3 390.5 397.9 404.9 405.5 406.4 413.5 414.6 411 406.7 405.5 405.9 407 410.8 412.3 414.3 415.5 419.4 419.2 416.3 414.3 415 415.7 416 416.6 418.6 418.4 419 420 422 423.9 425.7 426.9 425.8 423.5 421 417.8 413.4 408.4 402.5 399.2 399.1 399.7 399.7 396.7 394.7 391.8 387.6 385.8 385.5 384.3 381.7 377 373.2 367.6 361.2 350.3 342 333.1 321.6 310.6 307.3 313.9 317.8 321.4 324.9 329.7 333.9 339.3 344.4 354 364.6 366.5 367.6 366.7 365.2 361.7 356.5 351.4 346.7 341.7 336.5 328.9 321.4 312.4 303.3 293.3 283.2 275.7 270.8 265.5 250.8 251.2 258.5 256.1 247.1 243.6 243.8 244.6 250.7 251.8 249.7 242.7 220.6 190.7 161.5 137.9 125.8 113.4 106.8 112.4 115 120.6 129.2 142.6 153.3 164.6 175.7 177.8 180.8 180.9 181.5 178.6 177.6 172 173 168.8 171.6 189 201.4 208.9 215.1 226.1 232.6 231.7 231.5 236.7 236.1 234.7 235.2 240.2 245.1 252 255.6 260.5 266.4 272.3 273.5 272.7 271.9 271.6 269.5 267.6 257.3 272.1 278.9 284 287.5 283.3 280.3 279.2
435.5 433.9 431 430.9 430.3 428.8 426.6 425.1 421.6 417.3 413.9 408.4 403.9 402.3 402.3 400.1 395.6 391.5 384.7 371.7 377 379.2 370 370.8 367.3 366.6 365.4 363.1 359.5 358.8 360.2 368.8 373.2 374.6 374.2 376.6 376 382.6 386.3 387.6 388.1 394.6 403.1 403.5 404.3 410.3 413.1 408.2 404.3 404.4 407.6 407.6 410.1 410 410.5 413 416.3 416.6 414.1 411.9 412.8 414 414.9 416.8 418 417.7 417.5 417.2 419 421.4 423.3 424.1 424.9 424.4 423 420.2 416.4 408.2 402.5 399.2 393.6 396.4 396.1 394.6 393 390.9 388.8 387.1 386.8 385.6 384.8 384.2 381.8 375.8 369 361.2 354.9 346.3 333.5 321.2 309.2 305.8 308.3 315.2 317.3 320.5 325.3 330.7 336.6 342.1 352.8 365.5 368.3 366.5 364.7 363.2 358.8 353.5 348.4 342.1 337.5 332.6 325.9 319.7 311.1 301.3 291.2 283.1 276.6 270.1 263.6 243.4 243.3 250.4 245.9 237.5 228 231 238.1 237.7 243.7 241.4 212.9 189 162.4 145.3 131.1 119.2 106.6 107.6 112.7 118.6 124 131.6 146.2 152.5 167.2 171.9 173.8 176.4 174.9 173.6 174.6 169.4 162.6 167.1 185.7 201.4 211.4 216.1 218.2 222.9 228.1 228.5 231.9 232.9 232.7 233.9 237.3 241.9 248.8 254 257.1 260.9 265.9 272.6 273.2 271.8 268.2 266.4 264.5 259.9 259.7 274 284 285.3 286.2 281.4 278.7 276.4
428 429.3 430.8 430.9 429.8 428.5 427.5 425.4 422.2 416.9 414.1 409.7 404.2 400.8 399.8 398.1 395.5 389.5 388.2 384.7 383.4 382.2 378.2 380.1 380.7 376.6 373.7 370.9 367.1 363 363.7 368.6 373.9 376.1 374.5 374.2 374.3 380 386.2 387.2 386.4 391.2 400 404.8 402 406 410.4 406.4 402.4 400.9 407.9 410.8 409.4 409.2 409.8 410.7 412.9 412.6 412.6 409.3 409.8 411.2 413.3 415.5 416.8 414.7 414.9 414.4 416.1 418.8 421 422.3 422.3 421.6 421.6 420.1 414.8 406.4 400.4 396.9 393 390.1 391.5 391.2 390.6 389.5 388.2 388.2 389.8 389.7 388.8 388 385.7 381.5 377.5 371.3 364.5 356.6 345.5 332.9 317.3 305 304.3 305.2 310.4 313.7 317.4 323.6 329.3 334.8 341.3 355.5 362.2 365 363.7 362.2 360.2 356.6 351.5 345.8 338.4 333.5 328.7 323.1 316 307.5 298.5 289.9 282.8 275.4 268 257.1 238.7 233.1 233.7 230.6 221.9 209.3 211.4 219.2 230.5 234.7 215.8 190.3 166.8 154.6 145.3 124.7 111 106.5 112.1 112.9 121.1 126.8 133.4 141.4 151.1 163 164.9 169.3 168 166.9 166.1 160.3 172.1 186.9 200 210.7 213.6 217.8 216.4 218.3 223.9 226.2 227.8 229.5 231.5 235.6 238.9 245.3 252.8 255.8 257.8 261.6 265.2 268.7 270.2 267.1 263.7 261.9 260.1 248.6 265.3 276.1 280.5 280.9 280.8 278.2 277 275.3
420.2 422.2 428.2 431 428.6 429.8 428.9 427.5 423.8 418.8 414.3 410.2 405.1 399.9 397.3 395.7 395 393.7 391 386.7 388.7 386.2 385.2 388.7 388.7 386 381.6 377.8 374.7 369 371.5 368.9 372.5 377.4 374.3 372.5 371.2 376.2 384.7 386.8 384.6 387.8 396.2 403.8 401.8 401.7 404.2 402.9 400.3 398.4 403.8 410.4 411 408.4 407.8 409.1 409.6 409.8 410.4 407.1 405.8 407.3 409.1 411.7 411.9 411.9 412.4 411.9 413 415.6 418.4 419.6 420.8 421.5 419.3 416.3 410.2 404.2 398.1 395.8 392.6 388.8 387.1 386.8 386.8 387.6 387.2 388.1 389.3 391.4 391.3 392.3 392.2 389.4 384.2 377 372.9 365.8 357.2 342.4 327.4 311.4 302.4 303.1 303.9 308.4 312.5 316 321.7 326 329.4 344.1 356.2 359 359.8 359.9 359.1 357.2 354.2 348.9 343.3 336.5 329.4 325.2 319 313.4 307 297.3 289.4 282.3 274.5 266 252.6 242.2 236.7 230.8 222.6 216.1 196.7 201.3 209.7 222.4 216.8 197.9 175.9 160.1 152.7 129.8 116.1 106.5 110 112.4 115.8 122.7 127.4 133.9 136.9 147 152.8 157.6 156 149.6 160 172.3 180.7 187.2 202.2 212.3 212.2 214.7 215.1 215.4 218.2 221.7 223.2 228.7 232.4 237.2 242.4 249.6 254.7 256.6 258.9 261.1 263.8 264 263.9 261.2 256.7 253.9 247.7 254.6 265.5 271.4 273.7 276 274.9 274.7 275.4 274.4
414.1 414.9 422.3 425.8 424.7 428.8 431.3 429.5 425.4 421 414.3 410.1 405 401.2 397.8 398.1 398.1 396 392.7 391.9 392.4 393.5 391 394.2 395.4 393.3 388.9 384.3 380 375.3 375.9 375.1 370.6 374.3 372.7 373 368.7 372 380.9 385.6 382.9 384.4 392.5 400.6 401.2 397.9 399.7 401.4 399.8 397.3 400.7 406.2 409.7 407.7 406.6 406.9 406.6 407.6 408.2 405.8 402.4 403.1 404.7 406.3 406.6 407.2 407.7 407.8 409.2 411.9 413.9 415.7 419 419.3 419.6 414.4 404.4 400.8 396.5 394.4 393.1 390.1 386.4 384.3 384.7 385.3 385.8 386.3 387.8 389.4 391.1 392.8 393.7 390.6 387.7 381.8 375.1 369.4 361.7 348.6 336 318.5 304.3 299.2 299.9 302.1 306.4 305.7 314.4 319.4 322 330.5 340.9 350.6 354 355.3 356.4 356.3 355.6 351.6 346.9 341.7 333.3 328 323.3 317.6 310.7 304.3 296.4 288.4 280.4 271.7 264.2 256.1 247.2 239.1 232 221.7 205.8 190.3 195.4 210.7 216.4 202.5 181.7 164.9 154.8 137.6 121.5 110.5 106.5 111.9 112.2 117.9 123.9 127.8 130.4 133.3 140 147.3 144 158.6 167.3 176.1 177.6 184.3 196.1 205.4 208.5 212.1 214.4 215.1 217.6 219.3 223 228.5 232.8 240.2 247.3 253.1 255.7 257.6 259.7 260.4 260.2 259.3 256.5 251.6 247.7 243.3 246.1 254 262.7 266.9 267.5 268.5 269.5 270.4 270.4 273.3
407 411.3 420.1 421.5 422.7 425.4 429.7 430.9 427 422.1 416.4 410.3 404.5 400.9 400.8 401.3 399.4 397.8 396.3 395.9 398.2 399.5 396.9 394.7 396.7 397.7 393.3 389 382.7 377 375.8 377.8 372.6 369.5 369.5 370.7 369.6 367.2 375.2 383.6 383.2 382 389.3 396.1 399.6 395.3 397.2 402.5 400.2 397.5 398.2 403.8 407.3 408.2 408 405.4 404.4 405.3 406.9 404.8 399.8 399.6 401.6 402.7 402 401.8 402.9 404.5 406.4 408 411 414.3 417.5 420.2 421.3 416.7 406.2 398.6 394.7 392.7 391.9 391.4 386.5 383.1 382.7 383.3 383.8 384.8 386.4 387.7 388.9 390.1 389.4 388.7 387 383.1 378.1 370.4 363.7 353.6 339.8 327.6 310.4 304.9 302.9 298.1 296.6 298 306.9 313.2 316.6 318.8 324.9 333.1 339.6 344.5 348.2 350.5 352.6 351.8 348.9 345.9 337 333.4 327.8 321.2 314.9 309 301.4 292.8 285.5 278.3 271.9 266.9 262.1 253.3 239.2 228.3 213.5 195.9 182.8 199.6 207.5 196.8 182.1 166.7 157.7 143.3 129.9 115.7 106.5 106.6 111.5 112.5 121.3 123.9 127.6 131.7 139.3 143.5 144.4 152.2 155.5 163.9 172.9 180.2 187.8 198.6 205.8 209 212.1 216.5 217.9 219.7 225.6 231.6 237.9 243.7 251.2 253.6 257 258.5 258.6 257.2 255.5 252.2 247.6 239.5 233.9 229.7 243.9 250.2 255.7 257.5 258.3 260.5 263.9 268.1 267.8 271.2
403 406.3 414.7 419.4 421.6 424.6 427 429.8 430.2 424.3 418.2 412.4 408.3 403.3 403 402.1 401 400.3 399.4 398.5 401.2 404 402.1 399.1 399.1 399.6 397.2 392.4 385.3 377.6 375.9 376.8 375.2 367.6 367.8 368.3 370.9 365.5 369.5 377.1 381.6 377 383.5 391.5 396 393.5 394.5 399.6 401.9 397.3 396.8 403.6 407.4 409.4 409.1 406.9 404.2 403.7 403.6 402.6 397.8 396.4 398.4 399.9 399.3 399.1 400.1 402.2 404.3 406.5 409.2 412.7 414.7 416.5 417.3 417.2 408.2 399.8 393.6 391 390.2 389.2 385.6 382.2 382.3 381.3 382.1 382.7 384.1 385.3 386.6 388.2 387.9 387.1 385.1 382.1 377.8 371.5 363.7 355.2 344.5 330.7 320.4 311.6 306.6 304 300.9 295.7 298.7 306 310.7 313.7 316.7 320.4 325.9 331.8 336.8 339.7 343.5 346.6 347.7 347.4 340.8 339.4 333.5 327 320.8 313.3 306 299 291.7 284.9 279.1 274.9 270.6 261.7 250.8 235.2 222.4 204.8 185.5 185.5 192.3 189.5 180.5 168.4 159.3 146.7 135.6 126.1 112.8 107.2 107.2 111.5 119.2 121.4 124.3 130.8 131.7 134.2 137.3 143.4 145.8 154 168.1 177 178.6 189.5 200.2 198 210.7 214.2 218.5 221.9 229.1 236.6 243.1 248 252 253.6 257.6 257.3 254.6 251.7 248.2 243.2 236.3 225.7 219.1 234.6 238.9 243.1 246.4 250.2 253.4 257.1 262.5 265.8 265.3 266
400.5 401.4 412 417.9 421.7 425.2 430.7 430 430 424.8 421.1 416.7 413.4 408.3 405.8 403.5 402.6 402.2 401.8 401.5 403.4 406.3 405.7 403.2 402.4 401.4 399.8 393.6 386.3 378.9 374.9 374.8 374.3 367.1 360.8 364.2 369.5 364.4 364.6 368.6 374.5 371.8 378.3 386.4 393.1 391.4 392.8 397.4 400.5 397 396.1 403.1 408.7 410.3 410.9 410.5 408 406.5 403.2 399.8 396.7 394.7 395.1 396.5 396.9 396.9 397.7 399.4 401.2 403 406 410.1 415.1 414.4 414.7 414.4 411.6 404 396.7 391.6 389.7 387.4 386.6 382.5 381.4 377.8 381.1 382 381.7 383.2 384.8 386.3 387.4 388.1 388 384.9 379.6 375.8 367.6 357.1 347.5 336.3 325.6 315.8 309.5 306.8 304.6 300.9 292.9 302.8 308.7 312.1 313.1 315 317.7 321.9 325.3 332 336.4 340.1 343 343.7 344.1 342.7 340.1 335.2 330 322.3 314 306.4 299 292.8 287.8 282.8 277.7 270.9 261.6 248.7 231.1 212.7 195.3 182 177.6 176.5 174.5 168.8 163.9 155.9 147.4 135.7 129.9 117.8 107.2 107.2 109.5 118.5 123.3 128.6 132.9 132.1 131.1 131.5 137.8 146.1 160.8 166.8 167.4 179 175.7 195.9 205.5 211.1 219.3 225 231.4 233.4 238.4 249.6 252.5 253.9 256.9 255 250.7 246.7 239.9 235.1 228.3 213.3 218.6 223.9 230.4 236.8 238.7 243.4 249.9 256.8 258.3 259.2 258.6 262
396.5 399.3 408 415.1 419.5 424.1 428.7 429.7 427.4 424.3 420.7 420.7 416.4 413.1 409.3 406.1 404.6 404.1 403.5 402.8 404.1 406.8 410.2 410.2 405.7 404.5 402.7 396.4 387.7 380.4 376.7 372.2 371.5 365.9 360.2 358.9 366 367.1 360.3 362 366.7 367.3 373.5 382.5 388.9 390.4 391.9 396.1 399.1 396.8 395.5 401.6 406 408.5 410.5 413.7 412.3 410.1 407.1 401 396.8 393.9 391.9 393.1 394.5 394.1 393.9 395.2 397.2 399.2 402.4 406.6 411.3 414.2 413.5 412 411.8 409.5 403.4 395.2 390.9 390.3 388 384 381.2 378.1 377.3 378.7 379.1 381.1 382.6 384.1 387 386.8 386.4 385 384.1 379.3 372.8 361.5 350.1 340.8 330.3 320 312.6 308.9 306.1 303 291.1 300.5 308.3 310.5 311.7 312.8 313.6 314.2 317.2 318.6 325.4 330.5 334.3 337.2 339.5 340.9 340.9 339.3 336.4 331.3 324.4 316.6 307.8 300.9 295 290.7 286.2 280.1 269.8 259.8 244.1 226 207.1 191.9 180.6 170.4 165 168.5 169.1 161.2 152 147.3 146.4 142.9 121.4 110.4 106.7 106.3 115 125.5 129.8 130.2 129.9 129.1 129.5 133.6 143.9 152.3 156.9 163.2 163.2 179 190 199.5 212.1 215 216.2 220.2 225.6 235.4 245.7 250.5 253.4 251.8 246.3 242.9 233.9 228.4 217.8 206.6 213.6 217.5 223.5 229 233.8 237.8 244.1 249.4 251.6 252.6 255.2 259.7
395.3 398.7 405.5 412.2 416.3 419.9 424.4 428.7 425.1 422 419.3 419 415.6 413.7 411.7 409.1 407.6 407.4 404.7 404.1 404.9 407.3 411.2 411.3 410.4 406.9 404.4 397.7 391.3 383 379.9 374.8 370.1 364 359 357.5 359.3 362.1 357.9 355.9 359.6 362 370.3 378 386.4 388.1 390.3 394.2 397.4 398.5 393.6 400.7 406.9 407.8 409.2 412.6 414.4 412 410.2 405.3 399.4 394.3 391.1 389.7 391.6 391 390.5 391.3 392.4 394.4 398.2 402.6 407.1 410.6 412 411.4 410 409.9 407.3 399.7 393 390 387.6 384.9 383.3 380.1 377 372.6 375.7 377.9 380 381.4 382.6 382.9 382.7 383.2 383.1 381.2 375.7 368.6 357.3 345 334.3 324.5 316 311.3 307.4 304.2 295.5 296.9 305.8 311.7 314.3 313.1 312.1 311.4 312.4 312.6 317.2 321.2 324.6 328.8 333.3 335.8 337.9 339.2 338 335.1 330 323.4 316.6 309.8 302.2 298.2 294.7 289.7 280.2 269.4 257.5 244.2 223.7 207.2 193.6 181.1 172.2 160.8 162.4 163.8 155.3 151.2 148.5 146.5 143.8 139 120.4 106.1 105.7 106.1 117.2 127.2 127.8 127.3 126.5 126.2 127.8 131.6 137.8 140.4 145.2 157.6 171.5 185.2 193.8 197.3 200.9 208.1 211.8 218.1 227.8 239.6 246.9 246.4 240.7 233.5 229 221.7 211.1 200.4 204.8 210.9 216.4 222.2 228.4 233.8 237.3 241.9 244.5 250.7 254.7 258.8
393 396 399.5 408.2 411.7 415 421 424.2 422.5 419.8 417.7 417.3 415.7 413.8 412.1 411.4 410.2 410.7 409 405.2 405.7 410.8 411.3 411.5 411.1 407.7 405.1 398.9 390.2 385.1 382.6 375.8 369.8 364.8 359.9 357.6 356 355.6 356.1 353.1 354.3 356.7 364 372 381.5 382.8 386.6 391.9 394.1 396.6 392 398.2 404.9 408.1 407.6 410.8 412.1 412.8 411.6 408.5 404.7 399 394.6 390.1 387 387.4 385.6 387.7 388.1 389.2 393.7 398.6 403.1 407.6 410.8 411 409.6 407 406.9 403.3 396.9 393.6 390.4 385.6 384.4 382.4 379.8 375.3 369.2 373.7 375.9 374.8 375.5 377.3 377.9 378.7 380.9 380.5 376.5 371.5 363.3 351.4 339.5 329 319.8 314.7 309.3 304.7 297.5 292 301 307.3 312.8 314.9 312.7 310.8 310.6 310.8 311.9 315.6 319.2 322.3 326.2 331.3 333.7 335.1 335.7 336.1 333.8 330.3 326.8 321 313.1 307.1 303.3 297.8 294.3 283.5 270.1 256.1 241.8 223.2 206.3 191.4 180.9 172.3 161.9 152.9 154.2 152.8 149.1 146.5 143.7 138.8 133.5 126.5 115.1 105.6 105.6 108.5 120.4 124.8 124.2 124 125 125.2 126.3 126.2 129.5 137.6 152.9 170 175.2 181.4 188.2 195.7 198.6 201.1 208.2 217.4 228.8 238.1 236.7 228.7 222.5 215.6 208.2 199.9 195.1 202.2 209.7 216.2 221.5 228.1 228.7 237.7 244 248.7 254.3 258.5
