ncols 200
nrows 82
xllcorner 310000
yllcorner 253200
cellsize 50
329 324 319.4 318.9 319.6 320.9 315 309.8 303.1 303.4 310 314.9 319.8 317.6 312.2 313.4 320.5 322.3 328.9 307.9 295.2 284.8 279.7 275.8 271.7 268.3 261.6 256.4 250.1 244.4 238.4 229.5 227.9 227.9 227.7 228.1 229.7 233.1 236.2 238.8 241.9 244.7 247.8 251.3 258.9 270.3 283.4 292.6 292.4 291.6 288.3 284.6 279.9 276.2 271.2 269.5 270 271.4 271.7 271.4 271.1 268.6 261.1 260.5 260.8 260.8 263.1 266.4 268.6 270.9 275.6 278.5 280.9 280 281 281 281 281.1 278.9 271.3 268.9 280.1 292.8 297.8 299.7 301.2 301.5 305.7 310 310.9 311.1 312.2 313.6 316.6 316.4 318.1 320.7 322.4 319.8 322.4 329.2 335.6 355.9 365.4 368.2 370.6 370.4 371.3 373.4 374 376.1 380.3 389.3 398.7 402.9 410.9 417.7 422.8 430.9 442.4 453.4 457.8 461.1 462.5 466.6 471 471.6 471.9 471.9 473.2 476.1 479.9 481.4 481.8 481.3 478.6 474.7 472.5 474.7 472.5 469.1 470.2 467.9 464.7 461.6 458.5 456.9 458.8 460.8 467 465.7 461 455.7 451 447.8 442.9 438.5 433 431.2 426.1 427.3 424.4 423.8 423.3 423.2 424 426.2 428.5 421.8 419.5 418.5 417.4 415.8 413.3 412.8 414.1 412.9 412.3 411.2 411 411.5 411.2 408.8 406.4 399.2 388.8 371 351 339 327.6 314.5 300.1 299 299.9 291.4 298.4 314 325.2 338.6 349.6
330 325.3 320.7 318.2 313 312.8 308 306.2 301.9 302.6 308.8 317.3 320.9 318.8 318.2 322.3 331.6 336.2 330.8 309.9 295.1 286.2 281.4 277 271.9 266.1 259.8 253.7 248.5 243.1 236 229.1 227.8 227.7 227.8 229.4 231.8 235.9 240.3 243 246.7 250.9 254.3 256.5 267.7 277.8 293.9 300.2 292.9 289.4 285.3 278.9 273.1 269.4 266 265.3 268.1 271.1 271.3 271.3 271.1 270.8 263.8 259.2 260.7 261.2 264.5 268.2 271.6 275.5 279.7 280.9 280.4 280.7 280.9 281 281.1 281 277.9 270.9 268.9 285.4 294.4 300.9 301.1 301.4 302.3 305.1 306.6 306.1 306 303.8 303.7 304.8 306.4 307.2 312.8 314.7 312.8 316.3 322.3 331.1 343.2 362 366.9 372.2 375.4 377.4 380.7 382.5 385.6 390.8 398 407.1 412.9 423.8 433.5 437.7 448.4 454.1 461 464.3 468.3 468.2 469 469.6 470.8 470.5 469.1 468.6 470.6 473.8 477.5 478.9 477.2 473.6 471.1 474.8 479.6 479.6 472.6 471 471 468.6 465.7 462.5 460.8 460.9 463.4 468.4 469 465.9 462.8 459.4 453.1 450 447.9 444.2 441 439.2 437.6 436.3 437 434.6 433.7 432.1 431.2 430.3 425.9 421.7 420.9 419.3 417.5 415 412.3 412 411.4 411 410.6 411.4 412.2 411.9 409 402.1 392.2 379.3 360.1 325.5 314.8 305.4 304.6 314.1 317.3 317.1 304.3 289.4 296.3 310.1 321.3 331.7
329 323.5 318.4 314.1 311.2 306 301.2 301 299.1 301.5 307.9 317.4 321.1 322.4 323.9 332.1 341.2 339.5 320.8 305.4 294.8 288.8 281.7 275.7 269.4 262.1 256.4 250.6 245.2 240.1 233.2 228.9 227.9 227.7 228.1 230.4 234.7 239 244.5 247.7 251.2 256.6 261.9 267.5 277.8 288.7 292.5 293.3 289.1 283.3 279.3 271.9 268.2 261.4 260.5 260.5 264.6 268.1 268.4 267.9 268.6 266.5 263.5 259.4 258.9 259.7 265.5 270.2 278.8 280.7 281.1 279.4 278.9 278.9 279.7 279.3 280.2 281.1 278.9 276.7 274.5 280.4 288.9 296.4 297.9 298.5 299.6 298.8 297.5 296.7 294.9 294.9 294.9 297.8 300.2 301.1 304.2 306.3 307.5 311 317.1 325.9 336.7 351.7 361.1 370.4 378.2 381.8 385.6 389 392.7 400.3 406.6 413.4 422.8 436.9 444.1 449.2 453.9 458.7 462.1 464.2 470 470.3 469.7 466.3 462.1 461.5 462.7 464.2 466 467 468.2 469.6 468.5 468.5 469.7 472.1 475.7 476.2 471.9 471 470.9 469.9 468.9 466.3 465.5 466 467.4 469.5 469.3 467.7 464.8 461.3 457.6 455.1 452.7 449.8 446.5 445.3 443.9 441.6 440.7 437 436.6 434.4 430.7 428.9 426 423.1 421.3 420.5 418.7 415.9 412.2 410.4 410.5 410.7 411 411.4 411.8 408.9 403.7 394.8 382.3 366.3 343 316.3 310.3 321.3 331 334.7 333.2 328.6 318.7 307.3 288 288.9 293.6 306.3
325.7 320.1 315 310.1 305.5 303 299.6 295.2 294.7 299.9 308 314.3 320.2 326.4 332.8 339.4 344.8 337.7 314.3 300.7 292.5 286.9 281 272.9 265.5 258.8 253.1 247.3 241.6 237.2 233.7 229.1 224.8 224.2 226.5 232 238.9 244.8 251.4 254.4 258 261.7 265.4 275.1 290.7 294.7 291.4 289.9 283.6 277.4 270.2 266 260.6 256.9 254.4 258.8 260.7 262 260.5 260.4 263.2 262.4 261.5 260 258.9 261.2 267.7 275.9 281.5 283.2 279.5 278.8 278.5 278.6 278.9 280.1 281.6 281.7 282.2 281.9 280.1 279.5 280.1 281.8 288.7 290 289.1 289 289.6 289.2 289.3 290.7 289.9 297.8 299.3 299 299.1 300.7 303.7 309.3 313.2 321.5 333 345.3 355.2 365.3 376.4 386.9 391.7 397.3 403.5 411 415.1 420.2 429.2 443 448.3 452 453.6 457.9 459.9 459.5 466.4 469 465.1 460.8 457.5 454.3 454.7 457.6 460.6 461.5 460.8 461 463.5 464.7 465.9 468.4 469.1 470 470.2 470.1 471.1 471.4 471.1 470.2 469.4 469.2 469.1 471 470.4 467.5 464.1 460.6 458.5 456.5 454.5 452.1 449 447.8 445 441.1 439.4 438.8 435.7 433.1 431.4 429.5 426.5 423.1 421.7 421.2 419.3 416.1 412.3 409.5 410.9 411.2 411.4 411.3 411.4 406.5 398.7 389 375.9 354.6 315.4 310.9 336.6 347.7 353.9 359.6 354 345.9 333.2 320 304.4 289.1 288.9 285.2
325.4 318.4 311.3 305.5 300 299.7 295.5 290.9 290.2 296.5 307.2 315.2 321 332 341.5 348.7 346.9 326.8 309 300.1 290.1 283.4 277.1 268.6 261.4 254.9 248.9 243.3 239.5 235.9 232 227.7 220.4 221.8 224.9 230.7 242.8 253.3 256.4 262.1 266.4 268.2 273.5 291.6 299.8 298.6 292.4 284.9 276.6 271 263.3 260 255.9 250.2 252.6 258.6 260.2 259.2 258.9 258.9 261 261.1 261.1 258.9 258.9 263.9 270.4 276.9 280.7 280.5 278.1 278 277.9 278.9 281.1 283.6 284.7 285.5 287.2 286.3 285.3 282.6 280.6 279.3 279 281.6 282 282.8 288 288 289 294.5 301.3 308 312.7 309.5 307.1 308.8 307.9 308.4 310.7 318.9 329.8 341.6 354.5 363.2 374.1 388.1 397 405.8 412.1 417.1 420.1 421 425.1 434.4 443 446.6 449.9 451.1 451.5 453.3 456.1 459.5 459.7 456.1 452.5 448.5 446.4 448.3 451.8 455.2 456.1 456 458.3 460.1 461.2 463.4 465.6 466.8 468.8 469.4 471.1 471.8 474.3 475.3 474.1 471.1 471 470.8 470.7 466.9 462.5 459 456.6 454.7 453.2 451.4 450.3 447.3 444.1 440.9 438 435.7 433.7 431.1 429.7 427.2 424.5 423.2 421.2 419.8 416.6 413.9 411.1 409.6 411.2 411.6 411.7 411.2 409.5 404.6 396.7 385.9 373.1 351.7 308.9 336.9 355.2 364.4 371.5 375.7 374 367.7 352.4 335.2 314.2 296.9 291 286
321.5 313.8 307.7 302.8 298.8 294.2 290.4 289.6 288.9 302.2 316.5 327.2 330.2 338.7 349.5 351 338.8 314 302.2 294.8 287.5 278.2 271 263.8 256.7 250.7 245.7 240.6 238.7 234.6 230.6 225.8 220.4 219.8 222.5 230.3 248.7 258.9 261.3 270.6 276.7 280.9 289.9 302.4 302.3 299.5 293.3 284.2 274.7 266.7 257 251 249.8 250.4 261 261.1 261.1 260.7 258.9 259.6 261 261 261 258.9 258.9 262.3 270.7 274.2 277 279.2 279.2 278.8 281.3 283.7 287.2 289.5 291.7 292.6 293.8 293.6 292.5 289.2 288.3 284.5 281.1 279.7 281.6 286.2 291.9 300.4 313.2 322.9 325.6 322.6 325.1 321.7 317.5 318.5 312.4 311.6 310.5 317.2 326.9 339.6 353.2 369 376.5 383.5 396.9 406.6 412.4 417 418.5 418.1 420.2 423.4 431.6 438.8 443.5 443.6 444.5 446.6 447.7 448.3 449.4 448.9 446.2 442.4 438.4 440.3 444.6 448.6 451.5 451.7 454.8 456.8 458.7 460.2 461.5 464.1 467 469.3 470.4 472.7 477.2 479.2 478.1 474.2 471 469 467.6 461.6 458.7 455.4 452.5 451.5 451.2 449.9 447.8 444.9 441.6 438.8 436 432.4 430.3 428.3 424.9 422.5 421.3 419.7 418.6 413.9 411 409.8 407.6 402.9 408.5 410.1 409.4 406.5 404.2 400.6 392.4 382.3 369.9 338.6 329 356.6 365.6 374.1 380.9 385.1 382.6 369.1 355.7 341.9 320 302.9 296.1 291.2
315.1 308.3 305.5 301.1 296.5 292.7 289 284.9 291.5 305.4 322 332 336.2 341.8 349.9 345.8 323.3 304.7 294.6 286 280 273.5 266.1 259 252.3 247.4 244.7 239.9 235.9 232.8 228.8 223.9 221.1 219.6 221.4 235.5 247.2 256.8 268.2 276.9 283.6 293.1 308.9 310.6 304.6 298 290.8 281.3 272.3 264.4 256.6 250.9 248.9 254.1 260.7 261.2 261.4 261.1 259.4 261 261 261 260 258.9 258.9 259.4 264.2 269.4 271 280 281.8 284.5 288.4 292.6 297.6 299.3 301.7 302.7 305 304.3 301 298.8 295.9 293.9 289.2 289.6 294.3 300 308.5 320.1 330.3 338 341.6 339.7 338.3 334 329.7 326.2 321.5 320.5 318.9 319 326.5 338.2 352.9 370.7 380.9 386.6 393.5 401.4 409.5 411 412.1 413.8 413.8 414.9 422.6 432.2 435.7 436.8 438.1 440.9 444.4 443.2 442.2 441.5 438.4 437 432.9 434.3 438.3 442.7 446.4 449.9 451.4 453.9 457 458.6 460.1 462.4 465.5 468.3 469.5 471.6 476.9 480.2 479.4 477.1 472.7 470.4 464 457.4 452.5 450.5 448.2 446 445.6 444.7 443 441.4 439 436.8 434.1 431.5 429.1 425.4 422.1 419.3 418.8 413.5 412 409.9 407 405.1 402 399.6 404.4 406.9 406.1 402.5 398.3 393.6 386.2 377 361.9 327.6 332.8 365.4 373.8 382.5 389.5 392.6 389.2 380.8 365.5 346.4 325.6 313 302.5 297.7
312.4 304.6 301.7 299.2 295.1 291 286.4 280.3 284.5 298.7 321.4 331.3 337.9 342 346.2 327.3 309.1 296.9 287.2 280.1 273.2 267.2 261.4 255 248.9 245.2 242.9 240.6 234.6 230.2 229 223.8 220.6 219.1 222.6 236.8 252.4 267 279.9 285 293.3 308.1 312.6 309.1 302.2 295.7 288.2 279.3 269.7 261.8 254.6 249.1 244.2 254.1 259.3 260.7 261.3 261 261 261 260.8 260.2 257.9 256.7 258.7 259.8 267.3 272.9 279.7 282.8 285.6 290.1 297.9 304.2 309.2 312 313.2 314.4 316 319.1 322.4 322 315.2 309.7 309.8 314.4 323.6 333.2 334.9 338.2 345.7 352 351.4 351.2 347.9 343.9 338.7 334.6 331.2 327.8 323.8 319 329 337.1 345.9 361.1 376.3 384.4 390.1 396.3 401.3 405.8 409.2 411 409.5 409.6 415.7 422.3 427.6 429.4 429.9 433.3 438.8 434.9 432.2 432.7 432.9 430.9 429.4 431.6 436 440.4 443 446.7 449.4 452.5 455.7 459.1 460.9 460.9 464 466.3 468.1 470.9 474.2 477.3 478.3 477.1 473.8 470.6 463.2 456.8 450.4 445.4 441.7 439.7 439.4 439.4 438.7 436.6 434 432.2 431 429.6 426.4 422.9 420.5 419.3 415.8 411.1 410.3 406.8 403.9 401.1 400.1 400.1 403.4 404.1 403.3 400.4 395.3 388.3 379.8 369.1 340.6 319.8 343.8 372.5 379.3 387.7 394.5 400.1 398.3 394.2 382.2 360.8 336.4 321.5 306.8 302.4
310.6 303.3 298.8 295.6 292.6 288.8 282.2 276.6 273.7 291.4 316.7 327.3 331.3 341 338.2 315.2 300.1 290.2 281.4 274.8 269.6 262 256.5 251.7 246.7 243.7 241.9 239.7 234.6 230.1 230.4 228 219.9 219 226.1 240.9 258.4 273.9 284.2 289.4 301.6 309.7 307.1 301.9 297.1 292.2 285.6 275.5 266.3 256.9 251.2 244.4 238.8 247.7 253.3 256.4 258.5 259.3 260.8 260.9 260.5 257.6 252.8 251.6 257.9 264 271.1 276.4 282.6 289.8 291.5 298.7 309 316.9 320.8 322.1 325.9 330.5 333.1 336.4 341.1 342.8 342.2 334 345.4 349.5 354.5 356 356.6 357.4 359.9 361.4 360.9 361.2 357.7 351.5 346.4 342.1 339 335.9 332.2 324.2 331 336.1 341.9 346.8 357.7 376.9 385.5 393.3 399.1 404.8 409.4 411.2 409.3 408.6 409.6 412.9 417.1 419.9 419.1 419.6 422.4 421.5 420.5 424.5 424.6 420.5 429 430.4 434.2 439 439.9 444.4 449 451.9 454.4 458.3 459.9 460.7 462.1 463.9 465.6 468 470.5 472.8 475 475.1 473.2 470.1 462 456.1 450 444.2 439.3 437 435.4 435.3 433.9 431.4 429.1 427.7 426.6 425.5 422.4 418.6 416.5 415.4 412.6 410.3 408.3 405.6 402 400.8 401.1 392.1 399.3 401.9 401.6 398.1 392.7 385.7 375.9 359.4 323.6 342 369 376.9 385 390.5 396.9 401.2 403.9 402.6 397.6 379.1 352.7 333.2 317.6 310.1
310.6 303.3 297.6 293.6 290.4 285.4 279.7 272.9 269.7 283.2 307.5 314.9 329.7 344.6 325.9 307.2 294.6 283.7 275.3 269.9 264.4 256.9 251.6 248.4 244.7 241.9 240.5 238.8 237.5 234 230.9 228.2 218.8 219.6 230.8 245.8 261.7 276 283.8 290.3 302.7 303.3 299.5 295.7 291.5 285.5 277.5 269 261.6 252.5 246.7 241.8 238.8 240.1 245.4 249.3 252.1 257 259.9 260.2 258.6 254.2 250 249.8 257.1 265.4 272.6 279.8 286.3 293.8 297.5 306.6 319.4 325.8 330.4 333 335.7 340.1 344 347.2 350.2 354.4 356.9 357.7 363.6 369.8 371.4 371.7 370.5 370.7 371.3 370.8 367.9 368 364.2 357.8 352.7 348.8 345.9 340.5 338.5 330.7 329.5 333.6 338.3 343.4 350.6 364.8 380.4 396.2 402.7 407.8 410.8 411.2 409 408.6 408.6 408.9 409.2 410.3 411.1 410.6 409.6 409.6 410.4 416.2 418.6 423.1 430.4 430.8 433.5 438.3 440.4 443.2 444.8 448.2 453 459 460.9 461 459.7 461.1 462.7 463 465.6 468.8 470.8 471.7 470.3 465.8 460.3 454.3 448.5 443.3 439 432.8 431.2 431.3 430.6 427.6 424.1 423.5 421.4 420.9 417.3 411.9 410.5 410.8 410.5 407.7 406.3 404.8 402.1 400.8 401.1 391.5 392.9 398.3 397.5 393.2 388.1 380 367.5 343.7 325.7 363.2 374.9 382.5 389.4 395.2 401.2 405.8 408.7 412.9 418.8 403.6 378.6 350.9 330 319.1
313.2 304.7 297.4 292.6 287.2 281.3 277.3 271.2 268.8 274.6 299.8 307.5 326.1 331.4 310.8 296.9 287.7 277.3 271.6 267.5 259.2 251.7 247.6 245 242.2 239.7 239.8 238.8 239.4 236.3 230.6 220.9 218.5 225.6 236.7 246.9 259.7 269.7 281.8 293 299.3 297.3 291 289.3 282.5 276 269.6 263.1 255.9 249.1 244.3 240.5 238.6 238.5 238.8 243.7 250.4 254 259 258.4 254.9 251.9 249.2 249.3 254.6 263.6 276.7 285.5 291.1 298.4 304.1 314.3 325.5 332.6 338.2 342 343.8 346.3 351.2 354.4 357.6 362 366 365.7 370.6 375.8 378.4 380.6 381.3 380.6 378.5 375.8 373.8 371.8 368.6 363 358.4 355.9 352.2 348.1 341.3 334.9 330.7 331.5 336.2 341.1 348.3 360.9 377.4 396.5 407 412.8 413.8 410 409 408.9 410 409.6 408.4 404.7 404.7 403.8 402.4 400.9 402.8 405.8 409.9 418.7 426.7 431.1 434 436.4 438.1 438.9 439.7 444.4 449.7 454.8 458.1 458.7 456.7 457.2 457.5 456.8 458.3 461 464 465.3 464 461.2 456.6 450.7 444.5 439.1 434.7 431 429.1 426.7 427.2 424.9 420.8 419.2 415.9 413.1 413.2 410.8 404.2 406.9 407.5 406.2 405.5 403.7 400.7 400 400.1 390.8 390 392.4 391.3 387 382.4 375.1 358.3 328.3 358.3 373.6 383.7 389.9 396.1 402.8 410.3 417.7 421.2 422.5 418.2 408 391 359.6 344.5 337.3
313 304.5 296.3 290.1 284.5 279.2 275.1 270.9 268.2 281.3 295.6 306.6 319.2 316.8 300.3 288.9 280.4 272.5 266.1 261.4 254.6 247.8 244.8 243.2 240.2 237.3 238 239.9 240.2 234.5 228.9 219.2 218 239.7 248.3 254.1 262.5 272.9 284.6 293 295.1 291.7 284.3 278.6 273.9 268.4 263.4 258.3 251.5 245.6 242.4 239.1 238.4 238.2 240.9 247.9 250.5 254.5 259.1 258.1 253.5 251.4 249 249.6 256.1 268.1 278.8 288.8 297.3 304.4 312.2 322.5 333 339.8 345.1 348.4 350.3 352.1 356.5 360.6 363.7 367.9 371.8 373.1 375.6 378.9 384.3 388.5 390.1 389.6 387.7 383 380.9 379.8 376.6 371.4 366.8 362.6 358 350.9 345.3 341.6 336.1 335.4 337.8 341.7 348.5 358.6 374.7 397.6 413.1 419.3 418.1 413.3 409.7 411.1 412.1 411.8 408.1 401.5 400.3 399.7 398.7 398.8 399 400.1 405.3 410.1 418.1 424.1 429.5 434 435.3 432.8 436.9 441.4 446.1 449.5 452.1 453.1 451.5 450.9 449.9 451.2 452.4 455.1 457.1 457.5 457.2 453.8 449 442.3 436.1 432.6 428.6 426.2 420.4 420.8 423.5 422 418.7 409.6 410 402.5 403.8 397.6 398.8 401.2 403.2 403.3 403.3 402 400 394.4 393.3 391 383.5 384.8 385.1 382.3 377 368 343.8 340.8 371.6 382.8 391.6 398.2 404.9 413.7 421.9 428.2 427.7 425.5 420.8 410.8 399.6 385.6 372.2 358.3
313.1 304.1 295.8 287.2 281.6 276.7 274.1 270.1 260.8 280.2 295 303.8 320.7 308.8 293.9 282.8 275.4 270.6 263.4 256.3 249.9 245.5 242.3 241 236.9 232.4 234.7 236.6 235.3 230.3 224.7 218.5 220.1 243 250.9 254.2 262.2 275.7 284.6 290.9 291.4 288.2 280.4 273.9 268.9 263.9 258.4 252.3 247.3 242.8 239.3 238.3 238 238.5 244.1 251.4 257.1 260.3 260 257.6 251.4 249.1 248.9 252.1 261.1 272.8 282.5 292 301.7 311.8 322.5 331.6 340.4 346.8 351.6 354.9 357 357.9 361 367.2 370.7 373.6 376.6 377.7 379.3 384 389.3 394 397.1 398.2 397.5 393.9 392.2 389 383.8 378.4 375.3 369 362.3 357.3 353.4 347.1 342.2 340.7 340 343.7 350.3 357.9 372.8 394.4 412.5 421.8 421.1 418.2 416.8 417 417.6 415.7 410 401.7 399 398.5 398 398 397.9 398 398.4 401 410.9 414.4 422.5 428.6 429.2 429.1 434.2 438.6 441.4 445.6 448.7 450.9 448.3 447.2 446 446.1 446.7 447.5 449.5 450.1 450.4 447.7 440.7 432 427.1 423.6 419.4 417.8 412.4 416.3 417.1 416 411.7 407 398.4 393.5 389.9 386.3 390.6 393.8 397.4 399.6 400.8 397.8 395 390.9 387.2 386.8 381.1 380 377 375.8 370 349.1 333.3 362.5 383.2 392.2 400.5 408 416.1 423.9 431.1 434 431.9 428.7 424.7 423.4 424.1 416.6 399.9 383.6
314.8 303.6 292.9 284.8 279.1 275.4 272.5 269 258.4 278.5 288.9 304.9 313.2 299.5 287.6 278.5 271 266.4 259.8 254.1 247.3 243.4 239.8 236.3 231.5 229.4 230.8 232.1 229.9 225.2 220.9 218.1 228.2 244.8 247.2 252.2 264.3 276.7 280.8 284.1 285.6 281.6 276.1 270.6 264 259.1 252.7 247.3 242.7 239.2 237.2 237.3 238.1 238.8 246.9 252.8 260.4 265.6 262.2 258 251.6 249.6 249.1 254.4 267 279.1 287 297.6 307.6 318.9 329.5 339.4 346.4 352.3 356.7 360.4 362.5 364.4 368.3 372.2 376.1 379.8 381.4 382.5 385.8 389.3 393.8 398.1 402.3 405.7 405.2 402.9 399.5 395.4 391.3 385.7 381.8 376.9 371.8 369.4 364.3 357.2 349.9 347 344.5 346.4 351.8 359.5 372.2 389.3 411.4 424.1 428.9 428.1 425.9 423.9 423.3 418.8 412.1 405.3 399.8 398.5 397.9 397.9 397.9 397.9 397.9 398 399.2 405.4 409.9 414.6 418 423.4 431 434.9 438.4 442.9 446.5 447.2 444.2 443.4 442.2 441.3 440.9 440.6 443.3 444.8 445.2 443.3 433.8 423.1 417.7 414.5 411.5 408.2 407.6 407.5 407.5 407.2 404.6 398.7 392.5 387.2 383.2 378.8 381.8 386.2 390.6 393.2 393.7 391 389.5 387.1 382.7 380.4 380.7 380.2 375.2 359.3 354.1 333.9 358.6 382.9 393.3 399.9 407.9 415.7 424.3 431.6 434.8 436.5 436.5 432.8 429.3 433.8 444.4 449.1 441 417.7
316.7 303.4 292 282.6 278.1 273.8 271.6 267.6 258.9 265.5 273.8 281.9 290 289.6 281.8 275.2 267.3 260.1 256.2 251.7 246.1 240.8 237 233.2 231.1 227.9 228.4 226.8 225.5 221.1 219.5 218.5 230.7 239.2 242.3 248.2 263.7 271.8 274.2 275.4 276.3 275 270.6 264.6 258.6 254.3 249.2 243 239.9 236.5 234.5 235 238.5 241.8 250.3 257.2 261.1 261 256 253.5 252.1 251 246.4 256.6 274.8 284 292.3 303 314 324.7 334.9 343.3 350.3 355.4 358.6 362.7 366.6 370.8 373.2 376.9 380.5 383.5 386.2 388.9 391.2 393.4 397.1 403.5 409.2 412 409.9 410.6 405.1 399.9 395.5 392.4 388 384.1 379.8 380.4 378.9 371.5 362.5 357.7 354.3 355.7 359.6 363.7 374.2 388.4 409.1 424.3 433.7 439.3 435.3 433.6 430.7 421.8 414 408.5 403.2 399.7 398.2 398.2 397.9 397.9 397.9 394.9 394.4 397.8 400.6 406.2 411.1 416.2 425.5 430.2 434 439.7 443.1 443.9 441.2 440.8 439.8 437.1 435.3 436.3 438 439.1 439.2 439.9 425.9 414.4 409 407.2 404.5 400.4 400.3 399.4 398.8 398.9 397.4 390.3 386.2 382.2 377.9 375.2 375.7 381.2 385.6 387.6 387.3 385.8 384.9 382.8 379.8 376.2 375.2 376.5 376.8 366.5 341.2 356 381.2 395.1 402.4 408 413.5 419.7 429 434.4 436.4 439.3 439.6 438.8 441.5 447.4 452.8 456.5 451.2 447.6
315.7 304.3 293.8 284.6 278.3 274.3 269.1 263.6 258.8 258 260.2 262 273.7 281.2 274.2 269.9 265.3 258.5 253 247.6 242 237.7 234.1 231.6 230.3 225.4 221.9 221.4 219.8 219.1 218.6 218.7 227.7 233.1 236.9 246.6 260.8 265.3 267.1 268.6 270 267.7 263.4 260.1 252.4 249.5 245.8 239.9 236.8 234.1 232.4 233.5 237.7 246 252.6 255.5 257.7 256 249.2 244.9 242.7 239.5 244.7 267.2 278.4 289.4 300.5 309 320.4 331 338.9 346.8 352.4 356.8 360.7 363.7 367.7 370.5 376.2 380.5 383.2 386.2 389.2 391.3 393 395.7 398.9 405 412.3 416.9 415.2 411.2 407.8 403.5 401.2 398.2 394.4 390.7 390.4 391.3 392.5 386.3 376.7 375.6 369.9 369 371.9 376.1 381.2 393.6 410.4 426.9 439.5 446.3 445 442.7 437.5 425.7 416.5 411.5 407.7 403.7 399 398.2 397.9 397.9 397.9 393.9 393.9 395 397.4 400.3 405.5 408.6 416.5 425 425.5 431.1 435.4 438.3 437.2 435.1 434.1 433.6 430.9 429.1 431.2 431.4 427.9 423.1 414.7 406.7 402.7 401.9 399.7 392.6 390.2 390.3 390.2 391 390.1 385.6 381.4 378.8 373.9 370.3 370.2 379.1 382.2 383.3 382.7 381.8 381.3 379.2 376.7 374.1 369.8 372.2 372 356.7 342.4 374.3 391.5 404 409.2 413.7 418.9 424.8 431.9 436.5 441.3 445.4 446.7 450.6 457.9 463.2 464 459.9 457.1 453.5
315.5 305 298.4 293.1 285.4 278.2 269.6 265 260.7 259.2 256.7 251.9 263.2 264.7 262 259.7 259.3 255.3 249.6 244.1 239.1 234.6 231.6 229.3 225.2 220.2 219.1 218.3 217.2 216.8 217.3 219.5 224.1 230.4 235.3 244.3 254 257.7 261.2 262.1 261.2 259.1 255.9 252.1 246.9 244.4 242.1 237.4 233 231.9 230.9 229.8 237.6 246.9 250.8 252.5 250.9 247.5 239.2 238.8 240.5 245.5 260.4 271.2 280.8 293.9 306.9 315.5 325.5 336.4 342.4 347.8 352.7 356 359.9 363.6 367.9 371.9 377.5 381.3 383.9 387.9 390.8 391.7 393.5 396 398.6 402.3 411.2 416 415.2 411.5 408.9 409.5 409.5 405.6 400.3 397.4 401 407.8 407.3 401 395.4 391.6 386.4 384.4 384.7 389.2 394.4 402.5 415 433.3 447.8 456.5 454.9 448.2 440.9 431.9 423.1 418.1 411.8 408.1 401.3 398.4 398.2 398.3 397 394.8 395.7 397 398.2 398.4 398.8 399.3 401.4 409.2 415.1 420.4 424.2 426.3 428.7 426.8 426 427.3 427.9 427 420.5 422.2 420.8 415.6 407.9 401.1 396.6 395.1 392.1 387.1 384.8 382.7 381.4 381.8 381 379.4 375.4 371.9 369.9 368.2 369.1 374 378.3 380 378.3 377.2 376.9 375.2 373.1 371.1 370.1 361.2 360.6 340.1 369.8 388.5 403.1 412.4 415.9 419.4 423.8 429 435.8 440.8 447 455.3 461.7 464 466.3 468.4 469 467.5 464.6 460.9
311.8 303.9 301.4 298.1 292.2 284.4 276.9 270.9 266.2 262.7 260 250.6 249.8 248.9 250.3 251.2 250.3 248.7 244.9 240.5 235.9 232 229.5 225.8 220.5 220 218.7 218.6 216.3 215.4 215.6 218.6 222.4 229 234.6 240.5 247 251 255.2 256.4 255.1 253 249.9 246.1 241.4 239.6 237.4 235.2 231.2 230.7 229.4 231.9 240.1 245.9 249.1 250 245.1 239.1 238.5 240.2 246.6 257.1 267.9 274 281.9 293.7 307.5 319.7 330.2 336.8 341.3 346.2 350.6 354.6 357.8 360.3 365.7 370.7 375.7 378.7 381.3 385 389.1 391.3 390.7 393 396.4 399.8 409.6 412.5 412.3 411 407.8 408.2 408.3 407.7 403.1 404.2 407.3 417.9 420.3 412.1 408.8 406.5 402 399.9 400.2 402.9 403 414.5 421.9 443.2 458.2 465.7 462.2 458.5 452.9 444.1 434 426.5 421.7 416.2 410.7 407.3 406.7 404.4 402.3 402.4 405.2 406.7 410 407.3 401.2 401.2 399.5 399 398.1 405.7 411.4 414.9 418.2 419.5 416.9 417.2 418.2 418.3 416.9 413 411.2 408.6 402.7 397.8 393.2 389.9 383.8 380.7 378 377.5 375.5 375.6 371.9 370.1 369 367.9 366.2 366 366.5 369.2 371.7 373.1 373.4 372.9 372.3 371 367.5 365.1 363.2 350.4 341.6 369 385.5 399.8 415.3 422.2 422.6 423.8 427.8 437.4 443 448.8 457.3 466 470.4 475.3 481 484.5 481.2 476.9 472.4 467.7
308.9 302.4 301.8 300.3 297.9 291.1 283.7 276.5 271.3 267.7 263.2 258.2 253.2 250.7 247.5 240.4 241.1 239.1 239.2 234.4 230.2 229.2 228.5 226.5 221.9 219.1 221.2 221.4 219 216.1 215.6 217.7 221.3 228.5 233.8 239 242.9 246.8 250.7 250.8 249.8 248.1 244.9 240.8 237.2 235.1 232 230.7 229.6 228.8 231.4 239.3 240.6 241.5 242.6 242.3 240.3 238.5 238.5 244.2 253.7 261.7 270 274.1 280.1 291.8 305.7 317.5 327.5 333.8 339.3 343.3 347.7 351.3 353.8 356.3 362.2 368 372.8 376.2 378.8 381 383.7 385.5 387.7 389.4 393.9 399.9 405.3 407.9 406.7 405 402.3 402.3 401.3 402.1 404.5 408.3 412.8 423.9 424.9 420.5 420 419.3 418.1 415.3 415.9 422.3 427.6 436 442.7 456.9 467.2 472.9 471.9 469.6 464.3 457.1 450.8 433.6 433.9 426.9 424.3 420.9 419.8 417.5 413.6 411.8 415.7 418 419.9 420.7 417.2 411.7 406.9 405.6 400.6 392.2 388.8 401 406.3 409.9 408 410.5 410.8 410.6 411.1 407.4 401.2 396.8 394 390.5 388.4 385.3 380.9 376.8 373.8 371.9 371.1 369.7 367.7 365 364.6 364.2 364.4 364.3 363.6 364.9 366.6 367.7 370.7 371 369.2 362.7 359.8 357.1 349.1 349.4 369.4 382.2 395.1 409.5 422.8 421.4 421.5 427.2 435.9 444.8 451.5 459.4 470.2 478.2 485.1 492 497.5 495 490.4 486.5 482 477.9
308.7 305.6 306.4 309.9 306.9 300.3 293.1 283.9 277.3 272.3 267 262.8 259.2 253.8 248.6 240.8 238.8 238 237.7 235.7 236.2 235.7 232.6 229.7 225.6 226.7 229.3 228.9 223.2 219.4 217.1 218.9 221 227.4 232.2 236 240.4 243.6 246.5 246.9 246 243.6 241.1 237.5 233.3 230.7 228.8 228.8 228.8 231.9 239 240.8 240.3 239 238.2 238.3 236.3 238.2 240.8 249.3 259.2 268.5 271.1 275.7 280.8 289.7 301.3 314.9 324.3 328.9 332.9 337.8 340.9 345.2 348.6 351.9 357.3 363.9 370 373.6 375.2 376.2 378 379.4 382.1 385.6 391.3 396.7 399.3 400.9 398.5 396.9 391.7 391.2 394.4 401.1 405.4 411.4 419.6 426.5 430.2 430.2 432.6 433.6 434.1 432.9 435.4 440 447.3 458.5 465.7 469.9 475.8 478.7 480.2 477.4 473.9 470 464.9 450 450 441.8 436.5 432.8 431.3 430.8 425 419.8 423.4 426.7 426.7 424.8 422.3 418.3 414.2 413.6 411.3 409.6 402.8 394.6 389.5 395.1 398.2 402.2 404.6 405.3 406.4 404.1 401.1 391.7 387.6 385.5 383 380.4 377.8 373.3 370.2 368.5 367.5 366.4 365.1 363.3 362.1 362.4 362.8 362.4 360.3 361.3 361.5 361.4 364.6 369.4 365.8 359.1 349.5 348.4 355.2 366.9 379.4 392.2 405 416.4 423.3 419.5 422.8 430.9 443.9 456.1 463.5 472.8 483.8 491.9 499.1 504.5 503.1 501.3 500.8 494.6 491.8 490.8
310.7 309.8 308.9 314.9 315.8 309.4 303.1 295.8 286.2 277.3 270.7 264.8 258.7 253.9 248.7 242.6 238.5 237.7 237.9 238 244.9 247.6 241.5 236.2 229.6 233.9 234.7 231.7 225.9 220.7 218.8 218.8 220.5 225.8 229.8 233.5 238.1 239.8 241.8 242.2 241.7 240.3 238.9 236.4 230.6 228.8 228.3 228 228.7 234.5 240.7 240.9 240.5 238.7 235.8 234.7 231.4 235.9 243.3 252.9 263.4 271 271 273.1 280.9 286.9 296.1 305.9 313.6 320.8 326 331.1 336.6 340.6 344.4 348.3 354.1 360.6 366.4 370.3 371.3 371.5 372.5 374 376.1 380.8 386.4 390.5 393.2 391.3 388.8 384.2 379.6 381.6 391.8 400.5 406.4 418.6 428.4 435.6 436.8 440.9 447.6 448.2 448.2 449 452.2 457.3 465.9 473.2 478.7 481.3 483.7 484.4 484.6 484.3 481.5 479 474.9 469.9 464.2 459 453.2 447.4 444 443.1 439.4 433.6 433.7 433.2 430.5 427 423.4 423.5 422.3 418.4 415.4 412 411.2 405.6 400.9 393 389 389 394.3 399.6 402.4 400 397.1 390.1 385.4 381.3 378.9 376.4 373.8 370.2 368.8 366.5 365.4 364.5 363.4 363.2 361.8 360.8 360.7 361.5 360.9 359.5 359 356.1 354.3 350.5 350.4 348.2 350.8 359.7 367.2 371.9 383.9 396.1 402.9 409.7 412.1 420.2 430.2 441.2 454.7 464.5 472.6 481.3 492.8 503.8 510.5 510.7 507.7 506.1 506.1 502.6 500.5 499.2
310.3 310.8 310.8 318 319.3 313.9 309.5 307.3 297.4 285.5 276.6 267 261 257.2 252.4 244.6 238 237.7 237.9 240.2 249.6 250.5 249.2 242.5 239.5 241 241.1 236.6 229.6 224.6 219.2 218.8 220.2 223.7 228.1 231.8 236.9 240.8 240.4 239.2 239.2 239.9 239.9 239.8 233.7 229.3 228.6 228.8 228.8 232.4 240.4 240.5 239 236.6 234.2 231.9 229.6 234.1 242.6 251.5 263.3 271.2 265.4 272.7 280.5 286.5 292.8 300.4 308.4 314.9 323.1 328.6 333.7 337.9 342.2 346 351.7 356.1 361.3 364.6 366.2 366.4 366.9 366.8 368.5 371.2 377.6 379.4 378 373.9 376.4 372.9 370 377.3 391.8 400.1 409.6 427.2 438.7 445.7 446.1 448.5 458 460.5 460.5 461.1 463.3 468 474.9 481.2 486 488.6 489.1 490.5 491.6 491.4 490.3 488 481.3 481.8 477.8 473.1 468.2 463.9 458.3 454.6 452.6 445.9 443.1 438.1 434.1 430.9 428.9 429.4 429.8 420.5 414.9 411.7 409.1 403.5 400 397.5 391.2 387.6 382.9 387.4 391.3 392.2 389.5 386.3 383.3 380.8 376.2 372.5 370.1 371 368.9 366.8 363.9 363.1 361.8 360.8 361.2 359.9 359.1 358.9 359.4 359 357.4 349.8 352.9 357.1 356.8 358.5 364.5 370.8 376.6 380.5 390.4 396.6 404.8 412.4 418.3 425.2 438 449.9 459.8 467.5 476.8 487.7 501.1 511.6 513.5 511.5 509.8 509.9 512.2 509.4 507.1 505.3
304.7 308.8 310.2 314.4 318.5 317.7 318.7 317.5 307.2 298.4 292.3 290 279.4 272.1 267.1 258.1 243.9 238.3 238.6 242.5 250.3 254.1 254.4 248.3 242.8 241.1 241.1 239.5 231.3 224 218.9 218.7 219.1 222 227.4 230.7 235.8 238 237.8 238.5 240.4 241.9 241.5 241 236.2 230.6 228.8 228.8 228.8 229 233.7 237.1 233.3 233.4 232 230.5 228.9 233 240.6 251.6 259.8 262.4 262.7 273 278.7 287.3 292.2 298.7 304 309.6 319.1 326.2 331.7 335.7 339.7 343.7 348.1 351 356.1 358.7 360.3 360.6 360.6 359.7 359.3 360 362 361 358.6 362.3 366.1 362.1 360.2 374.6 388.1 396.7 407.8 430 446.6 452.1 455.5 454.1 461.6 466 468.4 470 472.2 476.4 483.1 488.1 491.9 495.1 497.3 499.5 500.5 500.9 499.4 495.8 490 493.2 491.6 487.3 482.2 479.3 473.5 468.5 463.2 456.2 449.5 443.4 437.4 432.7 429.8 431.2 429.6 419.7 412.8 411.1 406.9 401.7 400 394.7 390.7 388 380 378.9 380.5 380.1 379.7 379.5 376.7 374 371.5 369.4 368.7 368.8 367.1 364.1 361.5 359.9 359.7 358.6 359 358.8 358.6 358.3 358.8 358.2 358.2 359.5 361 358.8 363.3 366.9 371 375.9 381.4 386.2 394.3 403.1 414.3 421.2 425.5 435.1 445.3 452.7 459.1 469.9 482.6 495.6 509.9 512.5 512.5 512.3 515.8 518.3 519.2 515.2 510.4 507.3
299.9 304.7 309.1 312.9 318.2 319.7 328.3 334.1 333.8 327.3 314.7 313.5 304.3 297.7 288.4 275 257.3 249.1 247.1 246.6 253.5 259.9 258.8 252.1 245.6 241.2 240.7 238 232.2 225.9 219.4 218.6 218.6 220.8 226.3 230.2 234.2 235.9 237.4 238.9 240 243 241.9 240.5 236.8 231.7 228.8 228.8 228.8 230.4 230.7 230.8 229.8 229.9 230 229.2 229.7 233.5 237.6 245.2 250.1 256.9 268.8 276.6 281.3 288.4 294 298.5 303 308.8 317.9 324.3 329.3 333.3 337.2 341 343.4 347.2 350.2 352.4 353.4 351.5 351.5 350.7 350.3 349.7 344.8 345.1 350.8 356.6 356.9 357.2 368.7 382.4 389.6 398.4 408.3 432.1 450.4 456.7 460.4 460.7 463.2 467.1 472.6 476.6 480.5 487.7 492.9 495 496.9 499.8 503.4 505.8 506.6 507.3 504.7 500.7 499 500.7 499 497.4 494.6 489.7 487.9 482.4 474.9 472.2 463.2 454.7 447.3 440.6 430.7 428.7 420.4 418.7 411.8 409.2 406.8 401.6 399.2 393.3 390.5 386.7 381.1 381 379.7 379.5 380.5 380.2 375.4 369.7 369 369.4 368.4 368.3 367 363.1 360.3 359 359.6 359.8 359.5 358.9 358.6 358.2 357.9 357.9 359.1 360.8 360.7 358.8 361.4 367.4 371.2 376.1 382.5 388.8 398 409.7 417.2 424.5 430.7 444 453 457.8 468.6 480.7 493.5 502.5 509.4 511.3 511.4 514.9 519.6 521.8 521.2 518.5 513.9 511
299.7 305 310.9 314.8 320.5 329.3 338 345.8 346.4 336.6 333.7 338.2 330.8 316.5 305.6 291.3 272.2 263 257.8 253.3 256.2 261.9 262.7 255.7 248.5 242 239 234.6 229.3 223 219.8 218.2 217.5 219.4 224 229.6 233.4 237.9 238.4 239.3 240.5 242.6 241.4 238 234.9 230.7 229.3 228.7 228.8 230.8 230.8 230.9 229.2 228.8 228.8 228.8 230.7 235.6 242.2 252.3 261.7 271.5 275.5 279.5 285 291.1 295.2 298.9 304 310.7 318.3 322.9 327 330.6 334.5 336.7 337.9 339.4 342.8 344.7 345.2 341.2 340 338.2 336.3 334.9 334.8 340.8 343.7 347.1 348.5 360.2 373.6 388.2 399.1 403 410.3 433.8 450.6 457.9 462.6 464.3 466.1 469.6 477 482.7 487.6 496.2 500.1 501.6 502.5 504.8 508.5 510.9 511.1 511.2 508.2 505.4 503.3 505.6 506.1 504.2 501.9 500.1 501.9 499 493.8 486.9 480 473.2 465.2 460 449.8 441.5 434.3 425.9 420.7 412.9 408.8 403.9 400.2 399 393.4 388.1 384 381.7 383.6 385.6 386.2 385.6 382.8 376.5 371.1 370.6 368.7 367.9 368.5 365.5 362 363.3 361.4 361.5 360.9 360.2 358.8 357.9 357.8 359.2 360.2 361.7 361.1 361.8 363.1 367.4 371.3 376.5 380.2 388.8 396.6 406.2 415.5 424.9 433.4 446.2 457.4 469.2 480.4 487 494.6 499 505.8 509 509.3 515.9 519.5 519 519.5 516.4 512.3 510.1
302.3 307.2 313.8 320.1 328.3 336.3 344.8 350.9 351.1 339.7 348.2 351.9 346.5 332.8 314.1 294.8 277.1 270.4 265.6 261.2 260.5 259.8 257.5 253.2 248.4 243.4 239.1 232.4 226.7 220.3 218.5 215.4 214.7 217.2 224.1 230.3 238.1 239.9 241.5 239.1 241 240.3 239.8 236.4 232.8 229.4 227.1 225.9 227.4 229.5 230.9 229.2 228.9 228.8 228.8 230.8 234.7 239.7 246.3 255.6 263.6 271.2 279.3 288.1 291 295.2 298.3 302.6 308 311.9 317.3 321.2 324.4 327.5 329.7 331.5 332.3 332 331.7 333.1 333.3 331.5 329.4 325.4 324.8 326.6 329.3 332.6 331.6 340.7 352.6 361 371.4 388.1 399 404.4 412.2 433.5 449.7 457.4 463.9 465.9 469.3 477 482.4 486.7 492.3 500 503.6 505.9 508.1 510.1 513.9 514.3 515 515.1 512.7 510.3 508.3 510.2 511.8 510.5 511 510.7 511.1 507.9 503.8 499.9 497.8 489.2 483.9 479.4 469.3 461.6 453.6 441.8 432.1 424.4 414 407.1 402.9 399 394.2 390 388.3 389.3 389.5 391 391.1 391.1 386.7 380.7 375.7 370.5 369.4 368.3 368.9 367.8 368.1 368.9 367 365.3 362.9 360.6 359.4 358.8 360.3 362.6 364.5 365.4 365.3 365.8 365 369.2 374 379.3 384.3 391.4 398.6 405 412.4 420.9 431.3 443.4 458.2 472.8 483.7 489.1 495.2 500 505 509.6 510.1 519.2 521 518.5 514.2 514.3 510.6 509.7
304.2 308.8 317.3 326.7 335.6 343.7 351 351.9 349.1 349.1 351.8 352.5 349 334.7 314.7 293.5 282.6 275.9 269.9 264.4 261.1 257.5 252.7 247.9 243.5 240.1 236.5 231.9 225.5 219.9 216.7 213.4 213.6 216.2 224.8 234.6 241 244.6 248.1 242.7 240.7 241 237.6 233.7 231.1 228.1 224.6 221.6 223.2 226.5 228 228.6 229.9 229.9 232.9 237.4 240.4 244.6 248.9 253.1 260.7 271.3 280.7 290.7 296.4 300.4 301.8 304.4 307.8 311.4 315.1 317.4 319.9 322.5 323.4 323.6 324.7 324.1 321.6 321.2 318.7 318.3 316.4 312.2 317 319.2 320.1 323.8 333.4 342 352.7 356.9 368.2 381.7 388.9 400 406.1 421.4 444.8 452.7 460.4 465.3 470.9 478.3 487.1 491.3 497.3 503.1 505.3 507.4 510.6 515.4 518 517.6 517.2 518 517.4 514.6 511.7 513.9 516.8 518.1 519.6 519.8 519 516.1 513.2 510.2 506.9 503.1 500.2 494.8 487.1 480.3 471.7 460.7 447.4 432.4 421.1 413.9 410.4 402.1 397.4 393.1 393.3 392.9 393.1 393.2 392.3 390.8 389.4 383.4 377.7 371.9 368.9 368.7 368.9 370.3 370.7 370.8 371 368.6 362.6 359.4 360.6 360.9 363.2 367 371.6 372.8 371.9 370.6 370.1 372.9 378.5 384.4 390.5 396.3 404.3 412.1 418.9 428.1 434.9 441.9 454.8 469.5 484 494 498.2 502.4 507.8 511.2 511.2 511.5 509.4 509.3 508.9 510.9 511.2 508.4
303.8 311.5 324.1 334.2 340.7 349.2 353.5 351.2 349.9 348.8 350 351 346 327.9 309.7 293.3 282.4 274 266.4 261.2 257.3 251.9 246.6 241.6 237.1 233.8 232.1 228.8 223.3 219.2 216.3 214.3 214.4 217.2 224.3 236.9 240.9 246.5 249.9 246.8 240.7 238.9 235.4 231.4 228.8 225.7 222.1 219.8 220.1 223 224.8 227.2 230.4 235.1 240.1 246.1 248.6 248.7 248.4 248.1 253.7 266.4 278.1 291.2 294.3 297.7 299.4 302.3 304.8 308.3 311.7 313.1 315 315.2 314.9 313.9 314.4 314.8 311.6 310.5 309 307.4 307.8 308.1 310.3 310.7 310.5 323.8 330.9 343.3 350.9 353.6 361.1 368.9 378 387.9 396.3 405.9 429.5 444.9 456.6 464.5 471.4 478.5 489.9 496.7 502 505.2 506.7 508.1 510.4 518 519.9 518.6 518.8 519.7 521.2 518.7 516.5 518.7 520 523.9 526 526.9 525.8 522.6 518.6 516.6 513.9 511 508.7 504.8 500.4 495.1 487.9 478.8 470.7 459.2 444.3 435.5 424.7 412.3 404.8 399.2 400.2 399.5 397.2 398 394.5 391.6 389.4 384.3 378.7 372.7 369.8 369.3 370.1 371.2 371.5 371.5 370.4 370 362.8 360.4 362 364.1 369.6 376.1 383.4 385.8 380.2 378.5 379 382.1 387.4 393.9 400.7 408.1 416.4 422.6 428.8 437 443.3 451.4 462.4 476.4 491.1 501.2 502.8 504.9 508.1 509.2 507.7 502.4 498.8 496.9 497.1 501.9 506.6 505.7
304.2 314.4 327.5 340 342.1 346.6 346.5 346.2 348.5 347.5 346 343.6 334.9 317.4 301.9 288.1 278.6 270.6 262.4 255.3 249.4 244.2 239.6 235.4 231.5 228.6 226 222.6 219.8 217.7 215.3 215.9 216.9 219.1 225.1 233.1 237.8 241.8 246.4 245.7 241.5 238.1 232.8 229.2 225.7 222.4 220.5 219.6 220.6 220.6 223.8 227.9 233.5 239.5 246 251 252.6 249.5 246.3 245 249.3 263.1 272.9 285.2 288.9 292.6 295.2 298.9 300.7 303.5 306.1 307.9 307.3 307.5 306.9 304.9 303.8 303.6 302.7 301.9 300.7 300.6 299.8 301.3 301.2 300.3 304.4 315 324.4 331.8 339.7 345.3 351.8 357.2 364.5 370.5 379.5 389.8 407.9 431.8 452.9 466.2 474.8 482 490 499.8 502.9 505.5 506.9 508.4 510.1 514.1 517.6 518.2 519.7 521.5 522.9 522.1 519.9 520.8 523.9 528.9 531.2 531.5 531.2 528.9 524.1 521.5 517.9 515.8 513.6 509.3 505.9 502.6 496.4 490.5 485 476.6 468.4 456.9 441.4 432.7 419.8 411.9 407.5 406.9 403.6 399.3 396 390.5 389.8 381.8 378.6 375.6 372.8 371.9 371.2 370.9 371.8 371 370.5 369.1 366.9 364.6 367.2 372.7 382 393.6 398 397.2 392.2 390.2 392 395.3 404.9 414.6 422.1 427.2 432.8 439.2 444.6 450.4 458 466.5 475.1 486.6 496.4 504.9 507.1 507.8 506.2 504 500.8 496.2 491.1 488.5 488.1 492.3 498 497.7
301.4 313.9 326.4 338.3 341.1 339.1 338.7 342.3 344.5 343.4 339.8 333 320.4 298.3 287.8 281.1 271.4 263.6 256.6 249.7 244.7 238.7 233.1 229.6 227.8 223.2 220.5 217.9 217.1 214.8 212.4 212.9 215.4 219.1 224.8 231.2 235.3 239.1 241.9 242.8 240.3 236.3 230.8 227.3 222.6 219.7 219.1 220.2 220.2 221.3 225.4 228.7 231.7 242.9 251 253.4 252.7 245.5 241.6 241.1 246.4 253.5 265.9 277.5 281.5 286.2 290.1 292.5 294.3 298 299.5 302.2 300.3 299.1 299.6 297.7 296.3 295.5 294.4 294.7 291.9 291.9 290 288.9 290.6 299.3 300.9 303.2 309.1 315.3 325.4 333.6 340.6 349.6 355 359.2 366.5 375.6 391.8 413.4 438.8 459.8 474.3 483.2 489.2 501.1 503 503.9 505.4 507.4 509.1 510.2 511.3 516.5 521.6 525.2 527.2 526.2 524.2 525 527.8 531.1 532.6 533.5 532.8 531.1 527.6 523.9 519.4 517.2 515 512.3 509.1 505 502.1 497.6 492.1 485 478.3 470.7 462.3 452 441.3 430 422.6 417.2 413.9 407.2 398.8 391.8 388.6 383.6 381.1 379.6 376.7 374.5 373.9 373.5 372.5 371.2 369.6 369.4 368.6 369.6 376.4 386.4 396.8 405.4 410 410.6 407.7 403.9 405.5 414.2 424.5 432.8 438.9 444.6 451.3 459 464.6 472 477.5 484.8 491.2 496.6 504.1 510.1 509.8 508.2 503.7 500.5 497.8 492.4 488.5 488 487.9 487.9 489.2 490.7
299.5 305.7 316.7 324.8 328.5 332.8 334.6 337.8 341 339.7 333.5 322 305 287.2 279.2 272.2 265.3 258.2 252.4 246.5 241.2 235.3 229.2 228.2 225 221.4 220.7 220.1 215.7 212.7 210.9 211 214.4 218.4 223.1 229.5 233.7 237.6 241 241 238.2 233 229.4 224.4 220.5 219.1 218.7 219 220.2 223.1 229 229 228.2 240.7 245.1 247.3 247 240 238.4 238.5 241.6 245.6 254.9 266.1 273.7 277.9 282.1 285.4 287.6 290.3 292 292.6 291.3 290.6 291.1 290.4 288.3 288 287.6 284 279.9 278.9 289.7 295.6 304.1 307.5 312.4 312.7 316.2 318.9 319.2 321 333.2 342.4 349.2 352.2 356.4 365.2 378.9 398.9 420.6 445.7 470.3 484.7 489 497.6 501.7 501.9 503.5 503.8 505.8 508.3 508.8 514.7 523.5 529.6 530.7 530.1 528.4 528.5 531.2 531.2 532.1 533.2 533.2 531.7 529.4 524.7 519.5 517 514.7 512.7 509.1 507 504.6 501.6 496.4 490 483.8 477.3 470 462.8 452.2 437.9 433.1 427.6 429.1 419 408.6 399.2 393 389 385.5 381.9 379.2 378 376.8 375.7 372.6 371.4 369.6 369.3 372.8 379.2 388.6 399.3 408.3 416.3 421.6 422.6 420.8 418.9 425.3 434.3 441.9 448.6 456.3 464.2 472.5 478 485.3 490.6 496.1 499 503 506.8 511.2 511.1 510.9 506.5 501.3 498 493.1 488.9 488 487.9 487.9 487.9 488.3 487.4
299.6 306 312.2 319.9 324.8 327.2 329.5 331.6 334 335.2 331.7 316.2 290.9 282.7 273.9 266.8 260.5 255.3 249.6 244 239.3 234.6 230.7 228.8 226.4 225 223.5 221.8 220.2 213.2 210.3 211.2 215 217.4 222.9 227.8 231.8 236.7 241 239.2 234.4 230.5 226.9 222.5 219.4 218.8 218.5 218.9 222.6 228.1 234.5 236.4 228.6 230.2 238.3 238.7 238.8 238.1 237.8 237.9 239.1 240.6 247.2 255.9 265.4 271.6 275.3 276.8 278.5 282.1 282 281.6 280.9 282.9 283.4 282.8 279.8 279.3 276.1 278.6 281 289.9 299.5 309.1 321.8 328.2 330.1 329.3 330.6 332 332.7 333.2 333.9 337.2 341.3 346.3 348.9 356.3 366.3 385 404.1 432.6 460.5 476.8 485.4 493.5 500.7 501.1 499.7 500.5 503 505.1 507.6 513.6 524.2 531.6 533.2 532.2 530.8 529.9 531.3 531.6 531.8 531.5 532 531.6 527.9 522.4 518.9 516.4 514.1 512.2 509.7 506.9 504.1 500.7 496.6 491.8 486.5 481.4 475.4 468.9 455.9 450.2 441.6 439.4 436.9 429.1 419.6 409 400.4 395.1 390.5 386.5 383.9 380.6 379.6 377 372.9 370.4 370.3 374.4 380.4 391.3 401 411 419 427 431.9 433.3 433.3 437.8 445 452.7 457.5 466.2 475.8 481.4 486.3 491.9 497 499.7 503.2 505.8 508.8 510 509.3 508.7 506.6 500.9 499.6 498.1 492.9 490.6 488.7 488 487.9 487.9 488.4 487.5
300 307.7 315.1 318.8 321.5 322.6 322.1 323.2 328.3 331.1 326.8 303.9 285.2 276.9 269.5 262.3 257.2 252.2 247.3 241.3 237.9 233.7 230.9 228.7 225.9 224.6 222.7 220.2 217.2 212.5 209.7 211 212.8 216.1 221.2 224.7 229.9 238 240.9 238.5 231.3 228.5 224.7 221.3 219.1 218.6 218.2 219.7 225.6 232 238.3 244.8 241.4 229.4 228.8 232.7 238 238.8 239.6 241.5 244.6 244.1 247.1 249.2 248.1 258.6 262.6 263.8 266.7 269.1 271.4 273.2 272.3 273.8 274.2 269.7 269.2 269 276.6 285 293.8 308.8 320 331.1 340 349.4 353.5 354.8 351.4 348.6 348.3 349.6 356.2 361.9 363.4 362.1 361.3 362.6 365.1 371.6 393.3 417.2 441.5 459.1 473.2 482.6 493.4 496.4 496 498.2 500.8 504 508.9 516.9 526.4 533.2 536.7 536.4 534.6 532.6 532.4 532.5 531.7 531.5 530.2 529.3 524.3 520.4 517.2 515.1 513.5 511.9 509.5 506.7 504 501.2 497.7 492.1 487.3 481 476.8 469.4 465.5 459.7 452 445.8 440.7 434.1 426.4 414.4 408.4 402.4 396.6 391.8 388.3 385.2 380.5 377.6 372.8 371.5 374.9 380.4 389.2 400 409.8 420.6 428.4 435 439.8 443.3 449.1 455.5 462.4 467.9 471.9 479 486.1 491.7 495.8 499.5 503.1 505 505.7 508 510.2 509 508.1 507.9 505.2 501.5 502.1 502.3 500.7 497.6 493.6 489.2 488.7 488.9 488.8 489.3
299.1 307.6 314.5 319.4 316 315.8 316.3 319.1 328.5 331.4 321.6 298 283.5 273.9 266.6 260 254.8 249.9 247 241 237.6 233.4 230.1 227.4 224.9 222.6 220.7 218.3 214.5 212.3 210 210.7 210.4 213.5 218.3 222 227.6 235.2 238.1 232.7 228.9 225.6 222.3 219.6 218.7 218.3 218.6 221.2 228.2 236.2 243 250.1 244.3 236 229.4 233.9 240.9 244.6 247.4 250.4 251.3 253.4 253.7 252.9 251.6 250.5 254.1 258.6 259.1 259.5 259.5 261.2 266 268.7 270.8 273.7 280.3 285 290.9 302.1 314.9 329.5 344.1 355 364.6 371.5 375.8 377.1 375.7 374.5 375.5 376.4 383.7 390.4 390.6 386.5 382 379.3 377.8 379.2 385.7 407.7 430.8 449.1 463.1 472.7 481.9 489.9 492.1 497.9 501.4 505 510 520 525.9 533.8 539.1 539.8 539.3 536.7 533.9 532.7 531.9 531.5 529.5 525.1 520.7 518.3 515.4 513.7 511.8 510.8 508.6 506.1 503.5 501 498.1 493.4 490.2 484.8 481.6 476.3 470.9 463.9 457.6 450.9 443.9 437.2 429.2 423.2 414.5 407 400.3 395.6 391.6 389.3 383.3 378.3 375.7 375 379.2 385.5 395.4 407.6 419 429.9 436.5 442.5 448.3 457 465.4 470.4 476.2 481.6 483.4 487.4 493.5 498.1 501.9 503.2 504.7 506 506.6 507.5 507.9 509.1 508 508.2 507.4 506.8 508.9 509.9 509.7 507.3 502.6 498.9 497.2 495.6 492.6 490.6
303.7 310.4 311.3 312.9 309.3 309.3 310.5 319.3 330.2 331.7 318.5 294.7 281.9 272.6 265 260 257.2 252.6 249 242.6 238.5 233.5 229.4 226.9 224.2 221.8 219.6 216.5 213.5 211.6 210 209.7 209.1 211.6 215 220.1 227.2 231 233.9 230.2 226.5 223 220.1 218.2 218.3 218.6 219.7 223.9 231.2 238.8 241.6 243.6 241.4 236.7 235.9 240.1 248.8 251.8 254 258.1 259.7 261 262 262.7 262.8 259.2 260.3 264.7 267.9 269.5 259.5 265.4 271.8 276.3 282 285.7 289.3 297.5 311.8 324.1 335.6 350.7 362.7 372.4 380.9 386.6 391.5 393.3 394.6 400.6 405.1 409.1 412.6 418.7 417.1 413.6 407.4 401.1 396.8 395.1 397.5 400 414.3 433.8 449.7 461.5 471.7 486.6 494.7 499.7 502.6 506 510.9 519 526.6 534.8 540.9 539.3 539.6 539.6 536.1 532.7 531.6 530.7 528 524.2 520.4 517.2 513.9 510.8 509.4 508.2 506.4 504.5 503.5 501.6 500.8 497.8 494.7 490.2 485.6 480.3 474.4 467.3 460.6 454.2 447.4 440.3 433.3 426.8 418.8 410.1 402.3 397.4 393.2 390.9 386 379.7 378.8 378 381.7 389.9 401 414.7 427.6 435.3 441.6 447.5 458.2 469.4 476.8 483 488.5 490.9 492.5 495 498.5 501.2 503.1 502.7 502.9 503.7 505 504.1 505.1 508 508.4 508.6 509.6 513.8 516.6 516.4 514.7 512.6 509.9 506.8 503.3 501.5 498.8 495
306.6 310.9 311.1 309.2 301.7 303.9 309.1 322.2 330.5 330.2 312.7 292 280.2 272.2 265.7 261.8 260 254.8 249.4 243.1 239.4 237.9 234.6 228.8 225.1 221.2 218 215.4 212.8 210.8 209.8 209.1 209.2 209.1 212.1 220 226.6 230.9 229.6 228.3 223.7 220.6 216.6 214.2 215.1 217.5 219.7 224.8 230.9 238.3 240.1 241 238.7 237.9 238.2 250.6 256.2 259 261.2 265.7 269 271.2 268.6 268.8 270.5 268.5 267.8 269.6 272.2 274.5 270.8 273.1 280.5 286.4 291.8 298.2 303.7 314.7 330.9 342.7 354.4 365.6 377.2 384.6 392.3 397.2 400.7 405.6 412.8 425 432.3 434.5 435.7 443 443.8 441.6 437.7 430.3 423.5 420.3 422.3 425.3 430.9 442.1 454.4 466.3 479.5 491 496.3 501 504.1 507 510.9 518 525.5 532.6 540.9 540.4 539.8 539.4 537 534 531.1 529.4 526.3 522.6 519.5 516.1 512.8 509.9 507.4 505.6 503.8 502 501.7 501.4 501 500.9 496.8 492.3 488.5 483.3 477.7 470.4 463 455.7 448 441.1 435.8 430.1 422.8 411.6 403.9 397.4 393.1 390.6 387.7 382.4 380.4 378.9 384.3 393.7 407.6 421.9 433.2 440.8 448.4 457.4 470.5 480.8 487.9 494.7 497.9 499.9 500.1 498.9 499.3 501.3 501.3 501.1 501.5 501.4 501.9 500.6 502.2 506.2 509.1 513.8 519.3 523.1 524.8 522.8 518.1 515.2 510.9 509.7 506 502.7 501.1 498.3
311.5 312.7 310.7 302.1 298.9 299.8 312.6 324.2 331.1 328.2 314.1 291.5 280.1 272 265.7 262 258.8 253.9 249 245.4 242.2 241 240.2 232.3 226.3 220.6 218.7 215.6 213.1 211.1 210.4 210.8 209.6 209.4 209.4 219.4 223.3 227.1 226.2 224.5 220.5 215.5 211.4 210.8 213.2 217.2 220.8 226 232.2 238.8 241 240.2 238.2 237.7 244 257.3 265.3 267.4 269.5 278.1 281.8 281.6 281.5 281.1 279.1 276.4 273.9 273.8 275 280.7 278.8 278.1 288.1 296.6 305.2 314 323.4 334.2 346.5 359.7 368.7 377.4 387.8 395.9 404 409.3 412.2 418 430 440.5 446 449.9 452.2 455.6 460.5 463 465.7 464.3 458.5 453.2 450.8 451.1 456 464.3 473.4 483.7 489 494.4 497.3 501 504.8 507.5 510.8 517.5 523.9 530.8 539.6 540.9 540.2 538.5 535.8 532.7 530.3 527.5 524.4 521 518.6 515.7 512.8 510 505.4 503.2 501.5 501.1 501.1 498.8 497.9 496.9 496.4 493.5 490.1 484.8 479.1 472.1 464.5 457 450.1 443.4 438.4 431.3 423.3 413.1 404.5 397.6 392.2 389.2 387.6 383 382.1 382.2 388 400.1 413.8 426.1 437.9 446.8 455.4 467.4 481.3 492.3 499.4 501.2 504.2 505.7 504.3 501.1 500.1 499.7 497.9 497.1 499.2 499.9 499.5 499 503.3 509.4 516.8 520.5 525.2 529.8 531.2 526.6 520.6 516.4 511.1 508 504.9 501.1 501.1 499.1
313 313.7 309.1 300.3 298.3 302.3 314.2 325.2 331.5 331.4 319.6 290 279.1 269.7 263.9 260.8 256.8 253.3 249.5 246.4 243.5 241.4 241.1 235.9 228.9 222 218.8 215.5 212.8 211.4 210.6 210.5 210.9 209 208.9 221 221.2 222.9 220.9 220 215.8 210.6 209.1 210.5 213.7 217.7 222.1 229.3 235.6 241 241 238.6 238.1 240.8 254 265.6 273.2 276.6 279.8 287.4 289.9 291.3 291.8 292.7 292.3 290.5 285.8 284.6 284.8 287 288.1 289.2 294.2 306.8 318.7 330.9 340.9 350.7 359.6 371 380.3 388.7 398.2 408.4 415.3 420.1 424.7 431.7 441.9 452.1 457.4 461.1 463 464.3 470.2 473.2 475.8 477.3 480.5 483.1 486.3 486 487.1 491 495 494.8 495.8 498.2 499 501.4 504.7 508.1 510.8 515.7 520.8 529.9 537.2 540.9 540.3 539.2 536.2 532.2 529.4 526.5 523 519.4 517 514.5 512.1 508.9 503.8 501.3 501.3 496.7 491.7 491.1 489.3 489 491.8 490.6 488.7 483.7 478.3 471.9 465.2 457.6 451 441.4 435.6 430.5 422.9 413.3 404.9 397.5 390.3 387.7 385.4 382.5 383.9 385.2 391.3 403.9 418.2 430.3 442.9 452.4 462.7 477.6 491.2 501.6 504.5 504.4 508.3 508.7 506.7 502.7 498.9 494.4 491.9 491.7 493.2 494.8 497.8 501.2 508.2 516.7 523.2 528 530.3 531.2 531.2 528.1 523.2 518.5 511.9 507 503 500 499.2 498.4
310.2 309.5 305.8 297.1 291.1 302.7 309.5 326.2 332.7 330.9 318.7 291.4 278.3 270.3 263.8 258.2 255.2 252.3 250 247.1 244.2 241.8 239.4 234.9 229.2 223.3 218.4 214.7 212 210.4 210.2 210.1 210.1 209 209.4 218.3 221.2 221.2 217.7 214.4 211.4 209.1 209.6 212.5 215 219.8 227.1 231.8 238.1 241 238.9 238 238.3 246.7 260.4 272.2 280 284.5 287.7 294.4 297.4 299.5 300.9 301.8 302.2 301.3 299.5 296.7 294.2 294.9 295.5 297.7 296.8 311.6 323.4 338.5 350.7 361.4 370.5 381.2 388.3 396.8 409 415.9 423.7 431 433.5 443.6 453 460.2 465.3 468.6 470.7 471.8 475 479.3 482.6 486.5 490.5 494.5 499.1 505 502 501.2 500.1 499.5 498.6 501.1 501.8 502.8 504.4 507.4 510.2 513 518.1 525.7 534.8 540.9 540.6 539.1 536.4 532.4 529.1 526.9 523.2 519.2 516.1 512 509.9 506.7 503.1 499.1 496.3 491.6 480.4 481.7 480.8 480.7 484.6 485.5 484.2 480.8 475.6 469.6 463.2 457.1 449.9 440.2 431.7 426.4 421.2 411.8 403.1 396.7 389.8 384.5 382.2 382.4 385 387.7 393.9 404.6 420.3 434.6 447 457.3 471.3 487.3 499.8 504.5 504.5 503.2 505 506.9 504.2 500.2 496.3 490.9 488.1 488.1 486.9 491.3 497.5 505.4 514.7 521.3 527.6 531.2 531.2 531.1 531 528.6 523.6 518.7 512.8 507.9 503.5 500.1 499 497.5
303.7 299.8 297.1 292.5 289.6 298.2 311.7 323.2 332.2 328 315.2 288.4 277 269 262.6 257.9 253.1 250.8 249.1 245.3 242.4 240.8 238 233.1 228.5 223.5 218.7 214 211.6 210.2 210.2 210.1 209.8 209.2 209.5 211.2 216.3 216.9 213.6 209.8 208.9 208.9 216.8 219.7 221.2 226.8 233.6 238.5 240.7 239.9 238.3 237.9 243 254.3 266.9 276.4 284 289.1 294 299 303.2 305.8 307.5 308.2 308.9 309.3 309.4 307 299.9 301.7 304 304.9 299.7 311.1 320.3 342.9 359 368.9 379.9 387.9 394.9 404.9 416.5 423.7 431.2 437.8 443.9 450.6 458.5 465.9 470.5 473.8 476.4 478.1 480.9 485.1 488.3 491.8 494.6 498.4 505.5 510.7 507.1 505.6 503.8 502.8 502.3 501.9 501.8 502.4 502 504.1 506.9 509.9 514.7 519.6 533.7 539.5 540.3 539.5 536.5 532.6 529.5 527.3 523.4 519.4 515.2 511.2 507.1 502.4 500.8 497.3 489.3 483.1 481.9 472.5 472.8 474.6 477.6 478.2 477.7 475.8 470.5 463.3 457.8 453.4 447.8 441.9 434.2 425.7 419.2 410.9 401.2 394.3 388.1 382.8 379.4 381.1 383.8 387.2 394.2 405.8 422.7 437.1 450.2 463 479.1 496 504 503.9 502.2 501.4 501.3 501.6 499.4 496.4 491.5 487.9 485 483.6 480.3 491.4 498.9 508.2 518.1 524.3 527.8 531 531.2 531.2 529.4 525.9 522.4 518.6 513.6 509.5 505.5 501.5 498.6 496.7
295.5 290.6 286.1 284.3 288.3 296.4 308.3 321.8 330.3 323.4 307.5 285.3 274.9 267.9 262.4 257.1 251.3 249.1 246.3 242.6 240.4 240.9 236.1 230.9 226.5 221 217.1 213.5 211.9 213.2 215.1 214.8 212 209.7 208.5 209 209.6 211.2 210.8 208.8 208.9 214.9 223.5 225.1 228.9 234.9 240.6 240.9 240.9 239.4 240.2 240.5 248.9 259.4 271.9 282.3 287 293.2 299.3 302.1 306.5 309.9 312.8 313.7 316 318.2 317.3 312.1 309.6 311 312.1 312 309.6 314.1 332 350.6 364.3 376.9 387.3 394.6 404.4 412.6 423.5 431.9 437 443.8 452.2 457.8 463.2 469.8 473.8 476.8 480 482.2 486.2 489.4 492.8 496.6 498.9 499 503.9 509.9 507.8 507.5 506.8 505.2 503.5 503.3 501.9 501.1 501.1 500.6 503.3 505.5 510.3 516.5 528.1 535.3 540.5 539.7 536.5 531.8 530.3 527.5 523.2 520.1 515.5 511.8 506.8 500.6 495.6 488.9 490.8 480.6 470.3 468.9 463.8 468.3 468.8 468 468.1 466.9 463.7 457.1 453.5 449.1 445.3 441.2 434.7 429.2 421.7 413.5 404.7 392.7 384.1 381 378.8 378.5 381.9 387 395 407.8 424.5 440.1 452.8 468.8 486.6 501.8 504.5 502.1 498.9 498.6 498.5 497 494.6 490.8 488 485.4 481.3 479.9 480.4 489.4 499.4 509.5 518.9 523.3 526.2 527.9 529.1 527.6 525.4 522 520 517.5 513.6 509.6 507.6 502.4 499.2 496
288.7 281.6 276.1 280.5 288.2 296.3 307.6 323.7 333 321.3 298.2 281.1 273.2 266.9 261.1 255.8 250 246.8 243.3 238.8 238.8 233.5 230.9 228.9 224.4 219.9 217.2 214.1 211.8 216.4 219.2 219 215 211.6 209.6 209 209.1 208.7 209.1 208.8 212.8 221.8 226.3 230.7 234.8 241 246.3 244.7 240.6 240.5 241.8 246.1 250.1 261.1 271.1 283 290.5 295.6 301.2 305.2 309.5 312.9 316.2 319.1 322.5 325.9 326.3 322.4 320 320.1 321.2 320.6 318.1 320.6 340 357.8 372.8 383.8 393.4 403 413.6 422.8 429.5 437.7 443 450.1 459.9 464.7 468.1 471.4 474.5 478.4 481.2 484.7 488.7 492.8 497.5 500.1 500 499 500 503.7 507.6 507.4 507.5 504.9 503 502 500.3 498.3 495.8 495.5 496.6 497.4 501.9 509.7 522 530.4 536.1 535.6 533.9 531.8 530.5 526.7 522.2 518.8 515.3 511.5 506.4 503.1 499.1 484.8 474 473.3 471 471.6 463.2 460.6 461.8 461.7 459.5 457.2 455.7 451.8 448.1 445.2 440.5 436.6 433.1 428.9 422.3 415.6 405 389.3 380.7 377.2 374.4 376.2 381.3 387.6 395.1 407.4 427 442.5 455.7 474.1 491.5 502.1 501.3 500 496.3 493.5 493.2 491.6 488.9 486.7 486.1 484.1 480.7 481.1 476.2 488.8 499.5 508.8 515.6 520.2 522.2 522.7 524 522.7 520.5 519.8 518.8 516.1 512.7 511.1 510.2 505.5 497.3 491.9
283 273.1 269 281.6 287.9 296.9 309.4 321.4 323.3 310 287.2 275.7 271.5 266.8 260.3 254.9 250.5 247.5 244.1 241.3 239.6 232.1 228.8 226.5 221.5 220.1 218.4 215 212.7 217.1 219.6 220.4 216.7 211.3 210.7 211.2 209.3 205.3 208.5 210.5 219.9 227.6 232.4 235.9 241.8 247.3 250.6 248.5 243.6 242.7 244.3 248.6 257.1 264.6 271.4 279.7 290.8 291.1 299.2 306 310.9 316.5 319.9 325.6 329.9 333 333.2 331 328.7 327.6 328.3 327.3 320.2 325 342.1 362.2 379.4 390.1 400.6 412.2 421.4 431.5 436.4 441.4 447.7 456.4 464.3 469.2 472.3 474.7 475.8 478.5 482.2 486.8 491.5 495.9 500.5 502.3 498.9 499 499 500.3 503.5 506.4 507.5 504.5 501.3 498 495.8 493 491.7 488.9 488.6 487.1 492.7 503.3 514.7 524.2 530.3 530 531.1 531.2 529.4 525.6 521.7 518 514.4 510.8 507.3 506.4 503.1 499.2 493.7 482.2 470.5 458.8 459.2 452.6 448.8 451 453.1 451.5 446.3 446.5 442.5 436.6 431.3 431.1 426.9 425.1 420.7 414 405.1 390.8 379.5 373.2 370.2 374.4 381.1 388.5 394.7 407 427.5 444.2 459.4 476.6 492.3 500.2 499.2 495 491 488.8 486.2 484.1 482.3 481.5 480.3 479.6 480.7 480 469.9 486.7 498.5 506.6 510.2 514.2 516.6 516.8 518.8 518.6 518.2 518.1 517.4 515 513 511.4 511.8 508.9 497.1 482.6
275.9 269.1 268.1 282.5 291.2 297.3 306.3 311.5 303.6 286 276.8 272.3 269.9 265.4 260.3 256.2 252.3 249.3 247 243.4 239.9 232.6 228.9 229.3 224.9 220.8 218.6 215.2 212.1 214.4 214.5 215.8 213.1 210.8 209.3 209 208.2 205.5 210.2 217.6 224.4 231.8 237.9 244.1 251.2 251 249.4 249.5 245.8 243.4 246.2 249.4 259.4 265.6 270.2 271 279.7 294.1 301.2 308.3 313.8 319.2 323.9 329.7 335.6 339 339.5 337.4 337 336.4 336.6 333.3 332.1 340.8 355.4 368.7 385.9 396.6 407.9 419.7 432 438.5 442.1 446.4 453.6 460.3 467.9 473.1 475.5 476.9 476.8 478.2 481.4 486.7 490.9 497.7 501.5 501.9 498.9 498.9 499 500.9 501.1 503.2 505.2 502.7 498.4 493.7 489.9 486.8 484 481 480.1 478.5 484.3 494.8 506.7 515.2 522.9 523.7 524.6 526.4 525.8 523.8 520.2 517.2 513.6 510.3 509.3 509 507.3 503 498 493.9 479.5 482.8 474.6 468.3 461.8 449.9 440.2 437 432.5 430.3 428.4 422.3 420.1 422.2 420.1 419.3 417 410.8 403.8 392.6 380 372.4 369.5 372.2 379.8 387 393.2 408.9 429.1 446.8 463 477 490.5 495.6 494 490 485.3 482.1 479.6 477 474.1 471.9 471.4 471.6 473.2 472.1 466.4 484.8 496.5 501.6 504.7 507.2 509.7 510.8 513.3 514.5 514.8 516.2 516.2 514.6 513 512.5 513.7 512 499.3 480.7
268.6 262.5 266.5 280.1 280.9 283.6 287.9 283.2 277.9 273.8 270.7 269.3 269 264.6 260.5 256.9 253.9 251.2 247.7 242.7 239.4 231 228.8 230.1 227.8 222.3 218.8 215.2 211.4 210.8 209.6 210.2 209.4 209.7 208.8 208.6 208.3 208.1 215.1 223.7 229.8 238.5 244 250.6 250.8 249.8 249.1 248.4 247.2 245.4 249.4 252.1 257.4 260 265.6 275.4 284.4 294.3 302.9 312.1 317.4 321.7 326.3 334.8 341.4 345.6 347.7 344.4 345.4 345.4 344.2 347 356.1 366.6 375.6 385.1 394.6 404.5 416.6 429.4 438.8 444.3 448 452.9 460.4 466.2 472.1 477.8 479.3 478.4 477.4 478.7 481.5 486.7 491.8 496.8 500.4 500.5 499.1 499.2 499.5 501.1 501.3 503 503.3 500.8 495.5 488.4 481.8 479.3 477.8 475 472.7 470.1 477.6 487.5 499.1 508.8 516.1 517.9 519 520.7 521.2 519.6 518.4 515.3 512.4 509.9 509.3 510 508.3 504 500.5 497.2 491.3 489.7 484.8 478.8 470.9 465.3 459.7 451.3 446.6 441.9 441.7 441.1 429.1 407.1 411 414.4 411.7 407.5 401.3 393.6 381.2 373 369.3 369.8 376.4 382.9 391 410.4 429.5 447.2 464.1 476.6 487.1 491.2 489.8 486.1 481.3 477.3 474.3 471.5 468 466 464.4 464.8 465.6 459.8 467.1 485.1 492.9 496.1 497.6 500 502.6 504.9 507.5 509.4 512.1 513.3 514.4 513.7 512.8 514.4 514.6 513.2 504.5 490.1
261.6 258.9 266 280.5 270.1 266.2 266.4 268.5 267.9 267.9 268.4 268.8 268.8 265.1 261.1 255.5 252.6 250.4 245.9 240.2 235.9 231.5 228.1 227.2 225.6 222.5 219.3 215.5 211.4 210.1 209.2 207.8 206 206.3 208.4 208.4 208.7 209.5 221.7 228.3 234.7 243 249.8 250.8 250.7 248.7 248.1 248.1 247.8 251.4 256.1 257.9 263.1 266 273.9 279.4 287.6 299.6 309.5 317.5 323.7 328.8 335.6 342.7 350.1 354.1 356.3 354.8 354.5 354.8 354.9 361.1 371.9 382.2 391.5 397.9 406.2 414.8 424.2 435.6 442.9 448.2 451.7 456.7 462.1 469.1 475.4 479.8 479.7 478.4 476.3 477.9 480.6 485.8 490.3 494.6 498.3 499.4 499.4 499.9 499.4 501.2 501.4 502.8 502.8 497.4 491.3 482.5 473.9 470.8 465.3 462.8 460.6 465.9 474.3 482.6 493.7 503.9 510.5 511.7 513.4 515.5 516.1 516.4 515 513.2 511.1 511.1 510.9 509.3 507.5 504.4 501.6 499.5 493.7 488.3 482.5 476.5 469.8 462.7 457.9 453.5 450.8 448.7 447.1 442.9 436.6 421.6 401.6 399.6 404.3 402.8 397.7 389.6 379.3 372.3 369.1 368.4 372.7 380.7 390.1 410.7 432 448.9 463.5 475 484.6 489 487.4 482.3 477.8 473.9 469.9 466.3 464 461.9 458.4 457 454.5 458.1 472.8 484.1 487.6 489.8 491 492.9 495.8 498.7 501.3 505.3 508.7 511.3 512.3 512.9 513.5 514.6 514.6 513.5 509.4 500.1
256.5 259.5 265.2 265.8 262.9 261.5 261.6 262.7 266.4 268.8 268.9 271.1 270.9 268.1 262.2 255.7 249.6 244.9 241.1 236.7 233 229.9 225.2 221.8 220.9 220.8 217.9 213.6 210.8 210.9 209.2 206.2 203 203 207.2 209.2 213.1 219.5 224.8 231.2 238.3 246 253.4 252.5 249.3 248.6 247.8 248.5 255.1 260.9 266.1 268.2 270.6 275 278.9 285.1 292.7 304.3 314.2 324.5 331.4 338.2 345.8 353.2 358.8 362.2 363.9 364.2 364.6 366.3 367 375.6 385.6 392.1 400.6 407.7 415.5 423.3 432.9 441.1 448.2 452.1 455.2 458 462.9 469.5 475.8 479.7 474.6 471.5 472.8 476.8 480 484.3 489.3 493.4 495.9 496.7 497.8 499 500 501.7 502.7 502.2 500.7 493.7 485.6 475.6 466.1 459.6 455.2 449.5 457.8 464.3 469.3 481 492.1 499.3 505 506.1 508.2 509.2 511.1 511.4 510.9 509.3 508.6 508.1 507.6 506.1 503.6 501.3 498.5 494.3 488.3 484 477.7 471.4 465.3 459.6 453.3 450.9 449.2 448.3 446.4 442.5 436.3 428.5 418.2 393 387.9 394.1 391.9 384.6 378.2 370.8 366 364.8 370.2 379.5 389.3 409.9 431.9 449.3 462.8 473.1 482.1 484.1 482.6 478.6 473.3 469.1 465 459.9 457.5 455.3 451.9 446.6 449.8 462.4 472.1 479.1 481.4 483.4 484.7 486.3 489.3 492.4 496.4 500.8 504.2 507.7 510 511.2 512.8 513.1 512.2 513.3 508.4 499.8
251.5 255.5 261.1 259 257.8 256.8 258.2 261.5 268 269.8 271.8 271.3 271.2 270 263.8 256 246.9 239 237.5 232.7 229.3 227 223 219.3 218.5 218 216 213.1 209.7 210.5 208.7 204.8 202.1 202.4 207.2 214.3 220.4 223.3 227.4 233.7 240.6 249.5 255.4 252.2 248.5 247.8 249 258.8 267.9 274.3 278.2 279.1 280.4 285.6 288 295.2 300.8 307.6 320.3 331.8 339.9 348.2 355.9 362.3 367 369.6 372.2 374.1 376.2 378.6 382.3 388.5 395 400.6 410 416.8 423.6 432.8 439.9 446.2 451.6 455.9 457.7 458.9 463.3 468 471.9 472.9 470.4 468.5 471.5 475.1 478.7 482.8 487.8 491.5 492.8 494.1 495.3 497.1 499.5 501.3 501.9 499.5 494.9 487.9 479.1 470.1 458.8 450.8 445.6 432.3 452.1 459.6 464.9 478.1 488.7 496 499.1 500.5 503.4 505.1 506.3 506.6 506.5 504.8 504 503.8 502.6 500.2 496.3 492.2 488.6 485.5 480.2 474.8 469.4 464 457.4 454.3 448 446.2 442.9 442.6 442.6 440.3 434 426.2 419.1 409.2 394.6 379.3 380.2 380.2 374.1 369.8 363.1 359.9 367.3 377.5 387.5 410 434.2 451.7 462.8 472.3 480.4 481 478.1 473.4 468.3 464.7 460.3 454.9 450.4 447.5 441.6 441.1 455.4 467.9 471.8 472 473.6 475.8 477.2 479.5 482 487 492.3 495.5 499.2 504.4 507.6 509.7 511.4 511.7 510.8 510.5 505.9 495
253.7 249.1 256.5 259.6 253.1 252.3 256.5 261.4 267.2 271.2 274.9 271.6 271.1 268 262.7 256.1 248.7 240.2 234.5 230.1 227.1 224.7 222.3 219.6 216.9 215.3 213.6 211.7 210.3 209 206.3 202.6 202.1 204.8 208.7 213.5 220.6 224.1 228.2 234.5 240.5 248.2 251 249.9 248 249.3 260.4 269.6 279.9 284.1 286 288.7 292.1 293.4 301.4 305.5 311 317 326.3 338.1 350 357.2 364.2 370.2 373.7 375.6 379.2 382.7 385.3 389.2 393.6 398.4 403.8 410.6 417.4 423.9 433.1 442 446.3 450.5 454.4 458.4 459.5 459.1 460.8 464.7 468.9 467.2 466 466.9 468.9 471.4 475.1 480.2 485.6 489.3 490.5 491.9 492.5 494.9 498 499.9 500.3 496.8 490.7 481.8 471.9 460.1 449.2 443.5 430.4 434.5 444.6 453.5 460.1 473.3 486 492.4 494 495.6 498 500.4 501.8 501.8 500.7 498.6 496.7 495.2 492 487.9 484.5 480.2 475.6 471.5 467.1 463 457.8 454.2 449.8 445.4 442.6 432.3 435.4 436 437.5 434.1 430.5 425.4 417.6 409 397.1 386.9 372.7 370.6 369.6 365.5 361.4 359.1 365.3 374 384.7 407 434 454 465.5 470.6 476.6 475.5 471.5 467.9 463.3 459.2 455.1 448.8 442.4 440.4 428.9 446.5 456.2 462.8 465 463.9 465 466.8 468.3 468.5 475.9 483.4 487.4 491.7 496.5 501.4 504.5 507.1 509.5 509.4 509.4 507.2 502.3 488.2
256.1 249.2 248.8 252.2 250.1 249.6 252.9 257.4 261.5 265.5 268.5 270 269.7 265.1 259.9 254 246.5 238.4 232.3 228.6 226.8 224.3 221 218.7 215 212.7 211.1 210.6 209.8 206.5 203.8 202.2 202.7 205.6 208.3 212.4 219.7 222.3 227.3 232.7 238.3 246.9 249.8 249 247.9 253.2 264 279.2 285.8 289.9 291.1 295.9 300.3 304.7 310.1 313.2 319.1 326 335.5 346.6 357.1 364.6 371.5 377.2 380 381.4 384.3 388 391.6 395.8 401.2 406.5 411.6 417.6 423.3 429.9 439.7 448 452 454.7 457.5 460.6 460.9 459.2 458.9 460.1 463.5 462.3 461.1 462.4 465.7 468 472.3 478.3 483 485.7 487.9 488.6 489.6 492.3 495 496 495.8 492.1 485.4 476.2 465.8 452 439.9 432.2 414 430.9 438.5 444.5 454.4 467.7 479.8 486.1 487 489.2 489.6 490.9 492.9 492.5 489.8 487.1 485.1 482.5 479.5 474.9 470.3 466.4 462.3 457.5 453.9 450.9 446.2 443.8 441 435.8 434.6 425.5 425.5 428 429.9 426.4 423.2 420.5 415.8 406.4 395.2 384.5 374.2 367.8 365.1 362.2 359.7 358.5 364.4 373 383.2 403.5 428.8 453.9 465.3 469 471.4 470.8 466 462.6 458.3 454.1 448.9 444.1 437.6 430.7 426.6 449.2 455.1 457.2 456.6 456.3 457.5 457.6 456.1 461.9 472.3 479.3 483.4 487.4 492.6 498.1 501.6 504.7 508.2 508.4 505.4 502.3 496.5 474.8
254 249.4 242.7 245.2 244.1 241.1 247.6 251.6 255.1 257.2 259 261.7 263.9 262.1 256.7 250.5 241.9 234.1 229.7 227.8 228.8 226 222.6 219.8 215 210.4 210.1 209.5 207.1 203.9 201.9 201.6 203.4 205.7 208.2 211.7 216.2 220.4 225.5 231.2 237.5 245.6 250.7 248.7 248.8 259.6 274.4 283.5 288 292.4 298.1 302.8 308 313.3 319.8 323.9 328.1 334.8 344.5 354.4 364.8 371.5 376.4 382.1 384.9 385.5 388.2 393.5 397.9 403 408.3 413.1 417.1 422.9 428 436.9 447.7 453.6 456.6 458.6 459.5 461 460.1 456.5 453.1 454.9 458.2 456.5 454 458.8 460.6 463 468.8 475.5 480.6 482.5 484.6 485.2 487.1 490.2 491.2 492.1 492 488.3 480.9 473.3 462.1 445.3 430.1 422.1 410.5 426.2 430.8 436.4 448 461.7 471.5 477.9 477 480.6 481.2 480.1 480 479.7 478.3 475.9 472.5 469.7 466.7 461.5 456.1 452.4 449.1 445.8 441.4 437.9 434.7 432.5 430.4 427 421.8 412.7 414.9 419.5 419.8 419.1 414.7 412.2 408.5 401.4 391.9 381.7 371.7 365.8 361.8 359.5 358 357.9 363.2 372 383.1 403.1 427 452.5 466.6 469.3 470.8 467.8 460.7 456.3 452.2 447.1 441.4 436.9 432.4 420.5 428.6 447.6 451.4 451.5 449.7 449.9 450.9 449.6 449.5 458.6 467.6 473.3 478.6 483.3 490.4 497.8 499.2 503.7 507.8 507.6 505.1 500.6 491.2 469.1
252.5 246.8 240.6 239.4 239.8 238.4 239.8 243.9 247.4 249 250.1 250.9 254.3 254 249.8 243.3 235.3 230.8 227.6 227.6 229.2 227.6 224.3 221.4 216.4 209.8 207 204.6 203 201.3 201.4 201.6 203.6 206.2 209.6 212.1 215.2 218.6 223.8 229.8 237.1 242.8 246.6 248.8 250.4 264.2 281.2 289 293 297.8 302.7 308.3 313.8 319.3 325.8 330.5 334.9 342.3 351.4 361 371.3 375.9 379.6 384.4 387.6 388.4 392.6 399.3 403.9 409 414.7 419.3 422.4 426.7 433 443.9 452.4 457.6 459.9 461.1 460.5 458.2 455.6 451.2 446.1 447.8 449.1 450.6 449.6 454.1 455.5 458 464.7 470.6 475.5 478.3 480.2 481.2 482.2 485.4 487 487.9 488 484.8 477.8 470.7 459.4 445.9 426.4 412.7 409.1 417.9 421.7 427.6 441.8 454.8 461.8 466.3 467.4 469.8 469.6 468.7 468.9 467.6 466.6 463.8 459.7 457.2 453.4 448.1 443.5 440.4 437.9 434.7 428.9 425.2 422.5 420.5 417.8 414.6 410.6 402.2 403.7 404.1 407.4 408.5 405 402.1 398.3 392.1 387.1 380.2 371.6 365.8 360.5 357.1 354.1 357.2 361.6 372 384.3 402.1 428.8 452.6 465.6 467.9 466.7 463.2 457.1 451.1 445.5 439.5 434.1 429.6 425.3 412.3 433.9 443.9 447.6 445.5 443.6 442 443.5 439.9 448.2 457.7 465.4 466.1 478.5 487.3 494 499 503.4 505.4 508 508 505.9 506.1 497.2 471
252.3 249.1 242.5 238.7 236.5 231.3 230.8 232.9 237.8 241.1 241.5 243.4 244.1 242.6 240.7 234.6 229.1 226.5 225.3 226.3 228 226.9 224.4 221.1 216.3 210.6 207.2 201.9 200.6 200.8 201.2 201.9 203.4 206 209.6 211.7 215.5 218.7 222.5 227.3 232.9 240.9 240.5 244.8 252.8 266.8 286 293.9 303.1 307.9 309.1 312.4 317.6 324 330.7 335.3 340.7 348.3 357.7 367.4 376.3 380.6 384 388.1 391.4 393 399.1 404.2 408.7 413.6 419.1 421.5 424.9 429 436.5 446.8 453.3 457.6 460.2 459.3 457.9 454.5 451 443.5 438.6 440.9 440.6 440.6 443.6 447.5 449.1 452.3 459.9 466.3 470.5 472.5 473.4 474.1 477.7 480.8 482.4 482.9 481.9 478.5 473.7 467.1 456.2 444.4 427.1 408.4 398.9 408.9 413.3 417.4 433.2 444.6 450.3 453.6 455 457.7 457.5 456.9 458.6 455.5 453.6 449 445.4 444.3 440.4 436.5 432.9 431.4 427.3 424.4 417 413.4 412.9 411.4 407.8 402.8 399.4 393.1 390.3 393 392.5 393.1 394 391.2 387.8 383.7 379.2 374.7 372.1 368.5 361.9 357.5 351.4 350.4 360.8 370.4 385.4 407 430.2 451.6 464.3 464.3 462.6 460.6 454.7 447.3 439.8 434.1 428.5 423.9 419.7 409 433.4 437.6 438.3 438.8 437.9 437.1 436.5 434 444.2 450 450.6 466.5 483.2 490.1 497 502.6 507.9 510.1 508.3 508 507.7 507.8 502.1 474
249.6 248.2 243 239.9 237 232.4 230.8 230.3 229.4 232.4 234.6 236.5 235.5 233.8 231.6 228.8 224.5 222.4 222.5 222.8 224 224.4 222.5 219.6 214.6 211 207.7 200.2 198.9 201.1 201.5 201.8 202.6 205.6 208.4 210.9 215.5 219.8 222.7 226.7 230.9 237.2 238.8 244.3 252.4 264.9 284.1 296.3 306.7 312 313.6 316.4 320.9 328.1 332.1 336.4 341.5 352.3 362.1 371.4 380.7 386.4 388.9 392.4 395.9 399.6 403.7 408.1 412 416.6 420.9 421.1 422.6 429.1 437.7 446.8 451.8 454 453.6 452.9 453.3 451.3 444.7 436.9 430.7 432 434.5 431.1 434.3 437.1 440 446.8 455.6 461.2 465.2 466.1 466.5 468.9 472.3 475.4 477.1 477.1 475.8 472.4 468.2 462.5 453.4 443.1 428.2 411.7 394.1 392.2 401.9 407.3 421.9 431.7 436.8 439.9 442.2 445.4 445.1 446 446.8 443.9 442.4 439.9 437.1 434.5 432 428 424.5 422 417.2 412.8 407.4 405.4 406 404.6 401.8 399.7 389.1 386 382.9 382.5 382.5 381.7 383.2 382.9 378.9 375 370 370.5 369 365.6 362.7 357.3 350.9 351.2 358.3 370.6 385.3 410.7 431.4 452.1 462.1 461.2 460 457.8 452.5 445.2 437.9 430.3 423.4 418 413.6 408.9 427.1 431.6 431.7 430.7 432.2 430.3 428.7 427.7 430.9 441.3 458.3 474.9 484.4 491.8 500.1 505.2 511.1 511.1 510.9 510.8 506.5 507.5 503.2 483.4
248.2 249.1 247 243.8 241.1 238.9 232.9 229.1 223.5 225.3 229.7 229.2 228.6 225.7 222.6 223.3 221.2 219.3 220 220.4 220.9 221.4 220 216 211 209.2 205.7 200.7 198.9 201.1 201.3 201.7 202.2 204.8 207.3 209.4 213.2 220.8 221.4 225.6 231.2 232.5 239.3 244.1 251.5 262.9 278 292.5 305.6 312.8 315.4 316.6 321 327.5 331.3 337 344.3 354 364.1 374.2 383.2 390.3 391.8 394.6 397.8 400.8 403.4 407.9 411.4 413.8 415.5 414.8 418.3 427.3 435.2 441.5 444.6 445.2 446.1 450.1 451.4 451.2 444.7 436 426.9 422.2 426.1 420.6 424.9 425.3 429.7 438.4 446.7 453.1 457.9 459.2 459.7 463 466.9 470.6 470.5 470.4 469.8 466.1 462 457.2 449.9 441.8 429.2 416.5 401.9 380.9 384 393.8 408 418.4 425 427.4 429.4 432.4 434.4 435.4 436.2 435.8 434 433.2 430.9 428.2 426.3 423.4 419.7 414.5 409.3 403.5 400.2 399.6 400.9 398 396.6 391.5 385 378.8 374.4 372.5 374.1 373 373.1 373.4 373.2 371.6 368.3 363.4 362 361.5 360.8 349.9 351.2 348.9 357.2 371.2 385.7 408.2 432 453 460.9 459.8 457.1 454.7 449.9 442 435.2 428.3 420.5 412.2 407.2 402.9 421.3 423.8 423.7 422.4 424.1 423.9 420.8 421.2 432.9 449.3 465.6 475.8 484.1 491.3 498 503.5 507 507.6 506.8 505.5 503.9 501.3 501.1 489.7
250.4 251 249.5 248.8 246.8 240.6 237.1 231.3 225.2 219 223.1 223.1 222 218.9 215.9 216.7 218.2 215.3 216 217.5 219.4 220.9 216.9 211.4 209.7 208.5 203.5 200.2 198.9 198.9 200.2 201.1 201.7 203.4 206.2 209.3 212 216.9 219.4 223.2 226.4 229.7 237.5 242.8 249.8 258.6 273.6 286.1 300.5 309 312.2 313.5 316.4 321.1 326.7 332.8 343.3 353.6 363.9 374.3 383.1 388.9 391.1 393 394.7 394.8 398.7 401.4 400.1 400.3 400.7 405.8 409.5 419.7 429.7 434.3 436.6 437.4 441.2 448.2 449.7 450.9 445.2 436.8 425.9 417.8 416.5 411.4 417.7 408.9 420.7 428.2 433.7 440.1 446.8 451.5 452.3 456.7 459.6 462.7 464.6 464.5 463.9 460.5 456.8 452.7 447.3 439 427.9 417.7 407.1 392.3 370.5 376.8 389.6 398.7 407.7 410.2 416.7 419.8 422.8 426.5 427 428.2 428 427.7 426.4 424.8 422.4 419.6 415.6 409.6 403.5 400.1 397.7 390.9 391.8 389.7 384.9 380 373.7 369.1 369.2 366.6 362.1 362.8 364.8 366 366.8 365.6 363.3 359.1 357.2 355.9 355.4 350.7 348.7 348.5 355.3 368 383.9 404.6 428.7 448.9 455.3 455.4 453.6 451.8 447.3 440.1 431.9 423.9 416.4 409 400.9 399.7 411 412.4 413.6 415.6 417.8 420.3 419.4 423.8 439.2 453.4 464.6 474.1 482.8 488.6 492.5 497.5 499.9 500.8 500.3 501.2 499.5 498.5 498.4 493.4
250.1 251 252.7 253.3 250 245.4 241 233 226 219 219 218 216.6 214.5 211.6 210.6 211.4 209.8 211.8 213.2 213.4 215.1 211.4 209.9 211.1 208.9 205 200.8 199.8 198.9 198.9 199.1 200.5 202.5 205.4 208.6 210.8 214.1 217.5 220.7 223.5 227.1 233.1 241.2 246.6 255 270 281.1 294.6 302.3 307.4 308.2 310.4 314.4 319.8 329 340.1 350.2 360.9 371.2 377.7 381.2 384.1 387.5 387 384.7 384.3 385.5 383.5 385.4 389 395.9 401.8 410.5 418.6 424.9 429.2 432.4 438.8 444 448.4 446.4 442.6 435 422.8 412.6 409.5 404.9 410 402.5 410.9 416.3 422.4 428.5 434 438.9 444.7 450.7 453.9 455.1 457.9 458.9 458.8 455.9 452.9 448.6 444.2 436.1 424.5 414.4 406.8 397.5 383.8 368.8 372.4 379 386.9 395.6 401.6 407.8 412 415.7 419.1 421 422.6 423.5 424 423.2 421.8 420.6 416.9 409.8 405.9 400.6 399 397 389.8 383.4 381.7 380.3 379.7 371.9 370.2 365.4 360.5 358.9 358.7 360.2 359.9 361.3 360.7 359.6 355.1 352.2 349.7 348.3 346.4 346.9 353.9 364 381.1 400.5 423.9 440.5 448.5 449.8 451.3 448.6 444.7 438.6 430.1 421.6 413.5 404.5 395.9 393.4 399.9 403.8 404.4 407.9 412.7 414.5 412.3 427.7 443.5 452.5 463 472.8 480.4 485 487.7 489.5 492.1 492.7 492.9 493.1 492.6 492.5 492.9 491
248.2 251 253.9 256.1 251.2 246.6 240.6 233.4 224.4 220.9 219.8 212.4 211 211.1 209 208.9 209.3 208.8 209.7 209.5 209.7 209.6 208.2 209.7 209.2 207.8 207.4 201.9 198.8 198.8 198.8 199.1 200.2 201.9 204.4 207.1 208.6 210.8 213.9 218.4 221.1 225.3 230.5 238.2 242.5 246.2 256.2 271 282.5 294.2 300.5 301.7 305.1 310.6 315.1 324.1 332.9 343.7 353 360.9 368.2 371.2 374.1 377.7 377.1 374.8 373.1 373.4 372.3 376.4 379.9 387.7 396.4 402.5 409.4 414.9 422.5 429.1 436.6 441.3 446.4 444.9 439.5 433.4 422.1 412.9 409.1 397.8 399.7 394.7 403.4 403 410.1 416.1 422 428.8 435.9 441.1 446 446.1 451.3 453.5 453.7 452 449.8 445.8 441.1 433.5 423.1 410.3 402 396.1 384.8 370 358.3 365.2 371.4 377.1 382.6 386.1 394.2 404.1 411 414.7 416.6 420.1 422.3 422.5 422.1 419.3 418.4 409.8 408.6 408.1 410.2 410.6 407.7 403.7 399.4 394 388 378.9 373.1 369.5 364.2 360.4 358.5 351.8 351.5 354.2 360.4 358.9 353 349.6 347.7 345.4 343 344.2 351 360.9 376.9 395.6 417.4 435 439.9 443.2 444.8 444.5 441.7 436 427.9 419.8 411.7 403.3 394.8 389 391.9 396.8 397.1 402 407.5 404.5 415.9 428.4 439.7 449.8 459.2 467.4 475.1 480.2 482.9 484.9 486.8 487 486.9 487.3 487.2 487.3 486.3 485.9
244.2 249.1 250.5 253.5 249.8 244.4 237.8 231 223.2 221.1 218 211.3 208.9 208.6 208.4 208.9 209.1 208.2 208.8 206.6 206.4 204.9 203.2 203.9 204.3 204.4 204.1 200.6 198.8 198.6 198.6 199.5 199.7 201.3 203.3 204.7 206.1 208.4 209.9 217 220.8 224.9 227.9 231.8 235.1 237.5 245.4 257.5 271.7 284.5 290.5 293.1 297.8 303.2 309.6 316.9 325.3 335.8 342.8 350.1 356.5 359.2 361.1 362.5 365.3 363.8 360.3 360 361.1 365.7 372.8 381.4 387.9 393.7 399.7 408.5 422.7 430.7 437.8 442.1 446.5 443.3 438.3 432.1 423.7 416.3 408.7 399.6 383.8 385.2 394.8 393.2 394.5 400.3 405.2 415.9 420.1 430 433.5 437.3 443.1 447.1 447.9 447.4 446 442.6 438.6 431.5 423.3 412.2 399.4 388.7 380.8 370.5 360.6 349.7 356.7 364.7 367.4 371.8 377.3 386.8 397.1 405 410.3 414 419.5 422.1 421.3 420.9 421.1 419 415.8 417.4 422 423.6 421.9 419.4 415.3 409.1 397.6 389.8 380.3 375.2 368.7 363.4 361.5 357.6 350.8 349.3 349.4 351.8 351.2 346.5 344.5 342.7 340.9 341.6 347 356.8 372 387.9 409.8 426 433.9 436.1 438.9 439.6 437.7 433 425.9 418.7 411.2 403.8 396.4 389.5 387.6 386.7 390.5 397.7 401.8 399.3 417.5 428.2 437.7 446.8 453.2 459.1 464.3 471.7 475.7 478.6 481.6 482.7 483.2 482.8 482.5 481.6 479.6 477.6
242 247.4 251 249.5 245.5 239.9 232 226 222 220.2 216.4 211.5 208.7 208 208.3 208.8 208.5 207.7 207.3 205 203.5 202 199.5 199.7 199.8 200.6 201 201.1 198.8 198.6 198.7 198.9 198.9 201.1 201.1 202.2 203.5 206.1 208.7 214.9 221.1 224.1 225.9 225.8 224.7 229.2 236.3 249.3 260.9 271.8 279 283.8 288.8 298.8 304.2 308.4 318.3 327.9 336.2 342.6 346.4 349 351.3 352.5 351.7 350.4 349.9 350.9 349.5 353.4 363.2 370.1 373.7 384 401.1 412.2 422.5 432 438.8 444 447.2 446 441 435 427.7 418.7 408.3 397.2 387.8 378.4 383.2 383.3 382 383.6 391.1 397.4 407.9 418.8 423 427.9 434.6 438.9 441.7 442.2 442.6 441.7 438.7 432.1 425.3 416.5 405.9 393.1 376.8 369.2 359.9 355.7 348.1 349.4 352.3 358.4 366.1 371.4 381.5 389.6 401.5 408.5 415.2 420.2 420.8 420.5 420.9 419.6 423.6 428.3 430.2 431.4 431.4 429.4 427.3 423.1 413.7 403.6 395.2 384.4 375.5 369.6 365.5 361 355.1 349.9 344.8 340 343.5 342.3 340.6 339.7 339.7 339.3 343.6 350.4 363.8 379.2 401.8 416 425.5 430 433.4 434.3 433 430.6 423 416.1 409.9 404.1 397.9 388.7 381 380 380.9 390.3 390.6 400.7 416.3 426.6 434.4 441 444.2 448.5 453.7 461.5 466.5 470.3 475.6 477.8 478 476.5 474.8 473 470.2 466.6
238.8 242.3 248 244.2 239.2 233.2 226.1 220.2 215.6 213.9 210.3 209.3 208.8 207.9 208.3 208.7 207.9 207.1 205.9 203.5 202.1 201.1 201 199.3 198.9 199.6 201.1 199.4 199.3 199 198.8 199.5 199.2 201.1 201.1 199.8 201.3 204 207.6 213 219.9 222.2 223.1 220.8 219.3 222.9 232.9 244.5 254.5 262.1 268.2 275.5 281.7 291.4 296.2 302.6 310.3 322.2 330.4 336.6 338.7 339.6 341.3 340.8 337.1 337.7 338.9 334.8 337.1 346 358.2 372.8 387 399.8 407.7 416.9 426.4 434.7 441.6 447.6 450.6 448.9 444.8 438.8 430.5 422.1 411.3 400 387.7 377.1 369.4 373.9 370.8 368.7 375.3 381.2 391.1 401.5 408.7 418.4 423 429.9 433.7 435.4 438.4 441.2 439.7 433.7 426.9 418.3 408.9 396.7 380.6 369.7 363 355.7 349.3 338.9 343.8 350.6 356 359.9 372.9 386.1 396.9 404.9 410 416.3 419.9 420.5 423 425.4 430.5 435.1 437.2 438.6 439.7 438.8 436.7 434 430.3 423.4 409.6 396.6 388.3 379.6 372.9 365.4 357.5 353.9 347.1 341.3 339 340.1 338.9 336.9 336.2 336.6 339 344.9 354 368.9 389.2 407.4 417.6 422.6 426.6 428.5 428.4 425.6 418.7 412.4 407.5 403.6 398.4 393.4 386.1 379 378.4 380.8 388.1 402.4 413.6 422.3 430.5 435.9 436.1 438.9 444.3 450.5 457.8 464.4 471.6 473.8 472.5 469.4 464.8 461.7 458.3 456.1
233.9 237.8 241.8 238.5 232.6 226 220.4 214.9 210.7 209.3 208.9 208.6 208 208.6 209.6 209.1 208.9 208.4 206.8 204.3 202.1 201 200.6 200.1 199.4 199.3 199 199.3 199.1 199 198.9 198.9 200.7 200.7 201.1 198.9 198.9 200.7 204.5 208.8 213.5 217.3 219.1 217 214.3 218.3 230.8 239 247.1 255.9 264.4 271 276.4 284.4 286.2 292.2 306.1 318.1 325.8 330.5 331.7 332.1 330.4 327.5 325.3 323 320.4 330.9 340.9 353.7 368.7 385.1 397.2 406.3 413.7 422.7 431.9 438.6 446.1 451.1 454.8 454.1 451.8 445.5 436.2 427.1 419.4 405.3 393.6 381.3 376.4 366.8 360.5 358.9 363.9 368.7 377 385.9 392.7 403.5 406.5 418.1 421.1 426.8 431.8 436.7 438.6 434.9 429.2 422.9 413.9 402.6 389.1 375.6 365.4 357.4 351.7 340.3 336.9 340.8 342.4 357.2 373.3 384 395.7 402.7 407.5 411.9 417.9 422 425 429 436.6 440.8 442.7 444.6 445.7 446.5 445.8 444.5 441.5 435.5 426.3 415.6 406.5 389.4 382.8 372.6 365.2 358.7 350.9 344.2 339.7 338.5 337 334.5 333 332.5 334.6 340.1 348 361.1 379.3 397.6 410.7 415.9 419.7 423.3 422.7 420.9 414.1 408.7 406 403.4 397.7 392.1 386.6 378.6 373.7 380 390.3 402 409.4 418 427.6 431.2 431.9 434.1 438.6 445 451.7 460.2 469.1 471 468.6 463.4 458 452.6 447.8 443.4
229.5 232.8 234.5 232.6 226.8 220.1 215.1 210.7 209 208.4 208.4 208.7 209.3 213.3 215.6 215.5 214.6 212.3 208.5 205.7 203.3 202.1 201 200.7 200.3 198.9 199.4 199.1 199 198.9 199 198.9 199.2 199.2 198.6 198.9 199 199.1 200.4 204 207.3 210.2 211.9 209.3 209.3 216.1 226.3 232.7 239 252.9 260.4 265.3 269.9 275.7 275.7 285.7 304.1 314.5 322.3 324.2 324.2 325.5 323.6 318 310.5 316.4 327.2 339.1 352.4 363.4 374.9 390.8 402.5 410.2 419.1 429.8 438 444.9 450.6 455.5 459.5 460.5 459.2 452.5 441.8 432.2 420.6 413.5 400.7 392.1 386.2 374.4 364.1 358.8 357.9 358.4 363.5 370.9 378.9 386.3 398 406.3 406.9 414.8 422.6 431.5 435.1 433.1 431.2 427.7 419.6 410.4 397.5 383.7 371.6 361.6 353.2 345.5 338.7 329.6 342 357.4 373.2 386.2 396.4 402.8 408.2 414.7 419.5 423 426.7 433.2 440.7 445.7 447.6 449.4 452.2 453.5 453.9 453.7 449.9 444.8 439 431.3 410.6 408.5 398.2 385.4 374.4 363.8 354.9 348.8 342.7 338.7 335.2 332.2 330.2 331 331.9 335.4 343.1 353.3 369.1 386.9 402.3 410.4 415.4 418 417.8 414.9 409.6 406.6 404.1 402.6 397.8 389.3 381.8 375.7 371.9 379.7 390.1 399.4 406 415.4 424.6 430.6 428.3 429.6 433.7 440.2 447.6 456.9 467.1 468.7 464.3 458.4 451.8 446 437.9 432.6
224.8 226.3 226.6 223.7 220.2 216.7 212 208.4 208.5 208.4 210.3 216.1 218.7 220.5 222.3 222 222.1 219.5 212.9 208.7 206.7 206.4 205.2 205.5 204.7 203.7 203.5 200 199 199.1 199 198.5 198.6 198.6 198 198.8 198.9 198.4 198.1 201.3 202.3 205 206.5 207.5 208.7 215.2 222.5 229.5 240.4 249.6 255.3 260.1 266.3 271 270.2 286.9 301.4 311.3 319.5 319.2 319.2 319.5 317.1 309.1 300.3 318.8 332.7 345.7 357.4 367.6 380.3 396.7 407.4 415.8 424.8 435.7 444 450.8 456.3 460.8 464.3 466 465.9 459.1 451.6 442.4 434.8 423.3 413.9 403 391.6 378.8 369.2 361.9 354.3 350.3 356.2 360.8 366.3 371.5 382.1 388.6 398.2 403.4 413.2 423.9 430.7 430.9 431.2 427.8 422.1 413.9 403.6 392.9 381.9 371 359.6 351.4 347.8 339.7 328.9 352.4 373.3 387.6 397.6 406.7 414.6 420.6 423.4 427 430.1 437.5 445.3 450.3 452.4 454.6 457.7 460.2 460.6 459.5 456 452.2 446.7 439.6 430.8 426.6 415.1 400.8 383.8 372.1 363.2 354.8 346.9 340.1 335.8 331.1 330.1 330.4 331.1 333 337.4 345.8 356.7 374.5 391.3 403 409.2 412.5 412.8 410.7 406.8 403.9 401.4 399.2 393.6 387.1 378.9 371.7 370.2 377.6 386.2 397.1 404.4 411.3 417.1 421.7 423 425.8 431 437.4 444.4 453.8 461.7 463.1 460.8 453.2 447.3 438.8 430 418.8
219 219.7 219.9 216 213.1 211.3 209.2 206.6 207.2 210.4 215.4 220.7 225.5 228 228.4 229.3 228.6 226.1 219.4 213.6 209.5 209.5 209.5 210.3 209.2 209.8 210 205.1 201.1 198.9 198 197.9 197.9 197.7 197.1 197.5 198 198 198 198.4 198.9 200.6 202.4 203.7 207.2 213.2 220 227.3 235.5 243.8 251.9 259.1 264.3 265.3 272.2 287.4 301.1 308.3 313.4 313.9 314.1 313.9 308.4 299.6 306.9 321.8 334.6 344.8 357.9 370.5 386.4 402.1 413.2 422.1 431.7 441 448.7 454.8 460.2 465.8 469 469.8 470.8 464.6 458.4 453.9 449.3 437.6 430.4 414.6 401.3 386.6 374.2 364.7 355.6 349.9 349.3 352.3 356.5 360.7 368.8 378.3 387.8 391.6 403.9 415.7 421.3 423.7 424.7 424 421.4 414.9 406.5 397.2 387.1 376.4 365.7 356.9 351.5 343.4 328 348.1 373 388.6 399.3 407.1 419.5 421.3 422.9 426.4 432.4 440.7 448.1 453.6 457.5 459.5 460.9 462.7 462.8 462.1 459.7 455.9 451.9 446 442.8 436.5 429.2 417.2 402.7 388.7 372.5 359.2 350.4 343.6 337.1 331.6 330.1 330.6 330.8 330.8 332.7 338.7 347.9 360.8 379.1 395.2 403.2 407.5 408.6 407.5 404.4 400.4 398.1 393.2 388.4 382.4 374.2 370 369.2 375.5 382.1 390.8 398.4 404.6 410.2 412.6 418.4 423.8 429.1 435.6 442.2 451.2 460.6 461.2 458.6 451.3 444.1 435.2 425.2 411.4
210.6 212.1 212.3 210.8 209.2 208.8 208.1 206.7 208.2 211.6 218.8 224.4 229.9 233.8 237.2 239.6 234 230.4 223.1 218.8 213.2 209 211.1 210.9 210.2 210.3 210.9 209.6 205.1 199.9 198.4 197.8 197.8 196.1 196.1 196.1 196.4 196.8 197.2 197.3 198.2 199 199.1 201.8 206.1 212.2 217.9 224.6 232 240.3 249.2 256.6 260.1 259.1 267 279.3 295.4 305 308.2 306.3 308.9 307.9 302.3 288.8 303.6 321.2 333.3 344.1 360.1 373.7 390.2 405.8 417.6 429.2 439.5 446.1 453 458.8 464.9 470.2 473 474.2 473.2 469.9 466.4 462.8 458.8 454.3 444.4 432.8 414.8 399.5 385 373.6 361.5 350.4 348.1 348.4 348.8 351.9 357.2 363.9 373.7 379.6 390 404.8 411.3 414.6 416.4 414.8 414 410.7 405.5 396.2 384.3 375.3 365 354.9 347.9 340.5 320.9 345.8 370.7 391.7 399.5 408.8 421.1 421.1 420.7 425.8 433 440.7 447.1 452.2 457.9 461 461.3 462.1 463.1 463.1 461.2 458.2 455.7 452.3 448.9 444.5 438.9 432.2 421.4 405.5 388.5 368.1 355.2 346.2 337.6 331.2 329.4 329 329.3 328.9 328.5 332.9 340.2 350.1 366.1 384.5 396.4 403.3 405.8 404.5 401.1 397.6 394 390.1 383 376.7 370.6 366.8 367.6 370.9 377.1 382.4 387.4 393.6 399.8 409.6 415.3 421.8 426.1 432.4 441.2 451.7 460.6 459.5 453.1 447.5 440.4 434.5 425.8 412.4
209.3 208.9 209 208.3 208.3 208.7 207.7 208 210.9 215.1 220.8 226.9 232.5 237.3 240.3 240.3 234.7 228.1 223.9 219.3 212.2 209.3 209 210.1 210.7 211.4 211.8 210.5 207.8 202.8 199.5 198.7 197.2 196 196 196 196.1 196.4 196.9 196.8 195.9 196.3 196.6 198.7 203.5 209.9 215.3 222 230.3 238.4 244.9 252.8 256.1 253.3 264.8 278.6 290.6 300.7 302.8 299.7 301.6 300.1 295.9 282 300.1 317.2 331.4 343.8 362.4 378.3 395.5 409.2 421.6 433.6 443.5 449.4 455.3 462.9 469.8 473.6 476.6 477.8 476.3 475.2 473 469.2 467.2 464.1 458.2 449.4 436.7 417.9 400.5 386.5 372.1 360.2 349.7 344.7 339.5 343 347.2 353.2 361.4 367.7 375.1 389.2 401.2 403.8 405.5 405.7 405.6 403.9 399.3 386.5 375.9 369.8 361.6 349 342.1 333.7 318.9 344.1 367.4 386.1 395.2 403.8 412.2 416.5 418.3 425.7 434.6 441.3 446.2 450 454.4 459.1 460.8 461.1 461.6 462.4 462.2 461.2 458.8 457.3 455.5 451.9 446.8 440.3 433.1 422.9 407.8 386.8 367.3 348.8 339.4 333.4 328.6 326.8 327.3 327.5 326.4 327.9 333.7 342.8 354.6 370.3 387.8 397.7 403.5 403 400.1 395.3 390.9 386.3 380.4 373.3 367.7 363.9 363.8 367.1 370.2 375.9 380.2 386.5 396.8 405.5 411.8 417.6 423.9 432 445.5 454.8 458.9 456.9 449.9 445.7 441.4 435.8 430 421.4
212.5 210.5 209.3 208.6 208.4 208.2 208.1 209 214.4 219.1 224.3 228.9 236.9 239.1 236.8 233.7 228.2 221.9 219.8 216.6 211.9 209.1 209.5 210.3 212 213.8 214.8 213.2 212 208.9 205.5 202.4 199.3 197.1 196 196 196.4 196.7 196.5 195.8 195.1 195.1 195.1 196.4 200 206 211.7 219.1 227.7 235.6 240.9 250.1 250.1 248.7 261.3 274.2 286.1 296.2 300.5 294.6 291.8 291.2 287 280.8 297.1 315.8 328.7 343.8 363.9 381.2 398.8 412 425.4 436.4 445.2 450.8 457 463.7 470.5 474.9 478.3 480.9 478.7 479.5 477 474.7 472.8 471.2 469.4 462.8 452.8 440 421.2 404 387.7 373.8 362.7 353.1 341.9 338.7 339 342.7 349.8 356.1 362.4 373.7 385.1 389.5 393.2 394.1 396.3 395.6 389.9 378.2 368.9 361.4 354.7 343 334.5 321.7 321.9 346.1 362.9 377.3 389 399.9 408.2 410.7 414.3 424.2 433.8 440.3 444.8 448.1 451.5 455.7 458.4 460.8 461.5 462.3 462.1 462 462.1 461.1 459.7 457.4 453 447.2 440.7 432.3 421.5 404.1 383.3 361.1 346.9 338.2 329.7 326.5 327.1 326.7 326.3 326.5 330.3 335.6 345.3 357.8 375.1 390.9 402.2 402.9 400.2 396.5 390.2 384.5 375 369 365.1 361.8 360.3 362.4 365.5 368.6 373.8 383.1 392.3 400 406.3 414.6 423.6 434.4 449.9 456.8 459.8 454.3 447.9 443.8 439.7 436.5 432.9 427.1
218.9 217.7 213.2 212.4 211.9 210.4 209.7 210.7 217.4 221.7 227.1 233.3 240 238.9 234 230.4 224.8 219 218.5 217.6 214.4 212.5 211.5 213.4 215.2 217 219.5 219.8 217.6 214.4 211.2 208.2 203.3 198.9 196.4 196.7 195.1 195.8 196 195 195 195.1 195.1 195.2 198.4 203.6 210.7 218.5 224.7 233.8 239.3 242.8 243 240.7 258.8 271.3 283 290.9 294.1 288.1 284.1 282.9 278.2 279.1 294.8 314.2 325.6 344.9 364.9 382.2 400.3 415.4 428.2 438.3 446.4 449.8 454.6 463.2 470.9 475.3 479 481.3 480.9 480.7 480 478 477.5 478.5 476.4 472 463.1 455.1 443 424 406.4 388.8 376.6 364.7 352.1 346.4 340.3 339.5 332.9 341.8 350.9 358.6 369.7 374.7 379.6 382.9 383.9 383 379 373.1 362.6 353 346.2 337.8 328.2 318.5 325.6 348.6 363.9 373 385.2 398.3 407.4 410.1 409.7 420.7 431.8 438.1 442.7 446.2 449.6 452.3 455.2 458.9 461.1 461.7 462.4 463.3 464.1 464.4 465.3 462.1 457.6 452.9 447.5 439.8 431 419.6 398.2 377.7 358.5 346.3 336.9 329.7 326.5 326.3 326.2 326.3 327.8 331.6 336.7 347.6 362.4 379.7 396.6 403.9 401.8 399.1 393.7 386.9 377.7 369.5 364.4 359.8 358.4 359.7 360.8 364.2 370.7 379.3 388.1 396.9 405.4 413.7 427.2 443 452.8 457.1 455.7 449.2 445.5 442.1 439.4 436.9 434.7 432.6
223.5 222.8 221.5 220.2 218.8 218.2 218.5 219.7 220.9 224.3 229.8 231.3 235.5 234.7 232.2 228.9 221.6 219.5 219.7 219.1 219.2 217.5 216.3 216.7 219 221.3 224.3 225.2 223.6 219.8 216.7 214.4 209.7 204.2 200.5 197.1 195.3 195.3 195.4 194.6 194.8 195 195.2 196.3 197 201.8 208.4 221.8 230.6 232.2 235.2 235 232.1 241.2 256.7 268.8 279.6 287.3 289.8 283.7 278.9 277.4 270.1 276.3 295.3 311.2 322.4 343.4 365 382.8 401.9 417.1 428.9 437.7 442 445.5 452.9 462 469.9 475.4 479.7 482.1 483.1 484.8 484.1 482.7 480.7 480.8 479.7 474.9 469.3 461.7 452.6 441.9 425.9 406.6 394.4 380 366.5 356.9 349.8 349 340.4 328.5 339.9 347.7 355.5 360.3 367.9 371.4 373.6 371.3 368 363.4 352.7 345.1 338.3 333 323.7 317.4 326.6 346.5 361.7 368.2 379.5 391.8 399.7 402.4 408.5 419.5 430 436.2 440.2 443.6 446.4 449.1 452 455.5 458.1 460.2 461.1 462.9 464.5 467.9 469.1 467.5 460.9 456.5 452 445.3 437.9 428.3 415.6 396.7 379.1 361.7 346.8 338.3 330.4 326.4 326.2 327.5 323.7 327.8 333.8 343.1 354.9 370.1 391.1 404.4 403.9 401 397.2 391.2 380.8 371.6 363.7 359 357.5 358 358.8 364.4 372.1 380.8 390.7 398.9 414.1 426.3 442.9 451.2 451.4 453.1 449 444.3 441.5 439.2 438.1 438.3 438.2 437.5
229.8 230.1 229 227.5 224.8 224.9 225 225.3 225.6 227.3 229 230.7 229.6 230.5 229.9 225.7 219.5 219.1 222.2 224.9 225.3 222.2 219.6 220.9 222.1 226.9 229.7 231.1 229.6 225.9 222.7 221.3 217.8 211.6 205.7 198.1 195.1 194.8 194.7 194.5 194.6 194.8 194.7 194.8 196.1 201.1 207.1 216.7 228 231.5 230.5 228.7 228.3 241.4 256.4 268.3 279.5 283.8 283.6 280 272.4 272 269.5 276 290.4 305.8 319.6 343.7 364 382.3 399.3 414.1 425.9 434.5 437.7 442.6 453.2 462.5 469.3 474.9 480.2 482.9 485.1 487.8 488.4 488.8 486.9 485 481.6 477.1 472.2 464.9 457.1 448.9 437.4 420.4 408.1 392.4 376.4 365 355.5 353.8 349.5 330.3 331.5 340.3 344.5 348 355.1 361.3 365.2 363.9 358.3 352.5 344.9 336.7 332 327.4 321.3 310.9 324 337.5 354.2 364.1 374.8 385.2 390.9 397.8 405.3 415.3 426.4 433.7 437 439.8 443.4 446.2 448.1 451.3 453.7 456.2 459 462.2 464 469.1 469.2 467.7 460.1 457 453.2 448.7 442.6 434.7 425 413.6 397.7 378.6 359.8 349 337.5 329.2 327.3 322.1 320.8 324.5 332 339.6 349.4 363 377.9 397.6 402.6 401.3 399.8 395.4 387.6 374.7 365.4 359.1 356.4 357.7 359 370.3 382.1 393.4 403.9 418.1 430.6 444.7 451.1 449.4 450.3 443.9 438.3 435.7 434.9 434.1 436 438.7 440.8 439.9
235.9 235.8 235.4 233.9 231.5 230.7 231.2 229.3 228.4 228.3 228.6 228.9 228.7 228.7 221.9 219.9 219.5 223.4 227.7 231.3 231.2 228.9 226.8 226.2 230.2 234.3 236.5 237.5 234.7 232.5 230.7 227.5 225.5 220.9 216.2 204.9 196.1 194.3 194.1 194.3 194.5 194.5 194.3 194.1 194.8 198.5 204.3 212.5 222.8 229.5 227.1 221.3 225.9 243 257.2 268.6 279.3 282.6 281.9 279.1 271.8 264.7 263 276.3 286.8 300.1 315.9 342.2 361.5 379.9 395.8 410.2 423.4 430.7 433.5 441.9 453 461.8 468.8 474.6 479.4 482.3 485.9 488.4 489.6 491.1 489.2 486.8 483.2 478.9 473.6 466.7 459.1 451.7 442.3 430.6 419.6 401.6 383.3 368.5 360.5 358.6 350.4 335.8 328.4 327.4 334.8 338.7 344.6 352.1 355.5 355.8 350.8 343.9 335.7 329.5 324.3 321.5 316.9 309.4 319 330.6 348.4 357.9 366.7 376.4 389.8 394.7 398.8 408.9 424.2 431 432.5 436.5 439.9 442.7 444.7 446.8 448.9 451.4 454.4 457.7 461.5 465.7 464.5 461.2 456.3 453.1 451.5 449.2 444.3 437.7 430.6 421.1 408.4 394.9 377.8 359.8 346.2 336.6 329 323 319.8 319.5 328.5 335.8 344 354.5 369.1 384.3 397.2 401.8 402.3 399.6 393.7 380.1 366.7 357.9 352.6 351.6 357.8 373.2 390.9 407.1 419.2 433 446.1 451.3 449.1 444.7 440 430 429.2 424.1 425.4 428.1 431.5 436.9 441 443.1
240.1 240.7 239.8 239.9 234.7 231 230.2 228.9 228.9 228.8 229 228.7 228.6 228.9 226.1 224.3 224.9 230.2 233 236 234.9 231.9 232.6 232.2 236.3 241.2 245.4 245.2 242.1 240.3 244.1 242.4 235.7 231.4 226.6 212.5 199.7 194.6 193.9 194.1 194.3 194.1 193.9 193.8 194 197.2 202.5 210.2 216.8 221.9 220.6 218.8 223.3 243.7 257.1 269.7 278.8 282.6 281.9 278.1 271.4 259.4 266.6 275.5 282.7 294.9 310.5 335.3 357.2 375.7 391.2 405.6 417.3 423.7 429.1 439.1 450.5 459.9 467.3 472.7 477.6 480.3 483.7 486.8 489.4 490 489.3 487.5 484.7 480.2 474.7 467.5 459.8 452.4 444.9 435.1 422.8 409.4 393 375.5 365.5 360.8 349.1 341.6 336.2 326.7 320.2 331.1 337.3 341.4 345.1 346.3 341 334.6 328.3 323.5 317.6 313.7 311.3 309.2 313.8 325.2 345.8 365 376.9 378.8 382.7 388.2 393.8 403.6 415.4 422 429.9 433.3 435.5 438 439.9 442.1 444.1 445.5 447.9 451.7 456.2 459.7 457.6 452.6 449 447 446.3 445.8 442.8 438.3 432.9 425.3 415.7 403.4 389.6 370.8 354.1 343.4 332.7 325.5 319.8 318.8 326.9 333.7 339.7 348.7 360.4 378 390.8 401.4 404.8 405.2 397.8 384 367.9 358.1 350.9 349.1 357.6 374.1 395.7 418.1 433 445.8 449.5 448.5 443.5 435.9 424.1 420.7 417.6 415.4 416.9 421.5 428.3 434.1 440.3 444.8
242.5 247 244 239.7 235.1 230.5 229.2 228.7 228.5 228.4 229.2 230 231.9 233.8 234.1 231.8 231.6 236.2 237.9 240.9 237.2 235.7 239.2 240.5 247 251.3 257 257 257.2 262.9 264.8 255.8 243.7 244.3 231.2 209.3 200 194.2 193.9 193.9 193.9 193.8 193.6 193.4 193.3 196.1 199.8 206.3 212.7 216.9 216.2 217.9 227.3 245.5 257.2 269.5 277.9 281.1 280.9 277.5 271.7 262.7 260.2 272.4 277.6 286.2 304.1 329 351.8 369.1 385 397.5 407.7 416.2 425.5 436.5 447.7 457.5 465.2 470.7 475.6 478.5 481.8 485.1 488.2 488.5 487.1 485.7 484.2 480.3 473.9 466.5 459.1 452.6 445.2 435.1 424.3 411.8 399.2 381.8 368.9 356.7 344.1 340.5 337.2 332.2 321.1 324.2 330.8 333.7 335.7 335.2 332.7 327.6 321.5 316.8 311.1 307.2 303.1 305.6 312.2 318.6 337.3 359.9 378.2 387.7 379.2 377.8 389.6 402.1 410.4 416 420.9 425.9 426.9 430.6 431.7 434 435.9 436.4 437.7 441.6 445.4 447.8 448.1 444 440.5 440.1 440.5 440.3 439.4 436.8 432.2 426.1 419 408.6 396.1 378.9 362.4 349.1 337.7 328.1 320.6 318.5 328.9 332.8 338 346.6 354.9 368.7 385.9 397.5 406.9 409.1 403.8 388.1 369.4 358.9 351.2 349.2 354.2 372.3 399.8 423.5 443.9 451.4 450.6 440.2 434.4 420.9 415.3 412.5 408.6 408.6 411.7 418.6 424.9 433.3 440.3 444
240.5 243.5 240.9 239.3 234.9 231.1 228.8 228.4 228.4 228.6 231.3 234.8 238.3 240.6 241.1 237.4 237.2 241.6 244.2 244.4 246.4 251.9 259.1 258.8 266.5 273.6 275.9 278.5 279.1 279.5 273.5 259.9 253.9 248 229.9 213.9 203.7 197.1 194.5 194.2 193.4 193.3 193.4 193.3 193.2 195.2 198.4 203.2 209 210.3 210.8 218 232.5 246.8 257.8 267.9 275 278.7 279.4 277.2 272.9 263.9 251.4 265.6 268.4 279 294.5 320.4 342.9 361 376.2 388.6 399.1 409 422.1 433.1 444.8 455.5 463.5 468.9 474 477 480.6 483.3 484.7 485.4 483.8 482.4 482.1 479.7 472.4 464.9 458 451.5 443.5 433.1 422.9 411 397.9 384.9 366.9 351 339.1 334.4 335.4 331.8 323.5 313.2 325.3 327.1 327.8 327.9 325.3 320.8 316.2 310.5 305.9 302 299.1 302 308.9 314.8 327.4 346.7 363.8 378.6 377.8 369.7 377.3 393.3 405.4 411.4 414.2 415.3 417.7 420.8 422.8 424.3 424.4 425.5 426.1 429.6 431.4 431.4 432.4 432.5 432.2 433.3 433.9 433.2 433.1 433.1 430.7 425.8 419.1 410.2 398.1 383.3 367.2 352.4 339.2 329.6 321.8 321.5 331.1 331.4 337.5 344.1 350.8 363.9 380.3 394.1 403.6 411.8 411.2 391 370.9 360 351.5 349.2 350.4 368.8 396.2 425.8 445.1 447.1 440.6 433.2 422 414.5 411.4 407 401.8 402.9 406.9 413.9 424 433.7 440.5 443.3
238.8 239.9 239.2 239.1 234.1 230.6 229.1 229 229.6 230 234.7 239.1 242.4 247 247.9 244.3 243.2 246.6 252 257.1 267.4 276.9 287.3 288.3 280.7 297.3 297.1 300.2 294 287.1 275.6 268.4 268.3 249.7 235 223.7 209.6 200.6 196.1 196.4 194.7 193.2 193.3 193.3 193 195.6 199 202.3 206.9 209.2 210.8 222.7 233.4 245.8 257.4 265.4 271.7 274.9 276.1 274.6 270.6 260.6 248.8 258.4 262.9 272.6 287.9 312.7 332.8 352 365.3 380.1 394 406 418 429.9 441.7 452.3 461.1 467.1 472.6 476.5 480.6 480.9 482.3 482.1 480.4 479.2 478.7 476.6 469.7 462.7 455.7 448 440.2 429.9 419 404.9 390.6 380.4 361.2 344.8 333.3 327.5 327.8 323.6 318.7 303.2 320.1 322.9 324.5 324.6 321.9 316.6 311.6 306.2 302.3 299.2 300.3 301.7 306.6 312.4 316.8 330.9 344.7 359 371.1 369.9 367.2 386 400.4 406 407.4 407.3 406.8 409.3 411.5 409.8 408.7 410 412.7 415.2 416.4 415.5 415.7 417 420.3 424.1 425 424.9 426.7 427.5 426.7 423.3 418.2 410.1 398.6 383.8 368.2 353.8 340.3 328 320.1 320 330.3 329.3 335.4 341.6 346.9 356.4 377.7 390.3 400.1 408.4 410 393.2 371.6 359.5 351.8 348.9 349.7 365.1 391 421.7 441.2 441.5 435.9 426.1 417.5 411.5 406.9 401.2 399.2 399.9 406.9 418.2 428.8 436.6 442.3 444.5
239.2 239.6 237.9 235.5 231.7 230.7 229.1 229.3 231.7 235 239.3 243.5 246.2 250.2 252 248.8 251.2 256.9 269.2 282.2 295.1 307.9 310.8 306.6 294.3 303.7 308.8 306.2 298.7 289.8 282.5 281.2 270.7 249.5 235.6 223.5 212.1 204.5 200.8 200 197.9 195.1 192.5 192.2 192.4 195 198.7 201.9 205 208.5 212.8 222.2 232.9 244 255.4 263.4 268.8 270.9 271.8 272.1 271.3 259.5 249.3 252.4 256.5 266.9 280.5 305.1 321.9 337.2 358.1 375.2 387.7 400.4 414.3 426.4 437.1 449.4 458.7 465.3 470.7 475.7 478.6 479.2 478.7 478.1 476.9 475 473.7 472.6 466.3 459.1 452.3 444.7 436.9 425.9 414.1 399.9 383.6 373.7 357.1 339.4 325.3 315.8 315.2 311.7 305.8 305.4 313.6 316.1 318 318.7 316.9 315.4 310.5 303.8 297.2 294.5 300.4 300.9 303.1 307.6 309.7 318 326.9 340.4 349.5 354 362.6 375.2 386.3 391.8 396.2 398 398.8 398.7 398.7 395.3 392.3 391.6 394.4 397.7 396.8 396.4 397.3 400.6 406 411.2 413.6 417 420 421.4 421.2 418.4 414 406.4 395.2 381.7 367.7 352.8 339.8 327.9 319.7 318.4 323.8 329.6 332.9 338.2 344.2 352.2 364.9 384.9 392.5 398.5 403.6 396.4 373.6 357.9 351.9 348.7 349.7 360.9 388.3 418.8 440 436.7 430.1 425.2 417.7 410 404.8 400.7 398.8 400.1 411.8 424.6 435.7 441.6 445.3 447.3
239.1 237.8 235.4 233 232 231.1 230.7 232.9 236.4 242.1 247.1 250.1 251.7 253.6 252.1 255.8 264.4 279.2 295.8 313.8 321 321.7 316.7 309.2 301.5 307.7 309 303.9 299.7 293.9 288.5 279.5 267.7 249.7 235 226 216.6 208.8 205.6 204 201.6 197.6 194.5 192.3 192.1 194.7 197.9 201 201.5 206.7 213.1 221.5 232.3 244.4 254.5 260.2 265.3 267.5 270.4 271.2 271.2 263.3 249.5 244.2 252.8 264.6 277.7 297.6 312.1 330.8 348.2 366.7 381.2 393.8 407.6 420.3 431.5 444.3 455.5 462.7 468.4 472.9 474.7 473.9 472.5 471.1 469.7 469.9 469.8 468.5 462.8 456.2 449.4 441.8 433.3 422.1 410.1 393.8 378.8 368.7 350.6 335.7 322 309.6 306.3 300.4 290.9 301.3 304 305.7 306.8 309.6 311.1 311.3 307.6 300.4 292.9 289.5 296.4 298.9 300.1 300.4 307.6 311.2 319.3 325.4 336.5 350.5 366.3 371.3 380.6 389.6 391.3 390.8 390.5 391.1 390.2 385.1 381.4 379.3 380 382.5 380.4 377.9 378.6 381.7 387.2 393.6 399.9 407.2 411.9 414.7 415.6 413.7 409.2 401 390.5 378.1 363.1 350.9 339.9 327.6 319.7 318.4 320.3 325.9 330.4 335.6 341.9 347.5 355 368.2 381.2 387.7 394.4 391.1 371.5 358 351.6 341.8 348 360 387.9 416.3 431.7 429.4 425.2 420.3 412.4 407.9 403.6 399.6 398.8 404.8 417 429.8 439.2 448 450.2 450.7
237.3 235.2 234.3 233.7 232.4 231.9 234.5 237 243.3 248.3 253.7 258.1 256.8 258.9 262.2 272.9 286.9 305.1 325 334.4 331.9 325.4 318 309.1 310.4 312.2 309.1 301.6 296.8 292.5 287.9 277.4 262.9 247.4 234.3 226.1 221.6 217.1 211.5 208.4 205.4 201.2 197.5 194.4 193.7 195 197.6 199.3 198.9 204.9 212.3 222.6 232.9 244.1 252.2 258.4 262.4 264 266 268.8 267.6 259.5 250.8 238.7 249.4 261.4 273.9 289.7 306.2 323.7 340.2 356.9 372.5 384.8 400.7 414.8 428.1 440.6 452.7 461.2 466.2 469.7 471.4 469.7 468 466 463.7 461.6 460.3 460.2 457.7 453 445.9 437.8 429.8 417.5 405.3 386.7 372.3 362.3 345.5 332.3 319.8 306.3 299.1 291.6 288.4 292.5 293.9 294 296 301.4 303.1 304 301 294.8 290.2 290.2 291.8 296.4 301.5 304.5 312.5 321.1 329.1 340.7 354.3 361.5 377 386.5 391.1 394.5 396.2 393.5 391.1 389.1 380.1 378.3 370.2 369.1 369.1 369.5 369.1 367.5 366.5 368.3 370.9 373.7 380.6 390 400.2 406.3 408.2 408.1 404.5 397.7 387.5 375.1 362.9 350.6 337.7 327.8 318.7 318 319 320.2 326.7 333.5 340.6 344.6 346.9 352.5 362.2 377.5 386.2 383.2 368.9 358.2 350.5 339.8 345.4 357.9 384 410.1 415.2 418.8 421.1 416 408.6 405.4 401.3 397.2 397 406.8 422.7 436.5 446.2 452.8 453.9 451
237.4 236.5 235.4 234.4 233.2 233.3 237.4 243 251.4 259 261.8 263.7 264 270.7 281.5 297.2 315.4 334.6 344.1 340.5 334.1 327.9 320.2 313.6 311.5 310.6 308.4 300.5 292.5 287.5 283.1 276.4 259.3 247.2 237.4 231.4 228.9 225.2 218.7 213.8 211.4 209.3 203.4 197.7 196.5 197.3 196.7 195.5 198.3 203.7 212.6 222.8 233.1 242.1 250.2 255 257.6 259 262.3 264 262.4 254.4 247.9 239.4 245.6 256.9 267.6 281 299.7 312.3 325 338.6 354.6 370 395.2 410.9 425.3 438.5 452.9 460.9 462.5 464.8 464.5 464.5 462.8 460.7 458.3 455.9 453.7 454.1 451.3 445.1 439.2 431.5 421.6 409.4 396.6 378.3 365.5 354 337.9 326.9 317.9 306.2 296.3 289 285 287.6 286.9 284.4 286.5 292.2 293.1 294 293 289.9 288.9 290.5 295.6 299.3 304.8 318 325.5 336.8 352.8 366 371.3 379.6 393.1 400.3 402.7 403.4 405.1 404.8 402.5 397.2 390 383.9 377.7 374.2 367.5 360.9 359.1 359.4 359.2 359.2 360.5 362.5 364.7 369.7 380.2 390.2 397.5 401.4 398.7 393.1 385.5 373.8 361.5 348.7 335.7 326.1 318.7 315.1 314.1 314.7 320 328.1 336.5 341.9 341.1 343 348.4 356.3 369.6 373.3 364.9 358.4 349.7 341.6 340.2 355.9 379.4 396.9 404.5 413.5 421.2 415.1 406.7 401.9 397.6 390.8 394.8 409.4 427.2 441.9 450 452.2 451.6 447.6
239.3 238.4 237.4 236.2 235.9 237 241 246.4 256.3 266.6 271.1 271.6 278.9 288.5 304.9 326.2 345.4 348.9 347.1 342.6 334.3 328.6 325.2 318.4 312.4 307.4 303.8 296.2 289.5 283.6 277.7 272.6 261.9 252.9 248.6 241.1 234.4 227.9 223.9 218.2 217.5 214.7 209.7 203.4 199.3 196.8 193.6 191.9 193.1 200.8 213.6 224.1 231.3 238.8 245.8 249.7 252.8 254.8 259.3 261.3 259.2 250.3 242.2 238.5 244.6 254.7 263 274 289.4 299.3 307.6 325.6 350 372.2 391 405.9 421.6 436 451.8 457.1 458.3 458.7 458.8 459.1 457.8 456.1 453.8 451.2 447.2 446.5 443.5 437.8 432.3 423.8 413.5 399.1 382.9 369 356.2 341.6 328 320.1 314.7 306.3 296.8 289.1 282.3 279.9 280.3 278.8 281.3 283.8 287.2 288.3 288 288.5 289.3 294 300.4 305 313.4 328.9 346.4 362.2 372.7 380.5 383.8 396.2 409.6 413 415.1 413.2 413.7 415.7 414.7 408.7 400 393 385.4 380.1 373.5 369.5 363.9 361.3 359.5 357.8 356.3 352.3 352.4 356.1 362.5 370 377.8 388.4 390.6 388.2 383.4 373.3 360.6 347.3 335 324.6 317.7 313 310.2 310 313.2 322.1 330.5 335.9 334.6 335.2 337.2 341.9 350.2 358.8 359.4 355.5 350.2 341 339 353.7 372.8 383 391.3 402.6 406.9 404.8 400.4 396.6 391.1 389.4 396.8 411.2 430.3 444.7 450.5 446.6 439.3 436.3
240.5 240.4 240 240.1 240.2 242.4 247.2 253.6 264.3 274.1 280.5 284.6 300.2 316.7 333.2 344.6 352.7 352.3 349.4 340.7 338.8 339.9 336.8 329.8 313.3 304.8 299.8 292.3 286.5 279.6 273.7 269.1 262.8 258.5 255.2 247.5 240.3 234.5 231 224.9 221.3 217.8 211.5 206 201.8 199.3 194.8 191.5 188.7 197.6 213.6 223.1 228.6 235.1 237.1 240.2 245.1 250.5 256.3 258.8 253.8 243.8 233.3 232.2 244.2 252.9 262 270.1 278.8 293.1 309.6 326.2 343.8 366.1 384.4 399.8 415.7 432.5 448.2 454.8 456.7 454.5 455 454.7 453.2 451.1 449.6 445.9 441.3 436.9 432.8 427.5 421 412.4 401 384.8 370.2 356.9 343.3 330.3 318.2 311.5 306.8 302.7 299.6 292.6 284.9 280.1 279.1 278.9 279 280.6 287.6 288.3 288.7 290.7 292.7 299.9 307.1 313.5 324.2 347.1 368.9 376.4 384.1 386.7 396.6 410.5 417.3 422.2 424.1 419.8 422.8 424.6 423 418.2 412.3 403.6 398.4 392.9 385.3 378.4 372.5 370.1 364.6 361.2 359 357.3 353.6 349.3 349.9 353.5 360.4 370.1 376.8 378.9 376.4 371.7 359.6 348.4 337.1 326.2 319.2 313.8 310.3 309 309.1 314.6 320.8 326.3 328.7 328.7 331 332.6 336.9 343.2 350.4 352.1 350.9 343.8 337.7 350.9 362.6 372.9 377.9 379.6 380.7 381.4 383.9 387.8 385.3 385.8 394.9 411.1 430.3 441.2 440.5 434.2 426.4 422.9
