ncols 200
nrows 82
xllcorner 310000
yllcorner 265800
cellsize 50
356.8 348.9 337.7 324 305 286.7 272.2 255.1 244.4 241.8 239.1 242.6 251.1 258.9 262.6 265.7 270.8 282.9 308.5 332.5 356 368.3 370 373.4 380.3 385 389.9 396 402.4 405 402.4 401.2 395.5 388 386 382.8 380.9 380 379.4 379.3 381.4 383 382.1 380.7 370.9 355.3 337.4 320.5 309 301.5 294.1 289.8 288.1 288.1 294.5 298 300.4 301.9 306.3 309.5 312.4 318.4 317.8 312.4 305.4 300.2 294.3 289.7 285.8 290.6 292.9 289.3 286 284.5 282.3 285.9 285 285.7 286.1 287 285.8 285.8 285 279.2 280.1 281.7 288.6 291.4 293.1 297.9 298.7 299 298.1 296 292 287.9 281 281.6 281.2 274.3 264 258.1 257 265 280.7 286.1 296.1 299.6 301.2 301.3 301 293.3 280.8 271.1 256.6 250.2 248.1 248.2 249 250.5 251.7 253.4 257.6 265.8 272.5 279.8 280.3 274 281 288.5 289.8 294.9 303.9 312.8 325.2 334.5 340.8 340.2 338.2 336.4 332.3 326.6 321.3 315.1 309.4 309.3 309.7 309.4 313.6 314.4 312.5 310.7 307.7 303 300 292.4 292.9 298.1 290 297.6 306 315.8 323.5 331.1 340.6 351.9 373.6 380 380.6 376.7 369.5 369.6 372.4 371.3 368.3 365.6 361.8 359.5 360.1 360.5 361.1 362.3 362.3 362.9 363.6 371.8 379.2 382.1 383.4 383.4 383.5 381.9 380.3 378.2 371.7 365.5 365.8 376.8 383.2 389.1
360.4 351.3 338.5 324.9 308.7 296.7 279.7 262.4 247.7 242.6 239 240.4 246 251.9 256.2 258.5 264.8 275.8 295.9 321.4 345.6 366 376 378.8 385.9 393.7 401.8 410.4 411.5 410.3 401.5 392.8 383.4 376.9 378.3 380.1 377.6 380.1 377.4 376.3 372 379.1 374 364.9 351.1 336.4 317.7 310.9 305.3 300.8 299.1 295.2 290.8 279.2 289.5 290.3 294.4 299.5 304.3 309.4 311.3 315 315 311 304.4 298.2 292.5 290.2 288.3 286.2 282.7 281.3 280.6 279.2 279.2 279.6 279.3 280.4 280.1 280.1 280.3 280.2 281.1 271.7 275.3 280.1 282.2 284 287.4 291.4 293.2 294.2 292.5 290.7 287.1 282.2 279.5 280.1 280.8 274 259 257.9 265.1 280.3 287.8 290.8 293.6 300.4 299.7 295.1 290.6 283.4 271.8 258 252.7 248.6 248 248.5 249.5 251.8 254.5 257.6 263.8 271.7 280.3 282.4 281.4 282.6 285.6 292.3 297.4 301.8 312.1 324.7 330.3 332.3 335.9 335.2 330.5 327.7 323.9 316.8 310.6 298.8 306.1 310.6 309.9 309.3 309.9 311 311.7 310.7 308 302.6 298.6 292.8 292.1 293 291.2 300.4 307.8 319 329.3 335.8 347 371.3 384.5 382 378.1 371.3 368.8 368.1 366.7 364 361.8 359.2 358.2 353.5 351.4 348.7 354.8 355.9 356.3 354.9 354.6 358.4 368.6 373.3 373.1 373.4 373.8 372.6 371.1 370.7 359.9 358 368.1 377.7 382.4 389.6
361.7 353.8 343 330.2 320.3 307.5 288.7 270.8 254 243.6 239 239.2 242.1 245 248 253.9 260.7 270.9 285.9 309.2 331.6 356.2 376.9 384.7 392.4 400.9 409.3 412.4 412.6 407.5 391.7 379.1 370 365.1 366.3 366.1 366.2 361.7 363.4 367.6 361.1 359 353.8 345.7 327.6 313.1 304.1 303.2 302.9 301.2 304.1 300.3 285.1 279.1 285.3 287.7 290.3 300.3 302.9 309.7 310.7 310.9 311 308.8 303.5 297.8 291.5 289.7 288.2 284.3 280.2 279.7 279 279 279 278.9 279.1 278.8 275.8 274.6 274.5 274.6 275.1 269.7 271 271.4 276.8 279.8 281.6 285.9 288.8 289.3 287 285.1 281.7 276.6 272.5 274.7 276.2 273 261 258 261.5 280.2 285.8 286.6 290.4 297.3 291.5 285.1 281.2 275.1 264.5 255.1 249.9 248 248 249.2 250.6 253.8 258.1 265.1 272.2 276.9 281.7 285.3 285.9 287.2 289.1 294.7 302 309.4 320 330.9 329.7 327.4 327.8 326.2 321.9 319.1 315.3 306.2 299.1 308 310.9 310.9 311 309.3 309.3 311.1 311.6 311 309 302.3 296.7 290.8 289 288.9 293.3 304.6 313 321.9 329.8 340.1 363.1 381 384.8 383.5 378.3 369.7 369.1 367.5 365 362.3 360.6 359.4 358 350.9 344.5 339.9 345.9 348.9 349.4 344 343.9 346.4 352 356.2 358 360.7 363 364 363.1 357.5 343 357.4 368.1 371.1 377.4 383
363.4 359.5 349.9 340.5 332.8 318.9 295 280.2 262.7 246.6 239.7 238.4 239.4 241.9 245.2 250.9 256.9 269 283.8 306.9 331.6 357.3 375.9 388.1 393.7 396.5 401.2 405.6 403.2 391.2 380.8 367.1 359.2 356.5 358.2 357.4 359.7 350.9 347.3 348.1 348.6 331.1 333.7 323.8 308.4 298.8 291.2 296.3 299.6 301 298.2 290.5 280.6 279.5 280 285.9 297.5 300.5 305.9 310.8 311.4 311.1 311 308.5 304.5 299.9 295.2 292 290.2 288.9 285.6 282.8 280.8 280.5 280.1 279.2 278.6 273.7 270.6 271 270.7 269.2 269.9 266.2 268.9 269.2 272.1 275.5 279.3 281.3 283.5 284.4 282 279.7 276.9 273.3 269.8 269.8 271.1 263.1 259.4 258.1 258.2 266.2 272.1 280.4 290.4 290 286.2 280.2 272.6 267.2 258.7 252 248.2 248.1 249.1 251 255.6 258.6 263.5 271.1 276.8 280.1 282.4 285.5 287.4 289.9 292.1 296.8 305 313.7 321.2 325.2 321.7 321.2 320.9 317.4 316.5 311.9 305 290.2 301.6 308.8 311 311 311 309.7 310.5 311.5 312.7 311.5 308 299.4 292.5 289.4 288.7 290.3 296.3 304.7 313.2 320.9 333.5 349.5 370.6 384.7 384.7 383.8 380.2 372.2 369.7 365.9 362.3 359.4 357.8 359.9 352.5 342.9 333.9 331.1 333.7 332.9 330.2 327.8 326.9 327.1 330.7 334.3 341.6 348.1 353.4 353.1 350.7 340.5 344.4 356.2 360.8 365.6 372.4 379.8
362.2 367.8 355.7 346.6 336.8 323.9 301 297.4 269.8 251.5 238.4 237.8 239.1 240.8 243.5 248.3 253.9 266.7 284.4 307 329.8 359.4 372.8 380.3 381.8 382.9 389.1 397.5 398.1 389.6 373.9 357.7 352.4 350.4 351 350.6 349.2 348 342.4 335.7 327 324.2 313.4 306.2 297 288 284.7 288.8 291.4 291.5 287.9 280.9 272.8 272.7 278.4 289.7 298.5 303.4 310.3 311 311 311 310.1 308.3 304.3 300.6 298.3 295.8 293.3 291.4 290.3 288.8 286.2 285.7 283.5 281.1 279.3 274.4 269.6 269.5 269.4 271.1 270.9 271.1 269.5 269.2 269.3 271.2 277.4 282.5 280.7 279.9 280.1 275.6 272 270.5 269 262.8 260 260.1 258.9 258 258 259.6 264.6 271.9 280.8 281.6 281.9 278.6 270 259.1 253.4 249.3 248.2 248.3 250.4 256.1 259.7 263 269.1 275.3 280.8 283 285 286.9 288.8 290.5 293.3 299.5 310.3 315.7 319.8 317.8 315.5 315 314.5 313.1 310.5 296.9 290.4 300.7 300.4 305.7 308.4 309.8 310.1 310.3 310.9 312.3 312.8 309.6 303.2 294.4 289 286.7 286.8 290 297 305.8 315.4 328.8 341.5 358.3 376 384.9 384.8 382.8 380 373.6 368.6 363.4 360 356.5 353.3 349.7 343.3 335.7 328.2 322.3 319.3 318.6 318 315.7 309.8 311.5 314.7 317.2 321.6 332.4 340.5 342 340.5 318.3 342.1 347.5 353.9 358.5 367.9 374.6
359.5 368.3 355.3 347 339.2 327.8 323.1 301.4 277.8 256 238.6 237.9 238.3 239.4 241.7 245.8 252.2 261.6 280.2 301.7 328.3 354 358.3 354.2 355.3 361.7 370.7 386.2 392.1 388 367.2 348.2 345.9 342.5 342.4 342.5 339.7 337.6 332.7 329.2 319.6 309.9 305.9 297.3 289.8 281.5 278.1 280.1 279 275.2 272.5 272.6 269.2 271.4 279.5 288.7 296.9 304.5 310 310.1 309.7 311 309.3 306.4 302.7 300.8 301 298.1 295.2 292.6 290.7 290.9 290.3 290.7 288 284.6 281.5 278.8 274.7 271.5 270.5 271.1 270.5 270.7 271.1 269.2 268.5 270.9 275.2 278.1 278.6 278.4 276.3 270.7 271.1 269.2 269.1 269 270.9 267.5 261 258.4 257.9 257.7 258.7 263.9 269.7 275 280.8 277.6 269.5 254.9 249.7 248.2 248.1 248.7 254.4 260.3 263.5 266.2 270.8 277.6 280.8 283.6 284.8 286.3 288.5 290.8 294.4 299.8 306.7 308.1 306.9 308.5 307.5 307.2 307.3 304.1 298.1 279.4 295.5 297 299 300.3 304.5 308.9 310.5 311 311.3 311 308.7 301.6 298.1 291.1 284.5 283 285.5 289.2 299.9 307.8 314.4 333.2 349.3 368.2 381.8 387.6 385.9 381.2 377.2 369.8 360.4 358.2 354.6 351.9 347.7 341.3 335.8 330 327.5 322.7 324.1 323.4 323.5 323.1 318.3 313.9 309.4 309.5 304.4 314.9 323.2 320.5 309.4 326.2 334.5 339.9 345.7 353.4 363.7 369
355 356.9 351.2 348.6 339.6 331.3 321.8 298.9 278.7 253.8 238.5 238.2 238.1 238.1 238.7 243.4 250.3 258.5 277 299.7 324.9 333.3 334.8 338.1 340.7 349.3 360.3 373.3 381.9 379.5 362.9 344.4 337.4 337.3 335 333.9 330.8 327.4 324.1 322.6 314.5 305.3 297.4 292 283.7 276.9 270.4 269.4 266.5 263.6 268.6 269.2 271.5 276.6 280.4 286 292.9 301.4 303.4 306.8 307.7 308.9 306.9 303.9 300.5 299.5 299.7 297 294.1 291.1 290.6 290.4 290.1 290.1 288.2 284.9 281.8 280.8 279.7 276.6 272.8 270.4 269.7 270.7 270.2 268.4 268.3 269.7 271.3 273.8 276.3 276.8 275.3 272 269.2 268.2 269.3 270.8 271.1 270.4 261.3 258.5 257.9 252.7 252 257.9 264 270.2 275.7 272.4 259.4 251 248.3 248.7 248.9 250.5 260.7 263.3 267.2 269.3 270.5 278 280.2 282.1 283.8 285.6 286.8 289.1 291.9 295.9 298.7 300.1 302.5 302.1 298.7 298.2 299 296.5 291.9 280.4 290.6 289.9 295 302.1 306.7 309.8 313.2 313.7 311.3 308.8 304.3 298.3 294.8 289.1 280.9 279.8 284.5 291.4 301 309 318 341.7 362.2 378.7 389 389.9 386.5 380.5 374.1 360.2 351.9 351 349.2 344.5 342.3 334.3 329.3 329.2 329.7 334.7 338.6 341.1 343.5 343.5 340.9 334.7 325 316.3 305.6 307.5 307.7 311.6 321.3 325.2 327.6 333.6 338.1 346.8 354.2 358.7
343.5 347.9 349.2 347.3 342.3 333 311.4 293.7 274.8 251.5 238.9 238.1 238 238.1 238 240.2 246.4 256 272.6 296.8 313.3 322.6 333.3 341.9 348.9 357.9 366 375.3 378.3 371.5 361.1 347.7 330.7 328.5 329 326.1 320.3 318.9 315.8 313 307.6 301.1 292.9 288.1 281.2 276.8 270.4 264.9 260.4 259.6 270.9 271 274.4 281.1 280.9 282.5 285.7 292.9 300 303.8 305.1 304.9 303.1 301.3 300.1 299.2 298.2 294 291.4 290.1 290 289.5 289.9 287.4 285.5 284.5 281.7 280.9 281.1 278.2 273.9 270.7 269.7 269.3 267.7 263.8 263 267.2 270.8 275 278.7 281.1 279.4 276.2 272.2 273.8 280.1 276.6 272 269 259.4 259.6 256.6 251.8 249.3 251.8 258.5 263.3 264.1 257.9 253.3 248.2 247.9 248.4 249.2 252.1 260.7 264 270 269.2 271.4 274.1 279.6 280 281.6 282.3 283.1 284.7 287 288.6 290.1 299.4 301.7 301.6 298 289.6 291.1 292.2 275.5 279.1 282.8 294.4 300.4 305.9 309.7 315.5 319.6 316.9 311.3 307.2 301.8 296.5 290.6 283.3 279.1 280.3 283.3 290 300.1 315.3 333.2 348.7 374.5 389.5 394.8 391.9 385.5 377.7 369.6 353.5 349.4 349.3 345.9 339.6 340.4 333.4 333.1 334.5 336.8 344.7 352 356.4 358.8 360 360.3 352.4 341 316.5 303.9 297 300.5 305.2 317.6 319.6 319.8 327.7 333.5 336.2 340.2 343.8
340.2 346.5 346.2 346 339.4 325.5 304.2 286.4 273.6 253.6 239.3 239.2 237.9 237.9 238 238.1 242.9 252.8 269.5 286.8 307.5 325.6 339.6 351.7 359.9 365.8 371 372.9 369.5 364.2 353.9 339.6 325.7 319.8 320.6 317 313.2 309.5 308.1 305 300.6 294.9 289.1 286.2 282.2 279.8 268.8 261 259.2 260.8 268.9 271.1 271.4 275.5 276.5 275.6 280 289.8 298.9 302.3 302.4 301.2 300.3 300.2 299.5 299.5 297.5 293.1 290.9 290.5 289.2 289.4 288.2 284.6 281.9 281 280.9 281 280.4 277.9 273.7 270.4 271.1 269.7 265.5 260.8 259.7 265.7 270.7 274.8 280 281.5 282.4 280.5 282.6 289.7 286.7 280 274.9 268.8 266.3 267.2 261.4 256.3 250 249.4 250.5 252.2 251.4 248.9 248.4 248.2 247.6 248.2 249.6 255.9 260.7 261.5 266.5 268.6 267.8 269.2 275.6 276.9 275.8 272.5 275.7 276.9 277.5 279.1 287.8 297.7 301.5 301.1 297.1 286.2 286.2 283.1 270.3 283.8 289.3 295.2 299.1 310 318.5 320.4 321.1 314.7 309.1 303 298.4 291.7 281.8 279.3 278.7 279.6 283.3 292.7 308.5 326.7 347.5 371.6 385.3 394 393.9 392 380.5 368.5 358.9 356.9 354.5 352.8 349.7 340.1 339 338.8 341.1 342.5 350.6 358.6 364.3 367.9 369.7 370.8 364.1 355.4 336.4 312.8 300.9 292.8 289.7 295.2 303.6 309.1 313.1 321.5 324 324.9 328.2 328.7
341.4 344.7 345.4 341.4 332.2 316 301.3 286.2 267.7 249.4 242.2 238.6 237.9 237.8 237.8 237.8 241.4 253.7 267.8 283 301.8 321.9 340.7 352.3 359.4 362.9 364.4 360 354.7 347.5 337 325.4 313.8 309.8 307.1 307.5 304.8 300.7 300.4 297.6 290.5 287.8 282.3 281.4 279.5 274.4 263.9 258.5 258.4 261 269.1 266.7 265.5 268.2 269.7 270.6 279.3 289.5 297 301.3 301.6 299.8 299.9 299.4 300.9 301 297.3 293.6 291.8 290.8 290.1 289.1 287.7 283.6 280.3 281 280.5 279.3 276.8 275 271.7 271.1 271.1 269.3 264.6 260.5 259.9 267 270.6 274.5 280.5 284.6 287.7 288.9 293 294.8 291.3 285.4 283.3 276.9 274.8 272.1 263 255.7 250.3 249.4 248.4 248.4 248.7 247.8 247.7 247.5 247.5 248.4 249.1 254.2 259.1 261 261.1 261.5 265.3 269.5 270.8 270.1 268.7 267.5 270.3 270 269.1 273.6 285.3 293.7 296.8 292.1 288.2 278.9 274.1 270.6 274.8 284 291.3 297.3 305.2 320.7 324.1 322 319.7 301.6 297.7 295 291.7 282.7 279 278.4 277.9 281.2 287.7 303.5 324.2 349.7 370.2 384.4 391.3 394.1 391.1 386 371.9 360.9 359.9 360.4 360 356.7 351.4 339.9 341.9 345.9 349.8 359.1 364.2 368.3 373.1 375.6 375.7 373 361 346.6 327.4 318.2 308.5 297.8 289.9 288.6 291.5 294.9 302.4 308.6 313 313.9 315.5 316.7
340.3 341.8 340.5 335.5 323 307.8 294.1 277.4 261 253.3 242.6 238 237.8 237.7 237.7 238 241.6 253.2 268.5 283.1 298.8 314.8 329.5 344.2 347 349.1 345.2 337.9 334.2 326.9 320.7 311.8 303.2 299.7 297.1 298.4 296.1 292.1 292.4 288.2 279.3 278.6 274.4 274.2 274.6 270 260.1 258.7 258.5 258.6 259.6 259.7 259.1 261.5 264.7 272.2 283 291.4 296.3 300.2 300 299.9 300.3 300.5 300.9 299.9 297.4 294.4 293.4 292.1 290.3 290.8 287.6 282.6 280 279.8 278.7 274.7 272 271 270.1 271.1 271.1 266.7 261.6 260.2 259.2 263.7 269.3 274.5 280.1 283.5 289.1 294.6 299.3 300.3 295 292.4 289.6 283.6 278.4 270.6 260.3 256.7 252.5 249.6 248.4 248.5 248.7 248.3 248.2 247.9 247.6 247.2 247.9 249.7 253.5 261 261 259.7 261.7 266.2 263.6 263.3 261.4 261.1 263.9 268 267.8 275.3 279.5 281.4 282.1 279.7 276.5 274.1 270 268 276.6 286.1 294 306.1 316.6 323.1 314.8 307.2 298.9 293.5 289.2 287.1 280.6 278.2 278.2 278 278.3 286.7 301.7 320.8 346.2 366.1 380.8 393.7 398.4 392.7 388.8 380.6 361.4 358.7 359.3 360.2 360.1 352.2 349 347.3 349.7 353.6 360.4 367.6 372 378.6 379.5 379.8 378.2 370.5 358.5 341.9 338 326.5 312.9 302.3 293.6 289.8 288.2 284.1 288 295.7 303 304.5 305.8 306.4
332.8 338.5 333.3 326.9 314.8 303 292.7 285.8 276.3 250.2 239.3 237.8 237.8 237.7 237.7 237.7 242.5 253 268.5 279.8 294.3 304.6 314.3 323.1 325.9 326.8 325.3 321.2 316.3 311.3 306.1 298.9 292.3 284.6 286.8 287.3 286.9 284.5 282.3 279.5 273 268.4 266.2 267.9 268.9 263.6 259.4 258.2 258.2 258 258.3 258.7 259.2 263.1 268.3 270 282.5 290.9 292.1 297.6 300.7 303 303.5 302.1 300.7 299.9 298.6 297.8 296.5 294.6 292.6 290.8 289.9 283.5 281.1 279.2 278.9 274 270.5 269.2 269.2 269.2 270.5 266.3 263.1 261.2 259.2 262.5 268.3 271.3 277.8 284.7 293.1 299.8 301.8 301.2 299.3 294.6 291.1 283.6 272.7 267.2 260.6 260.1 256.1 250.7 248.5 248.6 249.1 249.6 249.2 249.2 248 247.2 247.2 248.7 250.2 256.1 259.3 252.4 253.2 256.6 257 258.4 258.2 257.4 258 260.9 266.6 269.2 270.8 269.8 268.1 268.8 267.4 264.7 263.5 267.4 277.1 287.1 297.1 305.8 308.7 306.9 305.2 299.5 292.6 286.9 283.3 279.9 277.8 277.9 278 278.1 282.8 296.1 323 342.8 363 375.8 387.3 401.7 401.8 392.5 380.2 371.4 358.4 360.2 360.4 360.6 359 349.8 350.5 352.5 354.9 359.2 365.6 374.3 379.8 381.8 381 380.3 373.6 366.6 357.6 351.9 346.2 333.8 318.4 305.7 300.9 296 288.7 281.6 279.3 279.8 282 289.6 293.5 294.7
318.7 327.3 325.9 321.2 311.9 303.7 298.5 289.4 270.6 248.3 237.9 237.8 237.8 237.7 237.7 237.7 243.7 256.6 268.8 277.1 290 292.1 296.7 301.3 303.6 303.9 303.8 304 300.8 298.2 292.5 286.3 281.5 277.2 278.4 277.7 277.9 277.8 270.4 270.9 266.9 260.9 260.4 262.1 261.7 257.8 255.9 258 258 258.4 258.8 259.8 263.4 268.2 275.4 280.8 281.5 289.1 292.8 299.2 303.9 306.8 307.5 305.1 301.3 300.5 299.7 300.6 299 297 294.8 291.7 289.9 283.5 279.8 279.7 280.1 276.5 272.1 269.3 269.2 269.3 269.7 268 262.9 260.8 260 259.8 264.4 270.6 278.4 292.5 303.4 305.7 302.3 300.3 295.5 290.1 288.8 278.5 269.6 272.1 270.6 265.9 258.1 252.9 249.7 249.1 250.5 250.1 249.6 250.5 249.6 248.4 246.5 247.4 248.9 249.8 248.8 248.5 249.3 250.5 252.1 253.4 253.7 253.4 255.1 260.9 263 262.6 260.8 259.9 258.2 258.5 259.8 260 260.4 268.3 277.1 286.3 294.5 300 302.4 300.5 299.8 294.9 290 283.4 281.3 279.1 277.8 277.8 277.8 278.9 297.8 324.9 342.3 361.4 372.8 384.6 397.3 406.6 402.6 389.6 374.9 362.9 359.2 360.7 360.6 360.6 359.8 352 353.4 358.1 359.8 365.3 372.9 380.8 386.3 381.3 380.1 377.4 372.1 371.1 362.1 354.8 348.8 332 323 316 311.1 303.7 295.1 288 281.5 279.8 277.5 274.7 279.1 281
304 307.3 310.2 309.3 303 298.2 289.6 277.8 262 248.1 240.1 237.7 237.7 237.7 237.7 237.7 244.4 256.7 266.4 274.5 281 280.5 282.7 286.1 287.8 290.2 292.6 292.7 288 281.1 277.9 273.4 270.9 269.2 270.9 272.1 271 269.3 265.5 263.1 261 256.6 254.3 255.7 254.7 251.7 252.2 252.9 258.2 259.1 262.1 264 268.8 275.4 286.6 294.6 293.4 291.4 299.5 301.2 307.1 310.9 311 308.4 304.7 303.5 301.9 300.9 300.7 297.7 293.7 290.7 289.3 281.2 280.6 281.3 281.9 279.3 274.8 271.5 270.7 270.2 268.3 264.8 260.3 260.7 260.1 260.2 266.6 275.7 289.5 302.6 310.1 308.5 304.7 301.1 299.8 291.1 285.6 283.2 280.3 282.3 278.9 270.1 259 257.1 257.3 256.9 253.3 250.8 251 253.8 249.9 248.2 246.3 245.7 247.1 249 249.6 248.8 249.5 249.9 250.3 252.2 251.3 252.1 256.5 260 261.1 259.4 258.7 258.2 258.1 258 258.4 261 260.7 266.7 273.5 285.1 292.7 295.4 293.9 292.2 288.3 288.1 285.3 281 280 275 272.5 276.9 279.3 296.2 317.5 337.6 355.4 367.1 383.2 393.4 399.6 400.5 390.7 377.3 371.5 360.5 363.3 365.1 360.7 360 358.9 357.4 357 360.9 367 372 379.3 388.3 390.3 380 379.8 376.7 371.9 369.2 363.9 357.2 350.7 346.3 344.4 339.4 325.5 315.8 305.5 295.6 287 280.8 276.5 271 270.3 272.4
293.2 294.7 294.4 294.7 292.6 288.1 282.2 272.7 259.7 246.3 238.7 237.7 237.7 237.7 237.7 237.9 241.4 251.7 263.5 267.2 270.5 271 273 273.6 278.1 280.9 280.3 276.4 271.4 266.7 265 263.7 261.7 263.6 264.6 265.7 264.2 262.8 258.1 255.4 252 251.1 250.1 249.4 248.8 250.1 251.8 253.9 257.9 262.8 268.5 271.7 278.1 285.7 297.4 307.7 306.2 299.8 306.9 308.9 312.9 314.1 312.1 310 307.9 306.1 304.5 302.7 300.8 299.8 294.4 289.6 289.1 285.2 286 287.6 285.2 281.7 278 274.5 271 270.4 264.7 260.3 259.7 259.5 260.6 269.4 277.5 290.9 303 308.4 310.7 310.2 308.3 304.6 301.6 297.2 294.1 290.8 290.2 290 281.5 269.8 261.4 260.1 260.5 257.3 250.9 249.9 249.8 249.3 248.4 246.1 244.3 243.8 245 247.8 250.5 249.3 250.3 251 251.3 252.4 253.3 256.4 260.7 259.6 259.3 259.3 258.6 258.3 258 257.9 259.1 258.8 259.6 261.4 267.8 278.4 284.3 284.9 281.5 279.8 279 278.3 272.5 277.4 278.3 278.1 277.9 281.9 292.9 312.8 335.8 350.2 365.7 377.8 388.9 394.9 396.9 388.5 374 372.6 371.1 367.2 369.6 369.7 362.6 359.2 358.5 358.5 361.3 367.4 370.6 375.3 381.2 388.6 388 379.2 378.7 375.7 372.3 369.2 366.4 360.5 355.5 355.2 353.1 348.5 339.7 324.8 312.7 299.4 290.7 284 278.4 273 270 267.1
285.1 287.8 288.5 287.5 286.3 284 278.1 271.6 259 245.4 237.8 237.7 237.7 237.7 237.7 237.7 242.7 250.9 256.8 260.8 264.3 264.7 265.1 266.9 268.8 268.6 267 263.4 259.3 258.1 256.9 258 256.3 258.8 259.3 259.9 258.9 253.9 249.7 250 248.7 248.5 248.7 249.8 250.7 252.4 254.1 258.1 263.5 270 278.8 283.1 292.4 300.1 310 320.1 322.6 310.6 313.8 314.2 318.4 317.5 314.5 311.1 309.5 307.4 305.2 303.1 300.5 300.5 296.4 290.5 289.3 289.4 290.4 291 287.8 283.6 280.3 273.9 270.6 261.7 259.7 259.9 264.3 274 280.7 286.4 295.8 306.3 311.6 312.4 312.6 312.1 310.9 308.3 305.5 300.3 297.2 295.2 293.2 291.6 282.9 273.4 265 260.7 259.8 251.1 248.1 247.4 247.2 246.6 245.2 243.3 243.1 243.2 243.6 245.3 250.2 249.6 251 251 250.6 251.9 253.6 259.8 259.3 259.5 259.3 259 258.7 258.4 258.1 258.9 262.4 263.2 258.4 260.5 262.5 267.5 270.9 270.6 269 269.3 270.1 269.8 272.2 275.6 278.8 285 288.7 293.6 311 331 343.7 356.2 371.8 384.8 391.4 391.8 388.9 375.4 371 370.1 366.8 366.3 371.1 368.4 366.7 367.1 370.2 367.6 372.5 373.7 373.8 379.5 383.5 388.6 388.4 383.9 383.1 380.4 378.9 376.8 373.9 369.8 367.1 366.9 363.6 356.5 347.9 333.8 313.7 303.5 294.4 286.3 280.1 274.1 270.3 266.5
278.1 282 283.8 284.5 283.8 280.4 275.2 266.8 255.9 242.9 237.8 237.7 237.7 237.7 237.7 237.9 242.2 249.9 252.7 256.2 259 260.3 258.6 257.8 258.9 257.9 255.8 252.3 251.2 251.5 252 252.2 251.7 251.9 253 253.4 251.3 248.3 248 248.2 248.4 250.7 254.6 256.4 256 258.4 261.4 265.8 273.2 282.9 294.5 304 307.7 317.6 326.8 336.6 335 320.8 318.9 320.8 320.7 319.1 315.8 312.4 311 307.5 303.8 300.8 299 297.8 294.1 290.3 290.6 290.9 291 291 287.6 282.6 276.1 268.7 261.6 259.4 259 267 275.8 286.9 295 302.1 305.5 310.9 312.9 313.8 313.6 313.5 312.1 311 307.3 300.8 297.8 297.7 295.8 289.9 280.6 270 262.2 258.3 249.9 247.3 245.4 244.7 244.4 243.7 243 242.9 242.9 242.8 243.2 244.8 247.2 249.2 250.5 250.2 250.1 250 250.1 255.6 259.8 256.7 258.7 258.8 259.5 260.2 259.6 259.7 265.1 274.9 270.1 262.1 259.9 261.4 266.7 268 268 267.9 268 269.4 277.1 281.5 279.6 288.7 298.9 312.6 323.4 334.5 347.7 365.2 378.1 387.5 391.1 388 381.1 377.6 371.7 368.7 363.4 371.1 376.1 373.1 372.6 377 379.1 379.2 379.5 381.3 379.9 382.5 386.1 388.4 390 390.4 390.4 388.6 388.3 386.5 383.1 381.4 381.5 378.4 371 359.5 351.5 339.9 316 306 297.4 288.3 282.6 275 270.1 265.7
271.2 275.8 279.5 280.4 278.8 275.6 270.7 260.9 253.1 239.3 237.8 237.7 237.7 237.7 237.7 237.9 240.7 246.1 249.3 251.8 253.3 254.2 252 250.9 250 248.9 246.4 245.4 246.2 247.5 248 248.5 249.2 248.4 249.4 249.2 248.4 248.4 249 251.3 254.3 259.8 264.6 266.5 266.8 269.8 275.6 277.4 284.7 295 308 321.1 328.7 337 342 345.8 343.5 330.2 323.6 321.3 321.6 319.2 315.6 312.1 310.1 305.3 301.3 297.3 294.9 294.2 291.5 291 290.9 290.8 291 288 283.3 277.3 270.3 261 259.2 258.1 262.1 280.7 290.1 291.3 298 302.6 306.7 309.5 310.4 312.1 313.5 313 312.1 311.1 307.2 301.8 298 296.3 291.8 284.5 271.8 257.9 253.2 249.4 246.3 244.3 243.4 242.8 242.9 243 242.9 242.9 242.8 243.4 244.2 245.8 248.8 250 249.2 249.9 249.8 249.7 250.6 250.2 250.4 252.4 257.9 258.1 258.7 260.7 263.6 264.6 268.1 274.4 280.9 269.5 265.2 262.9 268 268.4 268 268.1 268.7 271.9 279.5 287.2 287.4 290.3 301.5 315.4 326.3 336.2 350 368.7 378.5 387.1 385.1 382.2 380.1 381 380.8 372.2 369 379.7 381.2 378.7 381.1 388.4 389.9 386.1 385.4 383 382.4 385.3 389.7 391.8 396.4 399 400 399.4 397 394.8 392 391.4 388.7 383.4 375.1 361.5 351.5 337.1 317 308.4 298.6 290.8 284.5 278.1 272.3 269
267.5 269.4 271.7 272.8 271.6 269.1 264.3 256 248 238.1 237.7 237.7 237.7 237.7 237.7 237.7 240.2 244.3 246.6 247.3 247.6 247.9 246.6 244.7 242.9 240 239.7 241.8 242.5 243.1 244.3 244.9 245.3 245.8 247.2 247.7 247.7 248.9 253.9 261.4 263.8 267.8 273.8 280 283.2 286 288.4 290.5 299 309.8 318.5 336.6 345.4 348.5 350 351.2 348.6 338.7 330.3 327.3 323.7 319.8 314.7 311.1 305.8 300.9 297.6 293.2 291 290.4 290.7 291 291 291 290.1 284.4 280.1 271.9 271 267.4 260.7 258.5 266.3 283.3 290.5 293.3 298 300.1 302.1 305.7 309 310.6 311.4 310.5 310.5 307.8 303.6 299.5 295.7 292 283.4 270 257.3 250.6 248.5 248 243.3 243.1 242.8 242.8 242.8 242.9 242.9 242.8 243.4 244.5 246 247.7 249.3 249.8 250.5 250.7 253.1 253.3 255.5 256.5 258.2 255.5 258.3 258.9 263.2 266.6 269.1 271.5 272.9 275.6 282 281.9 276 271.3 269.2 270.8 270.1 272 272.7 276.1 281.1 290.4 295.3 294.9 299.3 311.6 318 328.5 341.7 359 368.1 369.7 374.3 377.8 381 380.7 380.4 376.1 381.9 384.1 386.2 388 399.3 399 394.9 390.1 389.1 387.1 385.4 386.5 392.6 397.5 400.3 404.5 405.6 405.3 404.3 403.2 401.7 397.8 392.5 384.8 375.9 362.7 350.5 338.4 324.9 313.8 304.5 295.8 291.9 284.3 277 276.1
263.6 265.2 264.5 260.9 260 259 253.9 246 238.7 237.7 237.7 237.7 237.7 237.7 237.7 238 238.9 240.8 242.3 242.7 242.1 240.5 239.7 239.4 238.9 240.2 240.8 241.4 241.9 242.1 242.2 242.3 243.4 243.6 243.8 247.7 247.9 254.5 264 272.4 274.8 279.1 286.3 291.2 294.3 297.4 300.2 304.4 313.3 322.9 334 349.9 355.8 358.3 356.8 352.6 349.2 343 335.6 329.6 323.5 319.5 313.4 308.3 303.5 300.6 294.4 290.7 289.6 289.2 290.8 291 291 290.3 287.6 282.3 280.8 278.9 276.6 272.2 263.5 258 267.5 280.3 291 293.1 297.3 299.4 300.8 303.6 306.6 307.8 307 304.6 302.5 301 297.2 292.8 288.7 282.9 268.9 255.6 249.3 247.2 246.7 247.6 247.9 242.8 242.8 242.8 242.8 242.8 242.8 242.8 243.3 245.9 247.8 249.4 249.3 249.3 250.8 253.1 255.7 258.9 262.8 265.2 266.1 264.2 265.4 268.1 272.9 277.7 279.5 281.1 286 290 293.9 293.7 290.9 284.4 278.8 278.1 278.9 279.7 281.1 283.3 287.2 294.7 300.9 308.3 314.5 314.4 314.8 314.2 326.8 337.9 351.6 360.1 366.3 374.2 380.9 381.6 381.8 383.1 387.9 389.8 391.6 397.7 400.3 399.8 395.5 390 388.7 388.6 387.9 388.8 395.7 402 405.2 409.2 411.3 411.4 410.2 409.2 405.6 400.8 393.5 384.8 375.5 365.2 352.9 347.2 339.9 327.1 315.5 308.4 304.4 298.6 294.9 288.4
261.5 262.1 260.8 256.8 251.9 247.3 241.7 237.8 238.6 237.9 237.7 237.7 237.7 237.7 237.5 238 238.5 239 238.6 238.9 238.9 238.9 237.9 238.6 240.6 241.5 242 242.6 242.6 243.3 242.9 242.7 242.9 243.5 244.6 248.1 253 263.9 276.8 283.9 288.3 292.8 296.6 299.5 305.4 311.5 315 317.5 324.8 335.7 346.8 360.5 362.8 361.6 358.2 352.5 347.1 341.1 335.7 327.6 319.8 315.2 310.3 304.9 301.3 299.5 294 292 290.7 290 289.2 289.9 289.2 289.3 289.6 285.5 281.5 281.4 277.8 272.2 263.8 258.3 279 281.1 289.1 291.2 295.9 301 302.1 302.7 303.6 302.5 300 296.9 294.1 291.7 288.5 284.7 278.5 266.9 255.1 247.9 244.3 244.9 244.7 242.9 247.7 247.9 242.8 242.8 242.8 242.8 242.9 242.9 244.1 246.6 249.4 250.4 249.8 249.3 251.9 254.9 258.7 266.4 270.9 272 270.2 272.5 278.1 282.1 287.2 293.5 296.5 302.2 307.8 310.9 314.5 313.3 306.8 300.5 293.2 288.5 286.8 289.3 292.2 294.9 295.3 303 309.3 317.9 326.5 331.6 334.2 329.2 320.1 330.8 344.5 354 366.5 376.7 381.2 380.5 382.8 386.7 392.6 398.8 398 398.8 399 399.1 395.6 391.7 388.6 388 388 392.8 398.5 405.8 411 415.3 418.4 418.6 417.1 414.1 409.1 401.1 393.4 384.2 376.2 368.6 361 356.8 353.2 345.1 331.6 324.2 319.6 314.6 312 305.7
260.5 259.4 257.6 253.8 249.6 243.1 238.5 238.1 238.4 237.8 237.8 237.7 237.7 237.7 237 237.5 237.5 237.6 238.2 238.8 239.1 238.9 238.3 238.8 240.5 243.2 245.2 246.4 246.8 247.2 247 244.4 244.9 245.1 249.4 257.1 266.7 279.3 291.2 296.3 300.6 303.3 304.4 308 316.5 321.9 324 328.9 335.4 346.6 355.2 363.6 364.4 361.2 353.6 347.6 342.8 335.5 328.9 321.4 314.6 310 304.8 300.6 300.1 301 300.5 300.2 295.7 291.9 289.3 285.3 289.2 289.2 289.7 288.2 284.7 280.6 270.7 269.8 268.5 253.2 270.8 280.6 283.3 288.1 292.2 297.7 299.7 300.2 298.6 295.3 291.9 289.3 287.2 285.5 281 272.9 261.6 252.2 247.6 242.8 242.3 242.7 243.4 242.7 242 247.6 247.8 242.8 242.8 242.8 242.9 243 244.8 247.5 249.6 250.8 250.7 252.4 255.2 258.6 260.3 268.5 272.4 274 277.6 281.8 289.5 298.3 308.5 316.1 322.6 330.6 333.8 336.4 338.5 334.7 326.8 317.5 303.2 300 299.4 302.4 307.1 310.3 317 323.1 328 331.5 337.7 344.3 348.9 342.6 328.9 339.9 346.5 357.4 369.8 377.3 381 380.9 379.1 386.4 401.8 403 399.1 399.6 400 401.2 398.5 396 392.9 391 395 400.2 404.7 411.5 418.8 420.1 421 421.4 420.7 415.7 410.2 400.9 391.1 382.4 376.8 373.1 371 367.4 363.2 359.4 349 343.8 342 339 328.9 323.7
258 256.4 254.6 251.4 246.3 240.1 237.7 237.9 238.5 237.9 237.8 237.7 237.7 237.7 237 236.7 237.1 237.5 238.3 238.9 239.5 239.1 239.1 240.4 243.6 245.9 247.7 249 250.3 250.1 248.7 247.7 248.9 251.4 260.6 270.1 286.2 296.2 300.8 305.8 308.7 310 308.7 313 319.1 324.7 330.3 337.8 342.6 349.3 359.9 361.3 360.3 355 346.7 339.2 331.4 324.9 318.2 312.1 307.8 303.4 299.9 300 300.4 300.6 301 301 296.3 290.9 286 280.4 283.2 290.5 288.9 285.4 280.8 273.8 265.5 260.7 257.4 248.5 268.8 272.9 276.8 283.1 285.6 289.3 291.1 290.9 290 287.3 284.3 283.3 280.9 276.4 267.7 258.7 250.4 246.6 243.3 242 242.5 243 243.3 242.6 242 242 247.6 247.8 242.8 242.8 242.9 243.1 245.8 248 249.1 250.3 253 255.5 258.5 261.8 263 269.6 273.7 277.4 283.5 293.3 308.6 320.4 330.5 339.6 347.6 350.9 353.9 354.6 350.7 348.2 335.2 322.2 315.1 317.2 318.5 322 325 330.7 337.6 349.2 353.4 353.3 350.4 351 345.8 331.2 341.6 340.1 350 357.3 367 375.7 377.4 370.1 374.3 391.4 401.3 398.5 398.7 401.2 406.9 409.5 409.8 401.4 398.7 398.7 403.8 408.9 409.1 414.4 420.4 422.7 422.6 421.6 420.7 415.9 408.4 398.1 388 380.9 378.8 377.1 375.7 373.9 371.7 369.9 365.8 360.9 355.3 350.9 345.7 337.5
255.1 253.3 251.6 249 245.9 243 238.4 238 239.4 237.9 237.7 237.7 236.6 236.4 235.9 235.9 236.4 237.6 238.3 239 239.6 239.7 241.4 243.2 246.3 249.2 250.5 251.2 253.5 253.9 253.9 254.2 256.1 261 270.9 287.9 301.3 302 307.4 310.5 311.7 310.7 310.5 311.5 320.1 325.2 330.9 337.8 340.8 349 353.7 350.7 347 342.2 335.1 328.7 322.4 315.6 310.8 307.7 305.4 302.6 300.7 302 300.3 300.6 301 300.1 294 288.9 283.1 279.2 280.5 283.9 283.7 280.4 274 270.6 268 261.4 250.1 250.6 263.4 266.1 269.4 272.8 276.8 280.4 282.7 282.7 282.6 281.5 280 279.5 276 267.2 259.3 253.9 249.2 245.5 242.1 242 242.8 242.7 242.8 242.4 242 242 242 247.6 247.7 243 244.9 245.7 247.6 247.7 250.4 253.2 254.6 257.4 261.8 266.3 267.8 271 274.8 282.7 290.8 308.7 323.5 335 351.4 359.5 364.3 368.9 368.2 361.5 354 342.6 334.2 328.3 328.8 333.8 339.8 345 352.4 356.1 361.4 366 361.7 358.8 351 346.6 341.8 345.1 350.2 351.4 349.9 352.5 361.8 367.4 362.9 364 370.6 380.1 386.8 390.1 398.3 407.4 414.2 410.9 409.4 403.7 401.7 405.2 410.2 412.6 413.2 418.3 420.5 420.9 420.6 419.9 418.5 414.8 407 394.6 388.3 384 382.7 380.7 379 378 379.5 379.8 377 372.3 365.8 359.6 355.3 349.9
252.7 250.6 249.2 248.9 249.7 250.4 245.4 238.9 239.4 237.9 236.9 236 235.4 235.1 235 235.1 235.5 237.4 238.2 238.9 240.8 240.2 243.3 246.3 249.8 255.4 256.3 256.2 258.6 260.4 261.5 263.9 265.7 270.8 284.4 296.4 299.1 302 305.1 307.2 306.3 307.3 306.7 307.3 314.1 319.8 330.7 332.3 337.2 343.4 340.7 336.3 332.4 328.5 323.5 318.3 313.4 308.8 308.1 307.7 307.1 306.6 305 307.3 304.6 302.6 300.3 296.7 290.2 288.5 285.8 281.2 279.2 275.1 272.1 269.7 269.5 269 268.2 262.4 252.3 248.9 261.1 261.3 262.4 265 266.5 270.6 273.9 273.9 275 276.4 275.6 274.7 272.7 259.8 253.9 251.6 248.1 245.4 242 242 243.2 242.8 242.4 242.1 242 242 242 242 247.6 247.6 247.2 248.4 250 251.5 254.4 257.9 258.9 260.4 265.5 270.5 270.5 275 278.7 287.7 305.5 319.9 332.9 346.9 361.4 371.5 375.9 371.2 364.4 358.8 353 347.3 342.9 343.2 347.7 353.8 360.3 367.4 371.1 372.5 372.3 369.8 359.4 350.4 351 351.6 353.9 354.2 358.7 358.5 355.3 354.1 358.7 359.1 358.9 363.3 369.7 377.1 384.8 395.7 407.4 420.8 416.4 408.5 408.9 408.7 410.4 411.2 414.5 417.8 418.4 419.3 419.2 420.3 416.6 414.9 411.9 410.4 404.6 394.6 390.8 389.4 386.6 385.4 385.5 386.8 389.3 388.1 384.1 378.8 373.9 367.9 362.3 357.2
250.9 250.7 250.8 250.5 250.8 250.8 247.3 240.1 238.7 237 236.2 235.2 234.7 234.3 234.2 234.5 235.9 237 237.1 238.4 240.7 243 247.1 250.1 257.2 261.7 262.8 261.3 262 265.3 270.5 275.3 275.2 279.8 292.3 297.1 299.1 300 298.7 291.8 289.7 291.3 293.6 298.6 309 322 328.4 328.9 332.1 332.8 328.9 326.2 323.9 320.3 316.3 312.8 309.9 308.8 308.1 308.2 308.1 308.5 308.8 310.2 305.6 302 298.3 290.9 289.6 290.1 290.2 289.3 284.1 279 275.3 272.4 271.5 264.2 261.8 260.9 256.3 247.8 261.1 261.1 261.1 259.2 258.9 260.7 264.1 265.2 268.8 271.5 272 271.8 265.4 254 248.8 247.4 246.1 244.4 242.3 242.4 242.8 242.4 242.3 242.2 242 242 242 242 242.3 246.9 248.8 250.7 254 257.4 260.8 263.8 269 271.1 269.4 270.4 276.5 280.8 285.7 301.1 316.3 331 343.5 351.8 359.2 364.9 369 369.2 364.2 361.6 359.8 358.5 360.8 363.8 368.2 373.4 378.2 381.8 381.4 380.7 368.6 358.8 358 358.8 359.9 360.3 360 360.7 364.9 365.7 367.1 360.7 360.7 359.6 361.6 368.2 375.7 386.2 398.9 409.4 412.7 419.3 410.2 409.2 409.7 413 416.6 421.5 420.4 419.8 419.4 418.9 417.6 415.4 409.8 405.6 403.6 397.7 394.1 390.3 390.4 389.7 389.4 388.5 390.3 392.5 394.2 391 387.5 382.8 378.5 373.2 369 363.9
249.7 249.8 249.3 250.8 250.1 249.5 245.5 240.2 238.2 236.4 235.4 234.5 234.1 233.7 233.9 234.7 235.8 237 239.5 239.2 242.1 245.5 249.9 255.9 261.8 266 269.8 269.1 268.9 271.4 277.7 285.2 286.3 288 292 295.2 295.5 292.7 288.6 283.3 279.9 280.7 286 294.9 310.2 318.3 321.3 322 323.8 322.3 319.8 318.6 317.1 314.1 311.9 310.6 311 310.1 308.6 308.6 308.9 309.2 310.8 309.9 304 299.9 297.7 293.8 296.6 297.6 295.9 291.6 289.8 285.1 280.9 277.4 274.2 270.2 259.9 256.1 252.9 248.8 256.2 261.1 260.4 254.4 251 254.6 259.3 262.2 266.3 269.7 270.8 267.5 260.2 251.3 245.2 243.8 243.7 242.9 242.7 242.5 242.6 242.5 242.4 242.2 242.1 242 242 242 243.5 246.2 249 253.7 259.4 264.6 268.8 270.9 277.1 278.5 273.6 278.6 279.8 288.8 293.6 307.3 320.7 331.5 342.7 351.1 357.6 361.6 367.9 370.2 372.4 372.9 374.8 378.7 382.5 385.5 389.4 390.8 391.2 390.9 383.8 367.9 357.7 358.9 359.8 361.7 365.5 360.8 360.4 364.3 368.5 375.3 376.3 366.8 362.1 360.7 369.9 375.1 383.4 399.3 408.7 411.5 411.6 412.7 411.2 413.7 417.8 419.9 420.4 424.7 424 420.7 417.3 413 409.4 404.2 397.9 392.6 389.8 387.7 388.3 389.6 390.9 389.4 389.2 390.9 391.8 395.2 396.5 393 389.5 386.2 381.5 377 373.9 371
249.1 249.1 249 249.1 248.2 246.9 243.4 240 237.9 236.1 234.9 233.9 233.6 233.5 233.9 234.7 236.6 237.8 240.8 241.9 244.5 247.6 251.7 257.9 263.3 267.5 271.8 273.9 275.1 277.9 286.5 293.5 292.7 291.5 291.8 293.1 292.3 290.8 288 281.5 279.3 278.7 286 295.7 307.7 313.6 314.1 314.3 314.8 315.4 313.6 312.4 313 311.3 311 311 311 309.8 309 309 309.1 310.3 311 309.7 307.3 303.4 300.5 300.6 300.9 301 297.4 293.2 291 286 280.8 277.7 273.2 266.2 257.6 249.8 248.8 248.9 250.7 252.5 251.1 250.6 249.4 250.4 258.4 261.2 263.2 264.6 264.2 260.8 252.9 246.6 241.2 240.2 242 241.6 241.2 241.2 242 242.1 242.3 242.3 242.2 242 242.7 244.4 246.7 250 253.9 258.4 261.4 268.7 274.8 280.3 281.3 281.1 279.1 282.2 284 295.1 303.8 310.7 317.3 324.2 334.7 349.5 361.1 368.6 376.2 379.4 383 388.4 395 399 403.7 406.3 405 399.9 395.4 383.1 364.4 355.5 352 356.2 360.4 361.6 363 360.5 361 370.9 378 381.6 372.5 369.7 371.8 368 371 377.8 390.8 404.4 409.4 409.3 408.9 411.7 412 416.3 419.6 419.2 419.7 420.6 418.2 413.5 407.8 402.7 397.6 392.3 382.7 377.3 378.6 378.9 383.5 388.3 390.8 390.9 389.8 389.7 390.2 393.8 395.2 393.8 390.8 388.6 384 379 376 372.4
248.9 248.9 248.6 248.2 247.3 244 241.4 240.8 238.5 236 234.4 233.7 233.1 233.4 233.8 234.7 236.7 238.6 240.4 244.3 247.4 250.6 254.9 260.6 264.4 268.9 274.9 278.2 282.1 287.1 294.6 301 299.9 297.5 294.5 292.2 290.4 289 284.3 280.5 278.8 278.6 286.9 297 305.2 308.1 307.9 308 308.7 309.8 309.3 309.6 309.8 310.8 311 311 310.6 309.2 309.2 309.2 309.2 309.8 311.7 312.3 311.1 310.2 309.5 307.1 303.4 301.7 297.8 292.6 288 282.9 277.1 273.7 266.3 259.8 256.9 251 249.2 247.6 243.4 247.5 248.3 247.9 246.2 248.5 254.8 257.7 258 258.4 256.6 253.7 247.4 240.7 238.8 238.9 239.7 241.2 239.8 240.7 240.9 242.4 242.4 242.4 242.4 242.3 243.4 245.1 247.6 253 257.9 263.4 267.2 272.9 280.8 289.9 286 285.1 283.2 287.4 292.5 295.9 308.1 311.7 318.4 326 341.3 358.8 370.8 381.3 386.8 390.7 399.7 409.6 412.7 417.5 417.9 412.9 405.3 395.6 380.7 360.3 353 347.3 346.6 349.3 352.9 356.8 358.3 358.7 364.7 379.1 389.8 380.6 383.9 384.8 377.8 370.2 373.6 381.3 396.1 403.2 406.8 405.4 405.5 406.6 407.1 407.5 412.2 416.2 416.9 417 413.5 404.8 397.8 392.2 385.8 376.1 368.9 365.7 369.1 374.2 378.8 381.5 385.3 387 385.8 386 387.3 390 391.4 390.9 390.4 390.1 385 379.5 376 372.5
249.8 248.9 248.8 248.3 245.2 242 239.7 239.7 238 234.8 232.8 232.7 232.9 233.3 233.7 234.8 237.5 240.2 242.5 248 250.4 254.1 259 261.6 267.3 273.4 280 284 290.2 296.3 301.4 301.8 301 299.1 295.4 293.2 290.9 288 280.9 277.1 275.3 278.1 290.4 294.9 300.4 303.2 302.1 302.2 301.3 300.3 307 310.6 310.6 310.6 310.8 311 309.7 309.2 309.4 309.2 309.2 310.5 313.6 315.9 315.6 315.3 312.1 308.4 304.1 299.9 294.4 289.5 283 272.6 269.3 266.3 263.2 262.1 260.8 258.4 253.3 249.3 243.6 247.7 247.7 245.8 240.5 242.1 249.3 251.1 251.3 251.4 247.9 245.4 241.3 238.4 238.6 238.7 238.9 240.8 239.8 240.5 241.4 242.2 243.2 243.5 244 245.4 246.6 247.7 249.1 253.4 260.1 266.2 271.9 277.2 283.8 290.8 290.8 290.6 294.6 296.3 304.3 308.3 312.5 319.5 325.3 333.7 346.2 357.4 372.8 385.4 393.6 404.2 414.1 418.8 423.8 422.5 417.3 405.3 385.2 369.4 354.7 343.8 339.9 339.4 339.9 343.4 348.2 350.7 351.3 353.8 364.3 379.4 389.4 389 390.5 382.2 372.6 370.2 375.8 381.3 391.7 399.7 398.5 398.2 395.9 395.1 395.5 403 410.6 412.3 412.8 411.7 404.2 393.6 386.1 378.7 372 365.2 360.7 360.5 360.3 366.3 370.5 373 377.3 377.4 377.9 378.6 380.1 384.3 386 385.9 386.8 389.7 383.6 378 374.3 370.9
250.4 249 249.1 248.4 245 241.6 240 240.2 238.7 234.8 232.5 232.4 232.4 233.1 234 234.9 237.7 240.2 247.9 250.4 253.4 257.2 261.2 264.3 269.9 277.2 284.1 288.8 295.5 301.9 303.5 301.4 301.1 299.7 295.4 292.1 289.8 284.7 279.7 274.7 270.5 275.9 287.8 291.6 296.9 299 299.1 301 299.5 305.8 310.7 310.7 310.9 310.2 309.8 309.6 309.8 309.2 310.3 310.8 309.9 313.4 317.2 319.2 319.9 319.8 313 305.9 299.3 295.6 289.9 280.4 278 279 277.6 274.4 272.1 268.9 266.5 261.9 258.8 253.9 248.8 247.9 247.7 248.8 245.7 239.9 239.9 245.3 247.7 241.7 238.8 238.3 238.1 238.8 239.3 240.4 240 240.3 241 241.7 242 242.2 243.2 244.3 245.7 246.9 248.3 250.3 251.7 256.7 260.5 268.5 273.8 280.4 285.8 290.1 296.3 302.2 308.1 310.1 313.2 317.1 322.5 328.3 332.5 337.2 345.6 360.5 379 390.6 401.6 411.1 419.3 422.4 421.6 412.2 395.8 377.1 359.1 345.2 335.7 332.5 329.7 330.7 334.3 336.8 340.8 342.1 343.6 351.3 366.1 380.9 390 390.5 383.5 371.5 367.6 369.9 371.8 374.6 381.2 385.5 387 384.1 380 382.6 393.7 402.7 408 407.6 407.2 399.9 390.5 381.7 371.9 367.1 360.9 359.3 360.1 360.2 354.3 354.2 361.6 365.5 365.5 367.3 368.9 371.9 372.2 374.5 375.8 376.5 377.7 378.3 377.7 373.6 371 368
250.6 250.3 250.1 248.4 244.8 241.4 240 239.1 238.2 235.2 232.6 232.4 232.2 232.7 234 236 238.8 243.7 250.9 253.3 257.4 260.9 264.2 266.7 269.9 277.2 285.3 293.5 299.7 303.9 303.5 301 299.6 297.8 293.3 289.5 286.6 282.3 278.3 272.5 269.8 272.1 284.6 289.6 292.4 290.9 290.9 298.5 302.9 310.5 311.1 310.9 310.7 310.7 311.3 310.7 311 311 311 311 311.8 317.7 318.9 320.7 321 315.7 308.4 300.5 293.8 289.2 280.5 280.4 283.6 286 283.9 280.1 277.7 273.9 270.5 263.8 261 258.4 249.9 249.2 250.9 250 250.8 241.5 239 239 238.9 238.6 237.8 238.1 238.1 238.2 238.9 238.9 240.3 241.1 241 241.4 241.9 242.4 243.3 244.5 245.9 247.4 249 249.8 250.8 256.8 263.9 269.8 274.8 280.8 286.7 294.4 306.2 312.5 315.3 314 316.7 321.6 327.2 332.7 335.3 340.4 352.9 367.2 387.7 400.2 408.3 412.3 414.2 411.3 401.6 385.2 365.8 350.7 335.3 326.5 324.2 321.8 320.9 324 328.4 330.3 333.9 337.7 342.1 352.5 369.7 378.3 380.3 373.7 365.1 355.9 358.7 361.7 363.9 365.5 368.9 370.1 368.8 368.4 370.4 378.5 395.1 400.7 403 399.8 398.9 397.9 382.7 371.9 366.5 362.8 361.6 360.2 360.5 359.9 348.6 349.2 353.4 356.3 353.4 356.2 358 357.3 358.3 360.9 361.2 362.3 361.4 363.2 364.7 363.6 361.6 359.6
250 249.6 249.9 248.2 244.5 240.7 239.7 238.9 236.7 234.8 232.6 232.6 232.5 232.9 234.7 237.4 241.9 250.8 253.2 256.4 260.2 264.7 268.4 270.4 272.4 276.5 288.3 300.1 301.7 302.6 301.8 299.5 296.6 293.6 291 287.7 284 280.2 275.9 271 269.2 271.6 279.4 287.4 291.1 291.3 288.7 295.3 299.1 305 309.4 310.9 310.6 310.4 311.6 311.4 310.6 311 311 311 310.9 316 317.8 318.1 314.4 308.3 301.2 295.2 288.6 281.3 280.2 286.6 289.8 290.5 288.3 285 280.9 276.1 270.7 268.4 262.1 259.6 254.2 261.4 259.6 252.4 248.8 242.1 238.3 237.9 237.9 237.8 237.9 238.3 238.5 238.7 238.8 238.9 240.7 241.2 241.1 241 242.1 242.5 242.9 244.6 245.9 246.2 246.6 247.2 250 256.4 263.9 272.4 278.6 285.7 291.6 300.3 312.8 316 317.6 318.1 319.6 323.1 328.1 332.6 337.5 347.3 361.2 376.5 393.8 403.7 405.9 404.5 393.2 382.5 370.5 355.6 339.3 327.9 318.4 314.1 314.3 314.3 315.3 319.2 321.2 322.6 330.7 335.7 348.8 358.4 363.9 354.6 349.5 345.8 342.3 342.4 349.1 351.1 355.4 359.5 367.1 370 364 363 367.2 376.6 391.2 401.6 401 393.3 385.1 378.6 371.2 367.4 369 367.8 367.3 364.5 359.5 350.5 348.2 348.1 348.5 345.8 342.4 342.9 343.3 341.4 337 338.5 342.3 344.5 344.7 346.9 348.4 350.9 349.9 348.4
249.7 248.9 248.6 246.9 244.4 240.3 240.3 237.4 235.6 233.6 232.4 232.3 232.4 233.8 236.3 239.2 248 252.9 256.7 259.9 263.4 267.5 271.3 274 277.3 281.1 296.7 301.2 300.8 299.2 298.4 294.6 291.6 290.8 289.3 285.7 282.6 279.1 273.1 270 268.9 278.7 281.1 286.4 289 288.9 283.8 291.2 294 299.9 303.2 307.9 307.4 308.9 311.1 311.4 310.7 310.9 311 310.9 310.9 312.8 312.6 311.7 306.4 300.6 294.9 290.1 283.4 280.7 287.3 291.6 294.9 295.4 291.7 288.7 282.1 280.2 276.6 270.7 266.3 261.6 265.2 265.8 260.5 254.2 247.3 239.7 237.8 237.7 237.7 237.8 237.9 238.3 238.6 239.6 239.9 240.2 240.8 241.4 241.3 241.9 242.3 242.5 242.4 243.3 242.7 243.3 244.8 247.3 248.8 254.6 262.4 271.4 282 289.3 294.8 305.4 315.2 319.2 321.2 320.7 321.9 324.6 328.8 335.2 343.6 358.7 372.4 385.1 395.6 394.2 384 369.9 358.8 349.5 339.9 327.9 317.5 311.2 305.9 304.8 304.8 307.8 309.6 314.5 318.3 321.3 326.3 338.7 343.9 334.3 332.2 328.2 326 327.6 331.3 334.4 339.7 346.7 352.2 357.1 361.5 370.3 362.4 364.7 379.4 385.1 400.1 400.5 399.5 395.2 379.1 369.2 366 368.4 375.1 378.4 371.3 364.5 354.3 349.1 349.3 350 348.6 346.7 342 340.9 336.8 329.7 321.6 320.8 324.1 329 330.6 330.7 331.4 332.9 334.9 334.3
250.1 248.6 246.2 245.4 243.4 241.1 239.1 236 234.4 232.6 232.4 232.3 233.4 235.2 237.6 243.7 251 256 260.3 263.7 267.2 270.4 273.3 275.4 280.1 289.8 300.8 300.7 296.1 291.3 292.3 289.1 287.5 286.6 284.2 281.4 279 275 270.8 269.2 270.2 280.1 281.1 283 281.8 278.8 280.5 284.2 289.7 294.2 298.9 302.2 302.5 306.7 310.1 311.1 310.5 309.7 311 311 311 311.2 309.6 305.4 300.9 295.4 291.2 288.6 288.3 289.6 292.3 296.7 299.7 299 294.7 290.3 287.6 284.6 278 272.9 269.7 268.1 270.9 265.1 257.7 252.7 245 238 237.7 237.7 237.7 237.7 237.7 237.9 238.2 239.1 239.3 239 239.4 241 241.6 241.9 242.3 242.6 242.4 242.7 243.5 244.8 247.5 247.7 248.8 255.2 264.5 273.9 283.2 291.5 298.3 310.5 319.1 321.9 323.8 324.5 324.6 326.8 334 341.6 353.2 365.2 377.3 384.9 382.9 363.6 351 338.2 328.4 320.2 312.2 305.3 301 296.8 295.2 295.4 299.5 301.1 305.4 309.9 311 312.9 319.8 319.7 316.1 312.2 310 310.1 314.1 318.1 321.3 329.3 336.1 343.8 350.8 353.2 355.3 357.6 357.3 370.5 388.8 391 396.4 394.4 384 376.8 366.4 366.1 368 372 380 377.8 371.1 361.8 358.1 357 360.7 356.5 354.5 354.1 354.5 352.3 349.3 343.4 336.8 327.7 313.8 311.5 317.2 317.8 316.9 318.9 320.6 319.8
247.5 244.9 242.2 241.8 241.5 240.1 237.3 234.5 233 232.3 232.3 233.8 235.9 236.9 239.7 246.8 253.4 258.4 262 266.2 269.5 272.7 275.5 278.5 284.1 293.3 300.5 298.9 292 289.4 288.1 285.5 283.1 282 280.2 277.4 274.5 271.1 269.1 269.1 270.9 275.7 280 278.5 273.8 275.4 279.8 279.5 282.4 289 295.5 299.8 300 306 310.4 310.6 309.2 310.7 310.9 311 309.9 307.3 302.5 299.2 296.1 291.7 289.9 289 289.2 290.2 294.3 299.5 300.8 299.8 297.1 292.7 291 286.6 279.3 277.6 274 271.1 266.5 257.7 251.5 249 240.4 237.8 237.8 237.7 237.7 237.7 237.7 237.7 237.8 238.1 238.6 238.9 239.1 240.4 240 242.5 243.2 244.1 244.7 245.2 246 247.7 247.8 247.6 248.8 256.4 265.2 273.4 282.4 291.3 301.4 314.5 320 319.6 320.6 323.2 324.2 329.1 340 348.8 357.1 365.1 368.8 362.8 347.4 333.5 322.2 310.7 303.6 294.3 291.7 289.3 288.3 287 288.6 289.5 297.4 300.5 301.2 300.9 302.8 301.5 301 307.9 308.5 309.4 312.7 318.5 320.9 320 323.3 328.3 329.2 335.3 341.3 344.1 346.1 348.5 357.4 369.9 378.8 381 380.5 376.7 367 360.6 360.6 366.4 369.9 373.7 379.2 375.4 370.5 366.2 367 374.5 375.1 372.5 368.8 367.7 368.4 368.1 362.5 353.1 343.9 339.1 330.3 318.4 309.8 299.6 302.2 305.6 307.7 305.3
241 239.5 239.8 240.3 239.9 234.5 232.6 231.8 232 232 233 236.3 238.9 238.7 242.3 249.1 254.1 259.8 262.7 266.9 270.8 273.3 277.6 280.5 286 290.6 295.6 294.7 290.2 285.2 283 281.4 279.7 279 276.8 274.2 271.4 268.3 267.1 267.2 268.7 269.2 269.7 269.2 269.6 275 279.1 281.6 280.9 285.1 289.6 296.7 300.7 302.6 306.1 307.1 309.7 308.7 309 307.3 304.3 301.2 299.6 296.2 291.4 289.7 290.3 289.8 290.3 292.1 296.3 299.3 299.9 299.4 298.4 295.1 291.6 289.1 284.2 281 276.6 270.4 260.8 249.9 243.1 239.2 238.1 237.8 237.7 237.7 237.7 237.7 237.7 237.7 237.7 238.1 238.6 238.9 239.1 239.6 241.8 245.7 245.7 246.5 247.2 247.7 247.4 247.6 248 248 248.4 255.5 264.4 272.1 279.1 286.7 298.7 310.4 312 314.7 317.8 320.5 323.9 331.3 338.1 345.7 350.7 347.3 338.9 327.1 316 306.8 297.9 290.8 284.8 281 279.6 279.9 280.3 280.6 283.2 287 290.4 290.8 292.7 298.8 301.5 306.4 310.3 310.1 313.4 316.7 320.8 329.3 332.3 331 334.2 337.6 337.2 337.6 342.5 345.4 342.5 346.5 350 356.2 360.2 365.8 366.5 362.4 359.3 360.1 365.1 369.8 374.7 377.5 378.8 378.7 376.7 377.9 385.8 393.9 392.4 390.4 388.3 386.8 381.2 378 372.1 361.7 349.5 340.1 335.9 328.4 324.3 320.8 303.7 289.2 288.1 289.4
241.8 239.3 239.3 239.6 233.6 230.1 230.2 230.1 230.2 230.6 232.3 235.6 239.2 240.7 242.6 249.1 254.6 259.4 262.5 266.2 269.5 274.1 278.6 283 288.6 290.9 291.1 291.1 287.8 281.6 278 277.1 276.3 275.6 273.8 272.2 269.2 265.9 264.6 265.1 266.7 269.1 269.3 272.5 278.6 282.2 286.5 290.9 291 289.2 292.5 299.6 300.6 300.9 302.2 304.6 306.2 305.5 304.7 302.9 300.4 299.5 298.9 297.1 292.3 291.9 294.1 293.8 294.3 295.7 298.6 298.1 295.3 294 295.6 292.9 291.3 289.9 285 278.7 270.7 264.5 255.9 243.5 238.3 237.7 237.9 237.8 237.7 237.7 237.7 237.7 237.7 237.7 237.7 237.9 238.7 239 240.2 244.3 247.2 250.4 248 248.5 249 248.5 247.7 247.7 247.8 249 249 249 259.9 268.4 272.2 280.3 292.3 298.9 308.7 315.4 317.3 318 322 326.2 325.8 323.8 318.6 312.5 305.9 300.8 293.6 288.8 284.5 279.4 278 278.4 277.8 280.3 280.7 281.2 283.9 287.2 290 296.2 302.1 309.4 312.3 312.5 316.8 317.6 324.4 329.6 333.2 338.5 338.2 338.5 341.4 342.4 341.4 344.4 353.2 356.4 351.1 348.4 347.9 348.8 350.4 353.1 353.3 358.2 361.5 366.1 369.3 375.4 380.1 381.8 382.2 382.9 387 390.2 396.9 403.1 402.1 397.9 396.2 394.3 388.2 382.9 375.8 367.4 358.2 345.5 339 336 332.2 328 326.8 317.4 303.4 287
244 239.7 238.7 237.4 232.1 229 229.6 229 229 229.5 229.7 232.8 236.4 237.9 240.6 246.7 252.2 257.5 260.7 265.6 269.8 275.6 279.8 286.1 289.7 290.8 290.9 289.7 284.7 280.4 275.2 271.5 272.2 272.3 271.5 269.7 266.7 263.5 262 262.2 264.8 268.9 273 278.4 282.7 287.5 292.6 297.2 297.8 295.2 297.6 300.8 300.9 300.3 300.6 301 302.2 301.5 300.7 299.8 300.3 299.8 299.2 298.3 296.8 298 299.2 299.5 298.5 298.9 298.1 296 291.9 290.2 291.7 290 287.1 284.2 278.1 269 262.7 253.6 244.8 238.3 238.1 237.9 237.7 237.7 237.7 237.7 237.7 237.7 237.7 237.7 237.7 237.7 238.5 241.7 245.8 249.2 250.7 250.6 249.3 250.5 249.1 248.7 248.2 248.5 249.5 251.2 257 257 249.8 255.6 261.1 269.8 276.7 290.9 301.8 312.3 313.4 308.9 309 309.1 306.5 303.6 299.8 293.8 288.5 282.3 278.1 276.9 278 277.8 277.8 277.8 278.2 279.8 280.4 285.8 289.2 294 299.2 304.8 310.1 315.9 320 321.7 326.2 332.2 339.7 347.1 347 344.8 343.1 341.7 343.9 345.9 346.3 349.6 358.9 358.8 350.2 348.7 348.3 348.6 349.6 350.6 353.4 360.6 370.6 376.4 377.2 381.8 383.9 385.2 386.7 391.3 398.8 406.6 409.8 408.3 407.1 405.4 401.5 397.6 393.6 388.4 380 370.9 361.3 353.1 347.1 340.2 334.5 329.9 323.7 320.8 312.2 304.8
246.2 241.9 238.2 235.6 231.6 229.2 229.2 228.9 228.9 228.8 229 231.1 233.6 236.1 238.9 244.7 250.4 255.4 261.1 266.4 271.9 278.9 282.9 289 290.6 290.6 290.3 286.1 281.9 278.5 274.2 270 270.6 270.3 267.9 265 262.1 260.6 259.7 259.8 263.5 269.4 274.7 280.9 284.6 290.3 294.1 299.1 303.8 300.4 301 299.6 299.8 299.5 300.9 300.5 301 299.8 299.6 299.2 299.2 299.2 299.5 299.2 299.6 300 302.1 301.6 300.3 298.9 296.2 292.7 290.8 290 287.3 283.2 279.3 270.8 268 262.4 257.6 243.7 238.2 238.2 238.1 238.1 237.9 237.7 237.7 237.7 237.7 237.7 237.7 237.7 237.7 237.7 240.2 248.3 249.8 250.1 250.9 250.7 251.2 250.8 250.2 249.5 249.5 251 254.1 259 260.5 261.2 258.9 257.8 258.4 258.7 259.5 275 290.6 303.2 298.9 291.4 293.8 294.6 291.3 284 277 274.7 270.6 270.6 269.9 274 278 278.9 279.2 280.2 280.4 281.1 280.7 290.8 299.7 302.8 307 310.6 314.5 321.6 327.4 334.7 343.8 347.2 352.1 354.9 351.9 348.2 346.3 345.6 348.1 350.3 352.6 353.3 358.7 356.3 351.7 351.8 353.4 359 358.5 357 364.2 370.7 378.4 383.4 386.3 387.3 389.8 392.2 397.2 404.3 411.3 418.9 420.1 419.1 415 411.3 407.3 403.4 400.5 395.6 385.3 375.2 367.7 361.5 352.2 340.2 336.9 332.6 328.6 324.6 320.6 310.4
247.7 243.6 239 235.8 231.6 229 228.9 228.7 228.5 228.5 228.8 230.7 234.6 236.1 239.1 243.5 250.1 255.9 263.2 270.6 277.3 284.2 289.7 290.9 291 289.8 287 282.1 277.7 275.5 273.1 268 262.1 265.4 262.4 260.5 260.3 259.2 259.3 260.3 264 269.6 274.8 280.5 286 290.1 294.5 299.3 303 301.8 299.7 298.4 297.5 298.7 300 300 299.5 299 301 301 301.4 301.6 300.1 300.5 301 301.3 303.6 303.3 299.8 297.5 294 290.7 286.9 281.1 279.7 273.7 274 268.1 262.2 255.4 244.3 238.1 238.1 238.1 238 238 238 237.9 237.7 237.7 237.7 237.7 237.7 237.7 237.7 237.9 241.7 247.1 249.1 251.1 251 250.9 251.7 252.8 252.9 252.7 254.1 256.2 259.8 264.2 265.2 268.4 272.3 269 266.6 264.4 259.9 257.9 269.1 273.6 272 273 275.9 275.5 269.6 268.4 269.5 268.4 270 269.7 271.3 277.3 280.7 280.2 282.5 284.4 284.4 286.1 290.1 289.9 299.8 306.7 312.8 316.3 320.5 326.6 338.1 346.6 353.7 354.2 355.7 358 355.8 349.5 347.7 348.9 353.4 356.5 359 361.9 360.4 361.9 363.3 361.1 358.9 361.2 363.7 367 375.6 382.7 385.7 390.7 395.7 397.3 399.8 403 407 414.9 421 425 425.6 424.2 420.8 415.4 411.8 408.4 405.2 399.8 387.9 377.2 369.2 361.6 357.7 354 351.3 345.7 341 336.1 326.9 317.3
249.2 246.1 240.3 237 234.4 231.6 229 228.4 228.2 228.3 228.7 230.4 233 233.7 236.5 243 252.9 258.9 268.5 276 281.6 285.9 289.5 290.8 289.6 285.6 281.7 278.7 273.1 271.5 270.3 266 259.9 260.6 260.4 259.3 261 262.7 265.7 266.7 268.4 269.4 275 282.2 289 291.5 295.3 299.5 301 300.3 299.1 297.6 294 294.8 297.7 298.6 299.1 299.5 301.5 305.5 305.7 303.6 300.7 300.9 300.1 300 301.2 302.7 298.9 293.4 289.3 286.2 282 277.4 273.2 270.2 263.8 261.3 254.4 245.1 237.7 237.7 237.7 237.7 237.7 237.7 237.8 237.8 237.8 237.7 237.7 237.7 237.7 237.7 237.7 238.3 239.2 243.3 248.3 250.9 250.9 251 252 254.8 255.5 257.9 259.9 262.7 267.1 268.8 271.6 274.9 279.6 279 273.8 269.9 261 259.5 259.9 258.8 259.5 259.9 261.6 269.2 269.2 274.7 278.1 274.8 271.5 274.3 278.7 283.3 288.5 285.7 288.6 289.6 289.9 294 299 299.2 299.5 309 317.8 321 325.6 336.8 344.4 350.9 356.7 358.2 359.2 360.3 356.8 349.7 349.6 353.2 361.8 365.9 364.3 366.4 368.5 373.7 373.8 374 370.7 366.2 375.4 382.2 387.3 394.7 396.6 400.4 406 410 414.1 418.7 422.2 424.5 427 430.9 431.8 429.4 423.6 417.4 415.2 411.8 407 401.4 387 377.2 375.8 372.7 370.8 368.8 365.2 359.5 352.8 343.7 334.2 328.6
250 245.5 242.6 240.8 239.5 238.5 234.4 230.9 228.4 228 228.5 228.9 230.4 230.4 234.2 241.8 253.3 264.5 273.5 278.5 281.5 285.5 288.4 288.3 285.8 281.4 276.5 272 268.3 266.8 265.6 263.2 259.3 259.2 260 263.9 269.8 271.2 273 273.7 272.9 269.6 278 282.3 286.4 289.8 291.9 295.1 295.9 295.2 294.9 294 290.7 291.7 294.7 298.2 299 299.5 304.7 309.6 308.5 304.6 301.5 298.5 296.7 297.8 300.3 298.4 292.3 286.6 281.2 279.7 277.7 274.3 268.5 260.2 254.6 245.9 238.8 237.7 237.7 237.7 237.7 237.7 237.7 237.7 237.7 237.7 237.7 237.7 237.7 237.7 237.7 237.7 237.7 239.2 240.2 242.1 245.8 249.6 250.7 251 252 255.7 259.5 262.5 267.5 271.5 277.6 277 278.3 281.1 284.4 281.1 273.9 269.2 266.9 261.7 260.5 262.3 265.3 270.6 275.3 285.4 289.5 289.6 290.8 281 278.5 281.7 287.6 291.3 293.7 291.2 294.9 294.3 297 304.3 311.4 312.5 306.4 308.2 318.8 321.2 338.6 350.2 351.8 358.1 361.1 362.3 362.3 359.9 355.7 353.3 354.3 358.3 366.6 371.1 369.9 371.1 378.4 382.7 383.7 389.7 381.9 379.2 385.6 397.9 400.2 406.3 407.8 410.6 416.9 422.1 427.8 433 435.6 439.4 445 443.7 438.7 434.4 428.8 422.6 418.8 415.8 410.7 404.1 393.2 391.6 392.1 390.6 387.9 383.9 378.1 370.1 361.5 352.9 351.3 345.9
249.3 247.7 246.6 245 243.3 241.9 240.6 235.2 228.9 227.9 228 228.5 228.8 228.7 233.2 244.2 256.2 268.4 275.5 280.4 281.7 283.2 284.8 283.8 280.9 276.9 271 267 263.9 262.3 261 259.2 259.1 259.2 265.1 270.5 273.1 275.1 276.3 279.7 279.6 277.2 276.4 273.9 278.7 280.5 279.5 288.3 290.7 291.2 290.1 290.4 289.6 290.9 294.9 298.4 299.5 301 305.1 309.3 308.7 307.7 301.5 295.1 290.6 292.1 290.3 284.9 279.1 277.1 277.6 275.1 273.1 269.2 260.8 254.6 248.5 239.6 237.7 237.7 237.7 237.7 237.7 237.7 237.7 237.7 237.7 237.7 237.7 237.7 237.7 237.7 237.7 237.7 238 239 239.9 239.5 242.5 246.7 249.2 249.5 252.9 258.1 263.6 269.8 273.9 280.1 283.6 284.1 285.4 287.4 289.4 283 279 275.3 272.6 267.1 264.8 270.3 269.4 276.7 283.8 290.2 295.4 296.4 290.9 281 280.8 290.3 295.8 300 300.3 300.1 300.4 299 308 315.6 319 320.8 316.1 310 312.9 334.9 350.6 356.2 361.2 364 367.8 370.8 366.7 360.3 358.1 357.8 358.1 360.3 369.2 370 371.1 375.6 383.4 387.5 388.5 388.7 385.7 391 392.1 399.8 408.8 415 420.3 426.3 432.3 442.2 442.4 444.6 449 452.4 452.1 449.5 443.4 437 432 427.6 423.8 420.1 415.5 413.7 413.3 410.5 406.4 403.8 401.9 398 394.1 385.4 377 366.9 359.2 350.4
248.9 249.2 249.1 248.7 247.3 245.9 242.1 237.5 230.2 228.8 228.2 227.7 227.7 227.7 232.1 247.7 260.5 271 275.4 279.1 281.1 281.5 281 280.2 276.7 270.5 266 262.2 260.2 258.6 256.1 254.2 255.2 259.2 268.9 271.3 273.2 275.8 278.4 280.7 283.7 284.7 283.8 280.4 281.7 290.1 291 290.3 289.3 287.7 289.3 290 294 296.2 298.3 300.5 299.9 301.2 304.8 309 310.8 307.8 299.7 291.7 285 279.3 275.4 273.7 270.5 273.5 279.9 271.8 270 264.7 253.3 250.4 241.5 237.8 237.7 237.7 237.7 237.7 237.7 237.7 237.7 237.7 237.7 237.7 237.7 237.7 237.7 237.7 237.7 237.7 238.3 238.9 239 241.3 242.2 245 247.6 249.7 254.1 260.8 267 272.7 280 282 286 289.7 291.7 294.2 293.7 288.5 283.2 280.7 276.3 269.8 271.6 274.6 275.4 280.1 285.5 289.8 292.2 291.5 290 286.7 281.3 294.8 300.9 303.9 304.3 302.2 304.3 307.4 315.2 320.9 323 322.7 320.8 317.5 313.2 330.3 343.8 355.8 363.9 362.5 368.5 370.7 367.1 362.9 360.5 358.8 362.8 370.7 369.4 369.4 370.8 377.7 386.1 389.2 389.1 388.8 392.9 397.6 401.7 408.6 413.9 422.8 432.7 441.4 446.6 450.2 452.4 454.3 456.5 457.3 455.5 452.3 444.1 437.1 432.7 429.3 428.2 423.8 421.4 422.4 423.1 422.5 420.5 417.8 414.2 410.7 405.5 396.2 387.9 379.3 369.1 358.6
250.7 249.7 250.1 251.3 249.9 248.8 245 242.7 239.3 230.6 228.5 227.8 227.7 227.7 233.5 251.2 263.1 268.8 273.8 274.8 275.6 276.4 276.8 275.6 272.4 267.5 262.1 258.2 255.5 253.7 251 249.9 248.9 264 272.2 271.2 271.5 274.7 276.9 280.8 286.2 289.2 288.4 285.6 285.6 290.6 291 290.1 289.5 289.6 289.7 293.4 299.5 301 299.8 299.2 299.2 300.8 303.7 307.1 307.7 303.1 295.1 289.7 282 278.1 270.8 269.1 269.6 272.2 274.2 269.2 269.5 264.7 246.7 241.2 238 237.7 237.7 237.7 237.7 237.7 237.7 237.7 237.7 237.7 237.7 237.7 237.7 237.7 237.7 237.7 237.7 238.2 239.7 239.7 240.6 242.6 244.6 246.7 249.5 252.6 256.8 262.8 272.2 278.7 283.2 286.3 290.2 294.4 297.3 299.9 299.4 295.5 288.8 280.6 278.9 275.6 285.5 283.7 279.3 280.7 284.8 289 289.4 290.8 290.7 290.2 293.4 298 301.1 307.5 309.1 308.9 310 316.7 322.9 324.1 324.9 326.8 328.5 333.1 327.5 321.1 325.6 342.4 358.3 360.8 363.2 368.5 369.3 365.7 360.5 364.9 370.5 370 369.3 370.3 374.2 381 391 390.3 390.4 395.3 402.1 406.7 412.8 418.2 423.2 429.3 439 447.2 453 458.5 461 461 460.4 459.9 457.5 453.1 445.3 438.5 433.7 429.9 428.7 427.3 427.6 428.9 429.7 429.7 428.3 425.8 419.4 416.8 412.6 404.9 395.6 387.7 378.1 367
251.9 252.5 253.4 253 252 250.9 249 244.9 240.9 235.7 228.7 227.8 227.7 227.9 241.2 253.4 260.9 266.6 271.1 270.9 270.5 270.5 270.9 270.2 267.9 263.4 258.3 254.7 252.5 250 249.5 249.3 255 265.6 270.5 271.1 270.4 270.4 274.9 279.9 285.4 290.6 291 289.2 289.6 290.7 290.6 291.9 293.2 291.6 291 294.7 299.3 299.3 299.4 299.2 299.7 300.9 302.4 303.9 301.8 299.1 292.8 286.4 280.2 273 270.5 261.2 260.3 269.1 269.5 269.2 267.9 251.9 239.2 237.1 237.4 237.7 237.7 237.7 237.7 237.7 237.7 237.7 237.7 237.7 237.7 237.7 237.7 237.7 237.7 237.7 237.9 239.4 243.5 244.5 245.2 246.8 248.1 250.6 254.8 259.2 259.8 267.9 277.6 283.3 287.6 290.8 295.8 299.4 300.7 300.7 301.5 294.1 286.9 281 282.4 286.2 290.6 290.2 282.6 281.2 284.8 287.8 289 290.6 292.1 295.1 300.2 301.3 303.4 310.6 313.5 315.5 319.1 321.8 324.8 327.7 333.7 343.1 351.5 350.5 341.8 338.4 330.9 331.2 345 357.7 359.7 364.7 369 369.3 368.8 369.8 369.5 368.8 369.3 371.6 375.3 381.7 392.8 396.2 397.9 403.6 412.1 416.5 420.9 430.5 436.2 441 444.5 449.9 455 460.4 461.1 461.9 462.9 461.9 459.4 453.6 447.7 440.2 435.3 431.2 429.6 430.3 432.1 434.9 436.1 436.3 435 431.8 425.7 419.6 415.3 409.9 402.4 392.8 383.5 373.9
252.1 253.8 255.4 255.3 254.1 251.9 250.8 248.1 243.8 237.7 229.5 227.9 227.7 229.1 242.6 252.2 259.1 263.1 266.8 266.8 268.6 269.1 268.7 264.2 262.1 258.4 254.7 251 249.1 248.5 248.2 248.3 254.3 263.1 265.2 267.6 269.4 269.2 274 280 286.4 290.6 290.6 289.3 290.3 292.3 293.7 295 296.4 296.5 296.1 297.2 299 299.2 299.2 299.2 300.1 301.2 301.4 299.5 296.3 293.6 288.7 283.4 277 270.4 264.6 259.2 259.4 266.1 266.3 262.5 253.4 240.4 236.4 234 232.8 237.7 237.7 237.7 237.7 237.7 237.7 237.7 237.7 237.7 237.7 237.7 237.7 237.7 237.7 237.7 239.8 243.7 249 249.7 251.2 253.2 251.8 259.4 260.2 260.3 265 272.4 279.3 285.6 291.1 295.7 300.3 304.9 300.5 300.3 297.1 290.3 288.8 288.1 289.2 290.3 290.8 289.3 289 287.1 286.2 288.3 291 293.2 295.5 299.2 302.5 305.7 308.7 313.5 316.5 319.9 323.5 326.5 328.3 336.5 349.9 357.1 359.7 357.7 350.6 346.3 345.7 331.2 345.5 356.7 360.9 359.4 361.2 361.2 361.5 364.5 367.5 368.9 372.2 374.8 379.2 384.5 394.4 402.9 406.1 415.2 426.2 429.5 430.3 440.5 445 446.4 448 451.6 457.1 459.2 461.4 463 463.8 462.5 460.3 454.6 448.9 441.7 437.2 433.6 432.4 435.2 438.7 439.4 439.4 440.4 440.3 436.1 429.6 422.2 416.8 413.2 407.2 397.5 388.4 376.8
251.6 253.3 255.2 255.7 254.6 252.3 251.2 250 245.2 238.8 229 227.9 228.4 235.6 245.8 253.3 259.1 260.4 260.7 262.3 267.4 268.9 267.5 261.2 259.5 256.1 251.6 248.7 247.9 247.8 247.8 248.2 250.8 259.3 260.6 260.8 263.8 269.8 275.6 280.4 286.2 291.4 294.9 294.9 293.2 295.6 297.1 298.2 299.4 300.1 300.4 300.6 300.4 301.1 301 300.5 299.2 300.8 301 297.5 292.1 287.6 281.9 275.2 271.7 266.6 261.5 255.2 253.8 257.9 252.1 245.7 241.2 236.5 233.5 233.2 232.8 236.2 237.7 237.7 237.7 237.7 237.7 237.7 237.7 237.7 237.7 237.7 237.7 237.7 238 239.5 245.7 248.5 255.3 258.5 258.2 260.9 260.2 261.1 261.1 264.7 269.1 275.2 281.1 288.1 292.8 297.7 299.9 299.4 298.1 297.7 295.4 291.4 290.3 290.2 290.3 289.4 289.3 289.2 289.4 290.4 290.8 289.5 293.3 295.6 297.8 300.9 305.7 309.3 310.9 316.3 320.4 323.7 327.4 330.4 336.5 347.5 357.3 362.7 360.6 359.5 353.6 350.8 344.9 339.1 347.5 353 352.8 350.5 357.4 358.9 362.2 368.2 374.8 378.4 379.1 381.4 385.1 390.8 399.7 410.3 417.4 428.8 437.7 440.8 444.1 447.1 450 450.6 451.4 453.7 459.2 461.2 462.3 463.1 462.9 461 458.1 453.4 446.8 439.5 437.9 436.6 435.6 438.5 440.4 442.4 443.5 442.9 442.6 438.8 431.8 423.7 416.4 412.2 408 400.9 390.8 376.7
250.1 252 253.3 254 253 251.5 250.4 248.1 244.1 239.6 228.6 227.9 228.2 240.5 248.3 252.8 255.6 255.5 258.6 262.8 268.2 270 269.1 265.1 261 255.4 250.4 248.7 248 247.7 248 248.2 249.1 251.6 255.7 259.4 263.2 269.9 276.9 281.3 288.6 293 299.9 299.1 298 299 301.2 301.9 303.7 305.5 304.8 302.9 301.7 301.8 301 300.5 296 293.6 292.7 289.8 288.6 282.5 280.4 270.9 262.1 259.8 252.8 250.4 248.6 244.6 240.9 238.6 236.5 234.7 233 232.8 232.7 233.5 237.7 237.7 237.7 237.7 237.7 237.7 237.7 237.8 237.8 237.8 237.8 237.8 238.1 242.8 248.2 253.3 260 261.3 262.6 261.3 260.6 262.8 267.5 272.6 274.2 278.6 283 289.3 292.1 298 299.1 299.7 298 295.4 294.1 291.6 290.1 289.4 289.3 289.2 289.2 289.1 290.8 290.2 289.3 291.5 295.2 299.2 302.8 307.5 311.9 314.2 317.6 321.8 322.6 326.3 330.7 333.3 339.3 346.5 355.6 358.3 357.7 352.8 349.8 350 350.1 346.8 345 342.4 349.9 350.3 352.5 359 367.9 379.6 386.7 389.6 391.5 396.3 398.3 401.1 405.7 415.9 426.6 439 448.3 451.7 454.6 456.4 455.7 457.3 458 458.9 459.8 461.2 461.8 461 458.7 454.3 450.4 445.7 439.2 438.3 438.4 437 437.4 437.3 438.6 441.5 442.5 441.7 440.1 435.4 429.5 418.3 410.6 404.5 398.9 391.1 382.4 368.5
249.4 250.5 251.1 251.9 251.1 249.8 247.3 244.1 241.5 232.5 228.1 227.7 229.1 240.9 245.3 249.8 250.4 250.3 256.9 264.8 270.7 274 271 266.3 260.2 256.3 251.3 249.2 248.8 248.1 247.8 247.7 247.9 248.9 252.3 258.5 264.5 271.8 278.6 280.9 285.6 291.2 294.8 295.4 299 302.6 306.8 308.9 309.4 310.6 308.2 306.3 304.5 302.5 300.8 299.3 291 289.3 285.5 280.9 279.6 273.2 270 264.3 260.5 260 256.7 250.9 245.4 240.5 237.3 235.9 235.1 233.6 232.5 232.7 232.8 232.8 234 237.7 237.7 237.8 237.8 237.8 237.8 237.8 237.9 237.9 237.9 237.8 239.8 246.3 251.8 257.6 260.7 260.9 265 266.1 266 267.8 273.6 278.2 280.6 284.5 289.4 294.3 298.8 299.6 299 299.5 296 293.5 292.3 290.3 288.9 288.6 289.3 289 289 288.8 288.8 289 289.6 293.8 299.3 303.8 308.8 313.7 316.5 320.7 325.2 328.7 330.2 333.2 334.6 337.5 340.5 347 350.3 350.2 349 349.2 349.1 349 350.3 346.6 339 343.7 353 355.4 362.8 370.2 383.3 392.9 401.8 405.1 407.3 408.1 409.7 411.2 415.5 419.2 432.4 441.3 449.9 455.9 459.7 464.5 461.7 461 459.2 458.9 458.6 459.5 459.9 458.1 452.4 446.2 440.1 436.2 433.9 435.4 436.4 434.1 432.4 431.2 429.7 433 434.1 434.1 432 423.7 416.3 408.8 401.2 395 385.8 380.2 370.4 357.2
248 248.3 249.2 249.4 248.7 247.6 245.3 241.4 239.2 229.5 227.9 227.9 228.7 238.7 239.9 242.9 246.8 251 255.6 261.3 269.8 276.6 270.9 266.2 260.8 256.8 251.4 250.5 248.9 248.3 247.9 247.9 248.3 249.2 251 258.3 264.5 270.6 272.8 275.8 280.7 281.3 290 296.3 300.4 307.8 310 312.1 313.3 311.8 309.7 308.6 306.9 303.5 301 298.3 293 290.4 285.8 280.2 280.9 279.7 274.8 272.8 269 261.1 259.7 252.6 246 240 237.4 235.9 234.5 233.2 232.3 232.8 233 233 232.9 237.7 237.7 237.7 237.8 237.9 237.9 237.9 238 238 237.9 238.8 239.8 244.8 252.3 257.7 261 261.8 266.4 270.4 269.5 271.2 277 281.4 285.6 289 295.1 299.1 301.1 300.8 299.9 297.5 293.9 291.7 290.2 288.1 284.7 283.4 285.7 287.8 288.7 287.8 287.8 290 292.9 299.2 303.5 310 314.2 319.9 325.1 331.7 336 338.8 341.1 341.5 340.1 340.3 342.3 347.5 350.8 349.4 349 349 349 349.7 343.9 340.2 339.8 348.4 358.2 370.9 380.1 384.6 392.3 404.9 413.9 415.2 416.6 417.3 419 420.7 423.1 428.4 432.2 441 449.4 457.5 460.7 461.5 461.6 461.1 459.8 456.9 453.2 454.9 453.9 450.9 443.4 437.6 432.9 428.7 425.8 426.7 427.2 425.7 424.3 424.6 422.7 425.2 422.1 419.3 413.5 408.9 401.9 396 389.3 383.8 376 370.4 358 347.2
244.1 244.1 244.8 244.6 244.3 243.7 241.7 240.5 237.1 229.2 228.1 227.8 228.6 232.6 235.6 238.1 242 248 253.2 260.5 270.3 271.5 269.5 264.6 259.3 253.9 250.5 249.1 249.2 248.8 248.2 248.4 248.8 250.2 248.9 254.4 260.7 264.4 267.4 269.4 276.6 288.6 297.5 302.4 307.8 311.1 312.7 314.8 316.7 317.2 312.9 311.2 309.3 304.9 300.3 299.9 296.3 292.3 292.7 290.6 287.9 284.3 281.8 276.6 269.7 259.9 254.4 251.5 244.5 238.8 236.6 235.3 234 232.8 231.9 232.5 233 233.2 233 233.6 237.7 237.7 237.7 237.7 237.8 237.9 238 238.1 238.2 238.9 241.4 247.5 249.4 256 262.9 268.3 269.3 270.7 271.4 275.5 279.7 282.9 286.5 291.3 296.1 299 300.3 300.7 296.9 293.3 289.9 288.5 287.1 284.7 280.4 279.8 280.8 283.4 285.2 285.9 287.9 291.2 296.1 301.9 309.2 315.6 321.7 329.3 336.4 344.3 350 352.8 351.6 350.3 348.9 347.2 346.3 348.8 349.1 349.1 349.1 348.8 348.7 349 341.3 342.9 350.2 359.8 368.1 378.3 392.5 400.6 409.3 417.5 422.7 423.6 424 425.7 427.2 428.4 430.4 437.7 440.4 442.9 448.4 454.8 459.5 459.3 459.3 459.8 456.9 452.1 448.3 447.5 447.2 442.3 434.9 429.7 421.1 412.2 412.2 409.8 406.9 404.9 403.1 403.2 404.4 405.3 401.8 397.5 391.8 387.7 384.1 379.7 374.3 369.5 364.2 355.7 346.1 339.8
240.9 240.6 240 239.8 239.8 240.6 239.5 234.8 229.6 229.1 228.5 227.8 227.7 229.4 231.8 235.1 240 244.4 251 259.2 266 266.2 264.3 260.9 255.2 249.9 248.8 249.1 249.3 250.3 252.1 251.3 251.7 253.9 252.1 254.8 258.8 259.7 262.7 267.9 281.7 294.5 302.8 307.7 311.3 311.6 313.2 316.6 319 320.1 320.4 317.5 312 308.5 305.1 303.1 300.6 300.5 299.3 295.5 291.2 287.6 284.3 280.4 274 263 253 246.7 240.7 236.8 234.6 233.5 231.8 231.9 231.7 232.1 232.7 233.3 234.3 235.2 237.3 237.7 237.7 237.7 237.7 237.7 238.6 240.9 241.8 245.1 247.3 250.8 249.5 260.9 267.8 271.1 271.9 271.2 274.1 278.4 281.3 282.3 284.6 290 293.1 295.3 296.2 293.4 291 286.6 285.8 284.5 283.1 282.5 280.6 279.4 279 281 281.3 284.9 287.8 294.8 301 306.8 314.3 320.5 330.6 338.6 349.6 358.8 361.6 361.9 358.9 357 354.9 350.2 349 348.3 348.1 348.1 348 348 347.8 348.8 348.9 351.5 362.7 373 378.7 391.1 402.7 410 419.1 425.6 429.8 429.5 430.1 431.9 433.6 436.3 438.5 441.7 444.9 446.6 450.3 453.8 457.6 457.6 455.9 455.2 453 447.3 443.5 438.8 436 432.5 426.8 419 407.8 398.6 392.3 388.4 384 380.6 377.5 374.8 372.1 372 371.4 369.9 366.4 362.6 358.7 353.4 348.4 346.1 342.4 339.2 334.7 330.6
240 239.1 238.9 238.3 230.9 230 230.3 230.1 229.1 228.4 227.8 227.8 227.7 228.7 229.8 232.1 237.1 240.9 246.4 252.9 257.7 258.1 256.9 254.6 250.7 238.9 247 251.4 252.9 259.5 259.5 259.3 258.7 259.4 258.1 257.4 259 260.4 266.1 274.4 286.9 296.4 303.2 309.4 311.2 311.6 311.6 315.2 318.9 320.5 320.7 320.5 319.1 312.6 309.6 308.5 304.9 302.4 301 297.6 291.5 288.2 284.8 280.2 273.4 260.8 249.3 240.3 236.1 234.8 233.2 232.1 230.7 229.8 230.4 231.9 232.7 233.5 234.3 235.4 237.2 237.8 237.7 237.9 238.1 238.4 241.3 244 247.8 251.8 252.6 251 256.4 264.1 270.1 273.2 273.6 271.3 273.4 279.9 280.8 280.9 281.2 283.1 289.3 290.3 287.6 284.2 280.8 280.3 282 280.2 279.8 279.4 278.4 277.9 277.3 278.9 280.1 284.5 290.9 298.9 306 312.2 320.2 329.2 338.7 349.1 360.7 367.5 369.7 369 368 362.7 359.6 354.9 349.3 348.9 347.8 347.9 347.8 347.9 347.8 349.2 352.8 362.5 375.8 383.1 390.1 397.7 408 415.2 422.5 429.6 431.6 434.5 435.8 437.8 439.7 443.3 443.9 443.6 445.7 448.2 450.8 451.8 453.4 453.5 450.7 449.2 445.9 439.4 433.6 427.9 422.3 416.5 409.8 403.6 394.3 382.5 372.5 370.7 366.8 356.4 354.4 348.4 342.3 342 338.7 336.4 335.1 333.5 330.3 328.2 324.3 321.5 318.4 314.9 313.5 312.9
247.2 243.8 241.3 239.4 235.5 233.2 231.2 229 229 227.8 227.8 227.8 227.8 228.7 230 229.3 231.8 239 242.5 247.7 252 251.3 250.3 247.1 238.3 246.8 254.6 258.5 262.2 263.8 266.3 265.1 263.7 263.2 261.4 260.6 259.2 262.5 269.6 278.9 290.8 298.1 300.7 308.1 311 311 310.7 311.4 312 315.7 320.5 320.5 320.5 317.1 312.4 311.3 306.9 302.2 299.4 295.8 290.3 286.3 283 277.4 270.1 257.2 243.1 236.1 233.4 232.3 232.2 231.1 230 229.7 231.3 232.1 232.9 233.7 234.5 236.1 238.2 239.5 238.7 238.9 239.3 239.9 243.3 247.4 251.5 257.2 258.8 258.9 259.1 264.1 270.8 271 272.7 270.1 270.1 272.4 275 273.6 272.3 275.8 279.8 277.1 274.8 273.7 273.3 275.3 277.3 273 270.5 270.9 270.9 272 272.4 276.9 280.7 285.5 293.3 302.3 310.1 320.6 329.6 337.4 348.3 361.5 370.5 374.1 370.9 370.1 371 364.6 361.2 359.2 352.8 350.7 350 348.6 347.8 347.8 348.5 351.5 358.8 373.9 385.1 392.2 395.9 400.1 407.3 417.4 426.9 429.9 433.1 436.6 439.2 441 441.1 444.3 442.2 441.7 443.7 446.7 448.2 448.9 450.6 448.8 443.9 439.7 433.7 425.9 419.9 412.3 406.3 400.7 393.4 386 378.6 366.6 357.2 347.9 342.4 336.8 333.1 326.8 319.9 317.8 314.8 311.1 309.5 309 307.2 303.9 301.6 302.5 298.5 296.5 295 294
251.6 249.4 245.6 242.8 241.1 240.7 234.7 228.5 227.7 227.8 227.8 227.7 227.7 228.6 229.9 230.7 229.7 237.2 238.8 238.8 239.8 239.6 239.5 239.8 249.5 254.8 261.2 266.3 269.3 270.6 271.7 269.3 268.4 268.2 266.9 262.9 263 267.6 279.4 286.1 291.7 301 305.6 308.9 310.1 310.2 309 307 308.3 310.3 316.1 321 320.6 318.5 313 310 305.7 300.9 295.1 291.6 287.7 282.4 277.5 271.4 261.4 249.7 241.5 237 233 231 230.4 229.8 230.1 230.5 231.2 232 233.1 234 234.7 235.5 236.8 239.1 239.6 240.3 240.8 241.2 243.8 247.1 250.4 258.5 261.3 260.7 260.6 261.3 266.5 271.1 271.3 269.1 268.9 269 269.8 270 269.4 269 269.6 268.2 267.6 267.3 268.2 269.7 269.1 268.2 267.9 268.5 270.2 269.7 270.3 273.4 277.5 281.3 290.8 299.8 315 328.4 339 349.1 360 369.3 372 372.9 367.2 365.9 362.8 359.1 359.5 359.4 354 350.5 349.5 348.3 348.3 348.6 352.1 354.2 359.3 375.5 387 394.9 399.5 404.1 407.8 421.8 430.6 430.7 433.6 437.6 439.8 441 440.9 440 440.2 440.6 441.5 443 443.7 443.8 442.7 439.9 434.7 428.9 421.3 412.7 406 398 389.8 385.7 378.3 369.7 359.4 349.3 342.2 333.9 328 318.4 314.4 309.1 305.3 301 297.4 294.9 294.5 294.6 294.7 293 291.7 289.2 287.7 285.7 285 281.7
254.2 251.4 249.1 247.2 247.9 244.1 235.3 228.1 227.9 227.7 227.7 227.7 228.3 229.3 232.5 236.3 238.9 238.8 238.6 238.8 240.7 241.3 240.3 244.8 255 261 264.7 269.8 275.9 278.5 279.3 275.9 273.9 272.5 270 269.2 269.5 278.7 281.5 290.9 300.3 302.8 305.9 307.7 308 307.4 304.1 301.5 304.3 309.2 317 321 319.3 316.9 310.3 306.7 302.9 298.3 290.5 285.4 281.1 276.4 270.3 264.7 254.2 245.6 239.3 235.7 232.5 230.2 229.2 229.2 229.2 230.6 231.1 232 233.1 234.2 235.1 235.9 236.7 238 239.5 240.4 241.2 240.7 243.5 246.5 249.8 252.7 255.3 257.5 261 261.1 263 267.5 267.5 266 266.5 268.6 270.5 270.8 269.2 269 268.3 268.2 265.1 263.3 265.1 266.4 266.5 266.8 267 268 269.3 270.6 270.2 271.8 273.6 278.2 289.3 300.3 316.8 332.9 349.4 358.9 369.9 371.3 370.1 361.3 349.6 346.5 349.9 348.8 352.5 353.9 350.9 349.1 349.1 355.5 356.9 356.2 358.1 358.9 358.4 369.5 387.6 398.1 402.9 407 412.6 421.9 430.7 430.1 432.8 436.5 439.3 441 441 439.4 438.3 439.7 440 441.1 438.2 436.4 433.5 429.7 423.2 414.6 406.2 400.8 391 382.4 371.8 368.7 361 349.4 338.7 335.2 328.6 323.6 318.5 311.6 305.8 299.8 297.6 295.4 292 291.6 289.3 287.9 288.7 287.9 284.7 279.9 279.3 278.9 279 276.9
257.6 255.1 252.3 250.3 250.7 247 238.3 228.5 228.2 227.8 227.9 228.9 233.4 235.9 237.8 240.5 244.1 244.1 243.3 242.3 245.8 248.9 249.4 244.1 253.3 261.8 267.2 271 278 281.1 281.1 280.2 279.6 275.9 273.9 275.5 278.5 288.1 291.5 292.2 298.9 300.3 302.3 304.5 306 303.5 300.9 299.3 306.1 312.2 318.2 320 316 313 308.1 300.1 296.7 291.3 285.3 280.5 273.7 271.4 263.9 256.5 249.1 241.1 236.3 230.4 229 229.2 229.1 230.4 230.2 230.9 231.2 232.2 233.5 234.7 235.8 236.6 237.4 238.2 239.5 240.5 239.5 239.8 242.8 245.7 247.6 248.1 249.1 250.7 255.7 256 257.1 260.5 261.2 262 262.7 265.1 269 269.9 270.6 269.8 269.3 269.2 265.7 261.9 262.5 265 265.7 266.5 267.4 268.4 270.1 270.5 275.7 275.9 276.6 278.3 290.2 304.4 322 338.2 349.6 367.2 371.2 368.7 363.7 355.8 336.1 329.9 335.2 336.7 342 348.9 352.2 352.7 361.8 373.2 375.3 368.7 365.9 365.7 359.2 372.1 385 397.2 403.9 407.1 413.7 420.3 427.2 427 430 434.2 439.3 440.8 440.7 437.3 435.8 435.5 435.5 437.1 433 429.9 424.7 419.9 410.1 403.3 394.8 384.8 379.1 365.9 355.1 349.8 342.7 335.7 327.1 320.5 315.4 312.8 313.3 306.9 299.3 297.7 297.4 296.7 295.5 292.9 289.1 289.2 289.9 287.9 286.2 279.2 278.7 280.8 281.3 283
260.7 258 254.1 251.3 251 243.3 233.7 228.2 227.8 227.8 232.5 242.7 242.5 245.4 241.1 242.9 248.7 250.5 251.9 251.2 249.8 251.9 252.6 249.5 249.7 256.4 262.4 271.1 275.3 278.2 278.5 279.3 279.4 279.5 278.7 279.5 286.6 291.5 294.1 291.9 293.8 295.5 299.2 302.1 302.3 300.4 300.5 306.3 310.8 311.5 314 315.2 311 307.2 301.3 294.2 288.8 283.8 278.5 273.8 268.6 262.3 255.5 247.6 239.6 232.1 228.9 228.2 229 229 229.6 230.8 231.3 231.4 232.3 233 234.3 235.6 236.6 237.4 238.3 239 239.7 239 239 239.5 242 243.4 245.2 245.6 247.3 248.4 249.3 249.2 252.1 258.3 258.6 259.2 259.3 261.4 265.6 269.3 270.8 270.6 270.2 269.8 266.3 262.1 262.3 263.6 265 267 268.5 269.4 271.6 274.2 280.1 283.7 282.1 279.8 291.6 298 320.1 336.7 351.4 363.2 363.8 355.3 356 342.4 323.2 320.1 324.4 328.6 335.3 345.8 359.1 369 382.5 391.4 389.1 381.5 375.8 374.9 365.4 369.4 378.6 389.7 398.2 404.7 412.4 420.5 420.8 421.3 427 432.5 437.8 440 435.4 432 434.2 435.5 435.5 431.2 429.4 429.5 427.2 422.9 418.5 409 403.8 396 385 381.5 374.4 365.5 362.2 353.4 335.2 323.9 317 310.8 306.7 300.5 299.6 300.4 301.5 304.6 304.3 304.4 303.7 301.8 300.4 300.7 300.3 296.6 295.2 294.4 296.4 299.9
261.3 258.1 254.5 251.7 248.5 240.7 229.1 227.8 227.7 233.2 245.6 249.2 250.1 250.5 249.4 248.4 250.6 254.7 257.4 258.2 255.9 257.3 256.3 250.4 255.5 258.3 261.3 265.6 270.3 270.4 271.2 278.4 279.3 281.7 284 285.4 288.8 291 292.9 290.9 290.9 290.1 294 297.8 300.6 298.9 303.2 311.1 311 311 310 308.2 304.1 300.3 292.5 286.1 281 276.5 273.6 265.4 257.5 248.8 244.2 237.2 229.7 227.9 227.9 228.8 229.4 229.3 230.2 231.5 232.6 232.9 233.8 234.8 235.2 236.4 237.5 238.3 239 239.2 240.1 239.8 239.8 241.4 241 241.6 243.1 244.6 247.2 247.8 247.9 248.3 249 251.7 252.8 254.6 256.2 257.8 259.6 262.4 270.3 273.5 274.8 270.7 260.2 260.6 262.7 264.6 266.8 268.7 270.5 274.4 278 282 286.6 291.7 290 283.5 278.3 282.3 295.4 313.2 334.5 344.1 341.7 340 334.7 321.2 311.2 314.9 321.9 326.8 337.4 352.6 372.3 386.3 393.7 396.9 397 394 388.7 383.1 378.9 375 372.3 384 391.1 401.2 407.1 412.5 414 413.1 418.3 424.9 430.4 427.5 428 430 432.2 435.2 435.5 431.7 430.4 432 433.5 435.6 430.1 424.3 416.1 406.9 403.4 397 386.1 375.9 370.1 351 332.2 322.2 314.5 309.3 308.1 306.1 309.1 310.9 312.9 314.7 316.1 317.4 320.3 319.8 321.8 324 320.2 319.1 316.9 318.4 317.1 315.9
260.5 253.9 252.3 250.8 242 233 227.9 227.8 231.6 251 252.2 252.2 252.1 252.4 248.9 249.1 250.5 256.7 260.8 261.5 260.3 260.4 260.6 258.9 262.6 265.1 268.8 270.9 270.6 269.9 274.4 280.2 283.3 286.3 289 289.6 289.2 290.3 290.8 289.6 288.5 285 287.7 290.7 290.1 295.7 306.2 309.9 309.3 304.8 301.3 298.3 295.6 292.2 287.4 281.9 274.7 271.1 265.1 256.7 249.1 242 237.1 230.9 228.1 228.3 227.8 228.1 229.8 230.3 231.3 232.3 233.5 234.6 235.4 236.4 237 237.5 238.7 239.2 239.5 239.1 239.5 240.3 240.8 241.6 242.2 242.5 243.5 245.9 248.3 248.6 248.1 248.5 249 249.2 249.7 251.6 253 255.2 257.5 259.3 263 269.1 272.5 267 259.2 260.8 263.5 267.1 269.7 272.3 275.3 279.9 283.6 288.1 292.5 296.2 294.4 290.4 279.2 278.2 278.7 286.7 299.5 315.9 318.4 314.8 309.6 305.8 308.6 313.4 322.4 332.1 349.2 362.9 382.2 393.4 398.9 402.8 404.3 406.1 402.6 394.5 386.2 382.7 377.7 381.2 384.5 392.1 397.9 400.9 400.5 402.9 410.6 417.7 422.6 420.2 422.1 428.2 431.4 434 435.2 435.3 436.2 438.1 440.8 442.9 439.6 433.1 426.9 417.9 408.6 401.4 385.5 369.8 360.9 345.9 328.5 318.2 311.6 308.3 311.8 317.8 323.9 324.9 326.4 329.2 332.8 335.8 340.8 344.6 342.9 345.1 343.3 343.2 343.9 341.9 338.5 337.6
252.8 249.6 239.6 242.4 235.4 228.2 227.7 228.2 240.3 250.8 253.6 255 254.9 253.7 249.9 248.9 251.9 259 260.6 262.7 264 260.4 260.2 262.5 267.1 269.8 271.8 272.6 271.7 277.1 281.1 284.9 289.3 289.8 290 290.5 289 289.8 288.8 288.7 289.3 283.7 281.1 279.7 282.5 296.1 302.2 301.9 300.8 297.7 293.9 290.6 288.2 285.1 281.9 277.3 268.9 260 254.8 251 241.6 238 233.4 228.7 228.2 228.4 228.7 228.1 229 230.2 231.5 232.4 233.8 235.5 236.7 237.5 238.5 239.2 240 239.5 239.4 239.7 239.6 240 241.8 243.1 244.2 245.4 247.2 249 249.3 248.5 248 248.8 249.1 249.9 248.9 249.3 251.4 254.1 257.2 259 259.6 259.8 260.8 259.1 261.7 264.4 266.5 269.9 273.4 277.3 281.3 287.5 289 292.7 297.2 300.5 299.2 293.2 285.1 287.6 288.7 283.8 287.7 288 293.8 297.3 299.3 301.1 308.6 313.6 326.3 346.6 356.6 374.7 392.1 397.2 399.9 406.3 410.2 411.3 411.3 409.1 397.9 387.7 384 380.4 379.3 383.6 391.5 391.9 396.6 399.9 407.7 412.6 418.7 418.4 420 427.9 431.7 435.2 436 438.4 443.1 449.3 449.1 446.7 444.3 441.1 434.7 425.7 414.7 400.5 383 366 353.3 339.4 324.6 316 310.1 310.2 318.9 331.6 338.5 342.2 345.7 348.3 353.4 358 360.4 361.5 362.1 364.3 364.8 365.1 363.7 362.8 356.9 354.2
257.8 253.3 250.2 238.5 228 227.7 227.7 228 241.7 251.8 254.5 257 257.1 255.9 254.2 253.1 258.2 261.1 264.2 265.8 267.6 263.6 260.5 261.7 271.1 270.9 273.2 276.3 277.9 282.4 286.6 289.8 290.8 291 290.9 289.2 289.5 288.5 288.2 289.3 290.8 286.5 280 279.4 284.7 293 294.9 293.4 293 290 287.3 284.5 282.4 279.9 274.9 270.8 264.5 252.7 245.3 239.4 234.9 231.3 228.8 228 227.9 227.9 228.2 228.4 228.9 229.9 231.1 231.1 232.5 234.9 237.2 238.3 239.4 240.2 241.3 241.5 241.5 240.6 239.8 239.2 240.5 242.7 245.1 247.7 249.2 250.7 249.7 248.1 248.4 249.1 250.5 251.5 251.2 250.7 252.1 254.6 257.6 259.8 260.1 259.5 258.6 261.3 269.7 272.3 278.2 273.3 276.3 282.7 289.7 295.8 295.4 298.1 300.6 300.6 300.1 292.7 289.6 293.9 299.5 299.8 289 288.1 289.1 290.8 297.7 299.5 309.6 317.7 331.3 355.5 370.9 388.7 397.8 401.7 403.5 408.9 416.3 419.3 419.7 418.7 405.3 398.3 391.2 385.7 386.1 383.1 389 390.8 397.3 405.5 412.1 416.4 419.9 425.9 428.1 431.4 435.3 439.6 442.6 447 453.8 454.4 453.8 449.6 446.2 442.1 435.6 425 414.7 396.6 374.8 362.1 352.3 335 323.3 317.4 310.9 319.4 333.4 338.7 348 357 365.1 369.3 374.2 376.6 378.2 379.8 382 384.7 386.8 385.8 383.5 377.2 370.8 365.1
259.7 254.6 248.2 234.5 228 227.9 227.8 227.7 243.5 251.6 256.8 259.3 258.9 258.2 259.5 260.8 260.9 264.9 267.5 269.8 270.1 269.3 267.9 265.3 269.1 270 272.5 279.1 279.7 286 290.7 291.9 292.2 290.5 289.3 289.4 289.2 289.2 290.6 290.7 290.9 290.4 279.2 278.5 283.2 287.1 285.4 284.2 285.7 283.5 281.8 280 278 276.7 270.7 265 257.1 246.7 238.9 234.5 230.2 228.6 228.6 228.1 228 227.9 227.9 228.3 228.9 230.6 229.4 230.5 231.5 234.1 236.8 238.3 239.8 241.8 244.8 243.1 241.9 241.8 240.7 240 241 243 245.4 247.9 249 249.2 250.8 251.1 250.6 249 249.7 251.7 252.2 253.8 254.8 256.8 258.9 262.6 267.6 270.3 270.1 272 280.4 285.2 284.8 278.5 282.8 292.7 300.1 304.5 307.3 306 305 301.2 299 297 297.4 299.6 301.3 300.9 289.5 288.2 289.6 293.2 297.7 301.4 316.6 328.9 344.3 368.2 380 390.1 402.7 411 416 417.6 420.8 423.6 424.6 420 410.4 403.2 395.9 390.1 390.7 389.8 390 394.2 406.3 412.4 419.4 425.8 430.8 432.6 435 437.5 444.8 452.2 455.7 460.6 461.9 460.6 457.9 454.3 449.3 441.6 429.9 418.7 408.6 387.2 365.7 359.9 350.2 330.7 322.6 319.3 318.3 330.4 341.8 349.6 363 373.5 382.2 385.4 388.4 394.4 397.6 400.8 401.8 403.6 402.6 398.8 389 384.9 382.1 379.5
260.8 255.2 247.5 232.1 227.9 227.8 227.8 227.7 244.4 257 259.7 260.9 261.1 259.2 261.1 263.5 265.2 268.5 272.5 273.7 273.8 274 272.8 270 269.2 269.2 275.6 281.6 284.6 289.2 290.6 291.2 291 289.4 287.3 289.6 289.5 290.8 291 291.1 291.4 289.2 277.8 270.4 281.1 279.5 276.1 275.8 277.9 278.4 277.2 276.9 275.7 274.6 270.1 260.4 248.4 239.8 237.8 234.9 230.8 229.2 228.8 228.3 228.2 228.2 227.9 228.2 228.7 228.9 229.1 229.2 230.8 233.4 236.2 238.2 239.8 243.3 245.6 242.4 241.2 241.3 240.7 241.5 242.4 244 246.4 248.6 249.1 251.3 255.9 258.5 259 256.4 251.2 252.3 252.4 254.4 257.2 259.4 262.5 266.9 271.7 276.7 281.9 281.3 290.1 294.9 285.9 280.1 296 304.3 308.8 313.1 315.1 314 310.1 305.7 302 302.4 305.8 307 304.1 300.9 291.5 288.3 296.6 305.2 316.2 313.4 325.1 343.7 353.8 375.9 384.5 394.5 405.7 415.2 421.7 419.8 420.3 427.2 427.9 420.5 413.6 406.9 401 396.8 394 392.6 392.9 399.4 415.8 421.3 426.8 432.1 436.2 437.9 440.4 445.4 453.7 460.1 463 466.3 467.5 466.8 463.4 459.2 451.8 442.9 428.1 414.4 399.9 383.4 372.3 365.3 352.2 334.3 321.5 319.3 327.7 339.6 348.8 366.8 379.4 391.3 398.5 404.9 407.8 410.4 414.4 414.1 415.2 415.5 413.5 407.7 402.1 397.4 392.8 390.3
261.7 255.4 248.7 234.7 228 227.8 227.8 228.1 240.4 259.2 261 259.7 257.9 257.1 261.2 265.3 268.8 272.5 277.3 279.3 279 279.4 278.6 274.8 269.9 276.6 280.6 286.3 290.8 291 290.9 290.7 290 286 282.2 283.8 290.3 291.6 291.9 292.4 291.5 287 277.3 269.2 270.9 269.6 269.2 270.9 273 274.6 274.7 276.3 273.7 269.5 259.6 250.5 241 237.7 238.2 238.9 233.7 230.8 228.8 228.4 227.9 227.8 227.7 228 228.3 228.6 228.9 229.1 230.2 232.6 235.5 237.9 239.6 240.7 241.1 240.2 240.1 240.8 241.4 242.1 243.8 246.2 248.2 249.8 253.9 258.2 261.6 264 263.4 260.2 257.1 255 253.7 254.2 258.5 263.2 268.2 271.2 275.8 281.2 287.2 292.7 296.3 300.7 288.4 295.8 310.4 313.1 316 321.3 323 321.2 316.6 314 307.8 308.8 310.7 310.7 308.4 303.6 301.9 289 301.9 314.2 320.9 322.3 329.8 349.3 358.6 378.2 387.2 397.3 411.6 417.5 421.1 420.4 420 428.2 429.8 421.2 416 411.4 405.3 400.6 400.3 399.8 401.6 413.9 422.5 426.3 431.4 437.6 442.9 449 449.4 454.1 460.6 466.3 469 471.8 473 471.8 468.2 463.6 455.2 443.5 425.6 412.3 398.7 388.8 381.4 362.5 351.3 339.1 324.6 320.2 335.8 345.9 356.5 378.4 392.3 403 412.9 417.2 419.9 420.6 423.1 422.7 423 423 419.4 414.9 410.5 406.9 404.7 401.1
263.7 256.5 248.3 236.8 228.3 227.8 228 228.1 236.5 257.1 254.8 250.9 250.5 256.4 261.3 265.9 270 274.1 280.3 282.5 283.2 281 281.1 279.2 279.3 281.9 284.1 288.9 290.4 289.9 289.7 289.3 287.6 284.9 280.5 281.8 287.5 290.6 292 292.2 291.3 283.8 277.9 270.2 269 269.2 270 269.8 270.9 272.8 272.7 274.6 271.3 261.5 251.4 243.1 238 238.4 239.2 238.6 231 229.2 228.1 227.8 227.7 227.6 227.6 227.7 228 228.4 228.7 228.9 229.6 231.8 234.8 237.3 239 239.1 238.9 238.9 240.5 240.3 241 242.5 245.6 249.4 251.9 254.9 258.4 261.2 266.8 269 267 261.5 259.2 258 257.5 258.8 263.2 269 272.4 276.5 281.9 285.8 291.3 296.3 300.9 301.4 293.7 304.8 318.3 322.9 325 329.3 331.1 329.3 327.8 327.1 319.2 313.1 311.3 310.3 310.1 311 311.2 300.1 295.9 298.6 304.6 323.3 333.4 349.5 362.6 377.5 388.2 400 410.9 414.5 417.9 419 419.1 423.3 424.4 420.4 418.8 415.3 408.9 407.2 410.5 410.8 414 422.8 426.4 431.7 435.9 443.8 452.1 454.2 455.6 459.3 464.3 470.2 472.1 475.8 477.9 476.8 473.6 469.3 459.5 448.6 430.7 416.2 404.6 395.5 386.8 368.4 354.5 345.3 329 330.2 341.4 351.7 372.9 391.6 404.9 416.4 426 429.7 428.9 429.8 437.9 437.2 428.8 430.2 428.8 424.3 421.3 416.7 414.4 411
261.9 253.8 244.7 236 228.9 227.8 227.9 227.9 235.1 247 243.1 248.6 251.4 256.7 260.7 264.9 269.1 272.7 278.8 285.4 287.5 280.4 279.7 279.3 281 284.9 286.9 287.6 288.1 288.3 286.8 286.5 285.1 281.4 274.8 274.8 283.8 287.4 290.1 291.3 289.3 280 273.9 270.4 269 269.3 269.8 270.8 276 275.2 270.9 268.4 261.4 249.7 242.6 239 235.4 235.4 236.5 230.2 228.2 228.1 228 227.9 227.7 227.6 227.5 227.6 227.9 228.3 229 229.2 229.3 231.4 234 236.5 238.3 238.9 238.9 238.9 238.9 239.2 239.7 242.4 245.9 250.3 255.9 259.8 262.2 267 270.6 271.5 268.6 262.6 260.4 260.4 263.8 269.7 270.6 272.9 276.8 281 286.8 291.9 297.3 303.4 308 306.5 300.1 315.9 327.4 332.1 334.2 336.4 339.1 340.4 339.1 333.9 326.6 319.1 316.3 314.5 314.8 315.1 315.8 316.2 312.5 310.4 302.5 300.6 303.3 319.7 345.3 360.6 372.1 390 404.1 407.2 414.1 419.1 419.6 420.1 421.1 420.6 420.6 418.7 414.7 416 417.3 418.3 420.5 425.4 429.9 435.7 440.6 449.3 455.7 459.6 463.5 465.2 469 472.9 476.2 479 482.9 482.8 479.7 477.1 467.6 457.4 443.2 427.9 411.7 402.1 394.4 378.6 359.2 345.8 329.7 334.8 347.9 363.5 382.5 401.5 416.7 431.1 444.1 443.1 444.1 446.6 448.9 447.3 441.5 440.1 436.9 434.2 429.5 424.2 421.7 417.4
260.7 252 244.3 235.7 229.1 227.7 227.8 227.9 229.2 233.1 239.2 245.7 250.6 254.9 260.4 264.3 270.1 275 280 284.6 286.9 280.4 279.4 280 281 283.9 285.3 285.1 286.3 284.4 282.7 283 281.4 275.3 267.5 272.1 280.2 280.4 284.2 288.8 283.9 275.5 268.4 268.4 270.9 269.3 269.9 278.7 280.3 278.3 270.3 256.8 251.4 240.8 237.7 239 236.3 231.2 228.5 228 228 228 227.9 227.8 227.7 227.6 227.5 227.6 228 228.4 228.8 229.9 230.3 231.7 233.8 235.9 238 238.8 238.8 238.8 238.9 238.7 238.8 240.8 244.3 250.1 258.5 262.8 267.2 270.3 271.1 269.2 266.9 264.2 265.1 266.9 269 272.3 276 278.2 281.3 285.8 293.2 299.4 305.7 317.7 314.8 308.3 300.2 321.2 330.3 336.7 341 347.9 349.2 347.2 342 335.9 328.8 323.8 321.3 321 323.3 324.3 323.8 325 328.4 329.6 321.9 320.5 313.9 310.1 309.9 329.9 344.8 369.1 388.6 398.9 411.7 418.6 418.4 420.7 421.2 421.3 420.8 419.2 419 420.9 420.4 421.6 423.9 428.3 434.1 441 445 457.7 462.2 470.7 473.5 476.5 480.8 482.8 481.3 482.8 488.7 489.8 488.7 485 474.8 465 451.9 436.8 422.7 409.1 400 380.4 359.3 345.4 329 343.2 358 374.4 389.9 409.5 427.9 446.4 453.3 451.9 456.3 459.2 458.4 453.3 448.8 446.3 443 439.4 434.9 429.4 422.8 418.2
257.5 250.6 242.5 235.1 229.8 227.7 227.7 227.8 227.9 229.5 240.1 242.7 250.2 251.7 259.1 262.1 271 275.9 280.7 285.1 288 285.2 282.7 281 279.9 280.9 281 281.8 281.9 278.8 276.2 279.6 275.1 269.9 259.7 267.2 271.4 272.6 278.4 280.5 276.8 269 261 262.2 263.7 268 274.2 280.1 279.9 277.4 270.3 258.2 240.4 237.2 236.5 238.3 235.6 230.3 227.9 227.8 227.8 227.9 227.9 227.8 227.7 227.6 227.4 227.8 228.1 228.5 228.8 231.2 233 233 234 236.1 238 238.7 238.7 238.8 239 238.9 238.3 239 242.4 249.7 257.8 263 267.1 269.6 268.2 266.2 263.7 261.2 268.6 270.1 269.9 273.2 278.7 281 284.9 291.8 302.7 313.3 323.3 329.1 322.2 314.9 302.5 319.5 330.4 342.5 350.9 353.3 350.4 347.7 342.9 337.6 334.4 332.3 330.4 330.8 331.9 334.9 331 336 344.2 346.7 342.6 338.3 330.9 318.3 312.2 309.7 323.8 345.8 367.7 383.3 397.7 408.8 414.9 418.9 420.7 420.7 418.4 418.4 419.3 421.3 421.9 422.4 426 430.6 438.7 446.3 458.9 464.6 469.6 476.9 481.9 487.3 489.3 490.8 489.1 490.1 491.5 494 494.5 491.9 481.7 466.9 459.4 442.2 430.3 413.3 397 373.5 352.7 340.6 338.4 353.4 368.7 382.4 406.9 422.8 442.9 457.2 459.9 462.2 465.5 465.8 462.1 457.9 454.1 450.9 447 443.5 439.4 433.8 425.3 419.2
253.6 248.9 241 232 228.5 227.9 227.8 227.7 227.9 239.2 242 246.9 249 251.2 260.5 266.6 271.4 277 282.5 287.9 290.5 290.5 289 284 279.1 272.5 270.5 272.5 274.4 269.6 265 265.4 266 263.6 255.9 260.4 262.7 267.5 270.8 273 269.3 261.7 257.1 256.1 261 267.6 271.1 271.8 272.9 269 264.3 257.2 242.1 234.1 232.1 232 229.8 228.6 227.5 227.6 227.6 227.7 227.7 227.7 227.6 227.5 227.4 227.6 228.4 229 229.7 230.9 233.2 235.2 235 236.3 237.6 238.5 238.7 238.9 239.1 239 238.5 238.3 241 249.7 254.9 259.1 262.5 263.9 262.7 261.7 261.1 259.9 260.8 269 269 271.2 275.7 281.2 289.3 301.7 313.6 324.5 333.1 338.1 332.3 322.4 311.4 313.9 322.2 338 353.4 355.7 354.3 349.5 346.6 344.9 345.6 346 343.4 344.3 345.3 343.9 341.8 343.5 349.1 356.8 357.5 351.3 342.3 333.3 324.3 311.8 309.8 325.6 348.6 362.3 377.6 393.1 405.1 416.4 419.2 417.4 416 414.4 415.5 420.1 422.5 422.6 425.3 430.8 441.1 454.1 465.7 471.4 482.8 488.7 494.3 498.4 498.8 496.8 495.1 493.6 494.3 498.8 499.2 497.2 484.3 471.7 459.7 442.3 426.6 406.5 382.2 360.5 351.1 339.3 345.7 360.5 376.4 393.5 419.2 435.1 455.9 466.1 469.2 472.6 472.9 471.2 467.3 462.9 459.1 455.1 450.3 447.3 441.6 437 427.2 418.8
247.7 241.2 238.2 230.9 228.1 227.9 227.8 227.8 228.9 241.2 244.8 249.5 255.2 260.7 268.1 272.4 275.4 279.5 282.6 286 286.3 289 290.9 289.9 283.1 273.4 267.5 264.6 263.9 259 254.4 254.8 257.4 257.1 250.4 252.8 258.8 261.3 263.6 263.6 262.2 258.1 251.7 250 257.2 261.2 264.8 265.3 265.1 262.4 258 252.3 243.7 231.3 229.7 228.4 227.5 227.4 227.4 227.4 227.4 227.5 227.5 227.6 227.6 227.5 227.4 227.4 228.2 229.1 229.1 230.4 232.3 234.7 236.5 237.3 237.8 238.6 238.8 239 239.2 239.1 238.8 238.7 243 250.7 252.7 255.6 258.8 260.6 259.2 260.9 260.5 260 267.2 269.9 269 269.2 274 285.7 297 309.6 322.7 335.1 342.2 347 342.7 330 320.4 310 330.2 331.4 346.5 351.8 356.9 353.7 353.6 354 355 356 356.3 356.7 355.9 354.3 356.5 357.5 357 363.3 365.7 362.6 354.9 343.6 335.5 323.1 312.1 314.2 331.2 347.4 361.2 378 395 410.2 410.7 406.6 409.7 408.3 408.8 414.8 422.6 424.2 425.1 431.5 443.2 460.7 468.7 479.6 492.5 498.8 502.3 504.4 505.8 504.4 501.4 498.6 497.5 499.6 499.3 501.2 486.4 474.9 457.2 439.2 411.5 390.9 374 356.4 344.3 340 355.6 368.3 385.2 412.9 426.2 448.3 469.6 473.3 475.8 478.3 480.4 479.3 474.7 467.1 463.2 458.8 453.4 449.2 441.5 436.1 430.6 427.4
239.8 240.5 234.8 230.8 228.1 227.8 227.9 227.9 229 240.6 244.8 250.1 259.2 265.7 271.3 272.1 275.8 279.2 281 280.8 281.3 286.2 290 290.9 284.4 276.8 268.5 261.7 260 252.6 249.4 248.9 246.7 244.8 244.5 247.7 252.1 254.7 253.9 253.1 259.7 260 255.1 249.3 249.2 256.5 259 258.5 257.9 256 251.3 247.1 240.2 229.2 228.6 227.5 227.4 227.4 227.4 227.4 227.4 227.4 227.4 227.4 227.4 227.5 227.4 227.4 228.1 228.4 229 230.4 232.4 234.8 237.2 238.2 238.9 239.3 239.8 239.6 239.4 240.1 239.3 239.2 243.8 249.9 251.6 253.2 251.8 252.7 249 255.4 260.3 267.1 271.5 271.3 270.4 271.5 277.8 289.7 303.3 318.6 333.5 344.4 353.1 355.6 351.2 339.6 332.2 327.9 325.2 341.2 341.8 349.6 354.9 359 360.7 362.8 363.8 365 368.4 368.3 367.3 371 373.4 371.8 372.3 370.7 374.1 372.3 365.7 355.9 347.3 329.2 318.7 309.4 320.8 335.2 346.7 361.6 375.6 391.2 401.9 394.4 396 398.7 403.1 407.7 418.5 422.8 425.5 433.6 447 462.8 472.1 488.6 506 511.7 511.9 511.1 514 514.3 511.4 510.1 506.7 502.5 501.8 500.6 489.4 469.4 451.7 425 398.3 381.8 364.6 352.7 339.6 350.5 363.8 378.1 398.4 418.6 438.9 464.5 480.1 482.7 484.1 485.7 489.3 489.3 483.7 473.9 467.4 462.5 456.4 451.4 445.4 440.6 432.8 428
244.6 241.2 233.6 229.3 228.1 227.7 227.8 227.9 229.3 240.6 244.4 251.7 261.1 268 271.1 271.2 273.1 276.1 278.6 280 279 282.3 288 289.6 285.8 281 274.4 268.2 263.8 258.2 252.3 247.3 241.6 238.9 239.3 240.2 246.3 246.3 248.3 250.6 255.7 258.5 254.4 249.4 239.2 249.5 251.8 251.8 251.9 250.5 245 241.8 232.7 228.9 227.6 227.5 227.4 227.4 227.4 227.4 227.4 227.4 227.4 227.4 227.4 227.4 227.4 227.4 227.8 228.8 229.6 230.8 232.8 235.3 237.6 239.4 240.5 242.1 244.6 242.8 240.7 239.2 237.6 238.8 240.9 247.6 249.5 249.7 249.1 254.4 260.1 259.2 261.6 269.1 271.3 270.9 273.7 276.7 283.2 296 307.7 328.4 342.4 352 360.6 360.4 354.8 347.1 340.8 340 336.3 343.5 350.1 355.1 358.8 364.6 368.5 369.7 372.2 373.8 376.3 380.7 383.7 385.9 386.5 384.3 383.6 383.2 380 376.5 371.8 363.2 348.2 335 324.8 315.4 309.1 322.4 334.9 347.6 357.4 369 380.1 382.3 380 382.5 389.5 400.7 410.9 418.1 424.3 437.1 449 466.5 480.4 497.9 520.2 524.4 523.8 524 524.3 523.2 522.3 519.7 516.2 512 506.4 496.7 481.4 461.6 439.5 410.2 392.3 373.3 360.2 349.7 347.8 358.9 374.4 389.4 411.9 430.7 455 477.9 486.9 493.3 496.4 499.4 498.8 497.5 493.5 487.7 476.4 470.6 462.8 453.7 447.9 441.6 435.9 430.1
244.6 239.4 233 231.2 228.8 227.8 227.8 227.9 229.2 238.3 242.8 253.3 260.8 264.5 266.7 267.4 269.4 273.1 274.5 275.2 275.5 277.9 282.8 284.5 283.3 281.2 280.8 279.5 273.1 265.2 260 251.9 246.1 239.9 239.4 239.4 240.8 240.4 242.4 245.7 247.5 247.2 245.6 242.3 238.9 241.4 244 244.8 244.6 241 238.7 234.9 229.4 227.8 227.7 227.6 227.5 227.4 227.4 227.4 227.4 227.4 227.4 227.4 227.4 227.4 227.4 227.4 227.8 228.6 229.5 233 236.2 237.4 237.9 239.7 243.6 248.2 249 244 240 238 237.3 238.1 238.9 243.5 248.3 249.2 250.9 259.8 261.3 259.9 260.4 267 270.6 273.8 278.1 284 292.8 303.9 321.5 338.5 350.4 357.3 361.6 359.9 356 350.7 346.8 344.3 345.8 349.9 355.2 360 365.6 370.5 377.8 380.9 381.7 382.3 390.1 394.1 396.9 396.7 393.8 391.4 391.2 389.9 385.8 380.3 374.4 366 356.7 344.2 333.5 325.4 313.9 318.6 319.3 327.8 333.6 339.7 350.6 357 364.6 367.2 377.6 393.4 405.9 416.2 426.2 441.4 453.6 471.6 487.1 510.1 531.6 531.6 529.2 530.5 531.5 532.1 533.9 530 521.9 515.2 505.1 491.1 472.7 450.4 424.6 401.2 383.4 369.1 357.8 349 358.5 368 383.5 404.3 417.4 449.1 473.3 487.2 497.9 504.5 509.1 512.3 509.2 505 500.6 493.1 485.8 478.6 469 456 448.4 444.4 443.2 440.1
241.8 241.6 240.3 236 229.7 228.1 227.7 227.7 228.7 231.1 235 244.9 254.8 258.3 260.5 261.8 262.9 267.7 269.1 270.3 270.8 273 276.1 277.9 277.4 278.5 279.5 278 273.3 268.7 260.9 253.1 245.6 240.2 237.5 234.4 235 235.9 233.9 235.3 236.7 237.1 236.7 234.7 232 235.4 237.1 238.8 237.9 231.4 230.5 228.8 227.7 227.7 227.7 227.7 227.6 227.5 227.4 227.4 227.4 227.4 227.4 227.4 227.4 227.7 227.4 227.4 228.1 228.8 231.9 235.6 239.2 240.2 239.3 242 247.9 250.6 248.1 242.2 239 238.4 238.5 239.4 240.5 244.5 248.5 251.9 256.8 260.9 266.8 264.8 262.8 266.8 271.8 276.6 281.3 288.9 299.9 312.2 330.4 344.2 353.8 360.4 364.3 362.1 361 357 353.2 349.5 351.6 349.2 359.7 364.6 370.7 377.5 384.3 386.7 389.4 394.4 402.4 405 406.7 404.3 400.1 399.8 398.4 394.6 389.9 384.2 376.9 373.8 365.3 354.5 341.6 332.1 319.1 320 329.1 337.5 339.5 342.2 340.8 339.3 343.7 356.1 373.2 391.6 401.3 415.6 432.1 445.4 457.1 475.2 492.3 524.4 537.1 536.6 534.6 535.3 536.8 540.6 541.6 533.3 524.3 515 498.4 481.7 463.9 440.1 417 396.3 378.2 364.9 349.4 354.4 365.2 379.7 396.2 416.6 434.6 465.2 488.9 499.6 509 516.8 520.4 520.2 515.4 510.8 504.6 498.4 492.8 484.9 475.8 469.7 456.6 453.7 455 453.3
251.7 248.2 244.8 239.5 230.5 228.2 227.8 227.7 227.8 227.9 228.8 235.2 246.2 250.6 253.8 255.3 255.3 258.6 262.1 261.2 265.2 265 269.4 270.7 270.4 270.3 271.8 269.5 267.2 262.2 255.2 246.6 241.5 236.5 232.8 229.8 229.2 229.2 228.3 228 229.6 229.5 229.9 229 229.1 229.3 230.4 232.2 230.8 228.5 227.7 227.7 227.7 227.7 227.7 227.6 227.6 227.5 227.5 227.4 227.4 227.4 227.4 227.4 227.7 228.1 227.9 227.9 228.6 230.2 236.5 240.3 240.4 240.6 240.8 241.6 248 249.8 247.7 243.2 239.8 238.8 239.6 241 242.5 246.8 251.6 255.4 260 264.4 269.7 271.1 269.1 270.6 276.1 281.4 284.8 292.4 308.2 321.8 335.9 350.7 360.3 366.8 370.4 371 366.2 361.4 360.1 358.6 358.2 360.1 364.4 370.5 376.4 383.9 390.2 394.2 397.8 406.4 409.5 412.8 414 411.3 407.3 402.6 399.3 399 395.4 389.5 381.7 376.4 369.6 357.6 345.8 332.8 318.8 320 332.9 348.1 353.2 357.7 354.2 345.6 345.5 350.9 372.7 384.2 398.9 415 433.6 448.3 464.3 477.6 500.2 530.8 538.4 539.5 538.2 538.3 539.4 540.9 544.8 535.9 525.1 511.5 494.5 475.5 458 430 409.4 389.3 374.3 359.7 358.3 362.8 377.6 391.7 413.6 430.3 454.3 482.1 500.7 513.5 523 529.3 528.6 524.8 520.1 515.5 509.9 504.5 499.7 493.4 482.2 474.7 469.4 468.2 468 470.8
256 252 247.3 241.5 231.8 228.5 227.1 227.7 227.7 227.7 228 230.5 238.9 240.5 245.5 247.2 245.5 250.2 254 261.1 261.1 258.3 261 262 264.1 261.8 262.6 260.8 256.9 252.3 245.7 239.3 235.8 231.8 228.6 226.9 225.6 224.1 223.5 223.7 224.9 225.5 227.7 227.7 227.7 227.8 228 228 228.5 227.8 227.7 227.7 227.7 227.7 227.7 227.7 227.6 227.6 227.5 227.5 227.4 227.4 227.4 227.5 227.9 229.5 228.9 228.9 229.3 235.6 241 240.2 239.2 240.3 242 244.6 247.8 248.8 247.5 244.7 241.3 240.1 240.8 242.7 244.5 247.8 252.9 258.7 263.1 268.8 271.5 271.7 273.4 275.8 282.9 288.8 293.4 299.9 312.8 328.8 343.7 354.5 362.5 374.3 378.2 376.1 371.6 367.6 366.9 366.9 363.6 368.7 366.4 377.4 383.9 389.7 394.8 400.2 408.6 414.5 416.8 418.3 419.6 417.7 411.4 405.6 401.2 400.5 397.8 391.2 383.7 375.9 367.1 358.7 347.2 332.8 319.3 325.9 344.4 350.8 357.1 360.2 355.7 350.7 361.2 360.9 370.9 382.4 396.2 409.1 428.2 446.8 464.8 479.3 503.2 532.8 539.6 540.9 539.2 539.2 539 540.3 542.8 535.9 523 507.5 483 471.5 450.1 421 399.5 383 369.5 360.4 368.1 376.1 387.4 407.7 429.5 447.5 476.9 498.1 517.5 527.7 536.5 537.2 533.4 529.3 525.4 521.6 518.4 512.8 507.5 502.5 490.6 483 481.4 480.8 483.9 481
258.2 251 247.1 239.2 233.5 229.3 225.8 226 224 224 225.4 227.9 231.1 232.5 234 233.7 239.9 244.6 251.6 254.7 252.9 249.8 252.3 254.4 255.4 253.6 252.9 251.1 247 243.8 237.7 233.9 231.7 227.8 225.3 224.4 223.5 223.5 223.3 223.1 223 225.4 227.7 227.7 227.7 227.7 227.8 227.9 228 227.8 227.7 227.7 227.7 227.7 227.7 227.7 227.7 227.6 227.6 227.5 227.5 227.5 227.6 228.3 229.6 231.5 230.4 229.7 231.4 236.1 239.2 239.3 238.9 240.8 243.9 247.2 249.5 250.5 249.5 247 243.8 242 242.1 244.2 246.6 249.4 254.4 259.9 264.4 269.8 273.7 277.6 279.2 281.5 291.6 299.8 308.2 317.4 321.4 326.4 341.1 354.3 364.5 377.5 381.5 380.5 377 374.1 374 373.6 370.9 375.6 377.9 378.4 388.2 394 399.3 407.5 415.5 421.4 424.9 426.4 427.6 421.8 415 409.1 405.3 403.1 399.4 394.4 387.3 377.6 368.1 359.3 347.1 336.8 319.5 333.6 350.4 352.5 356.9 358.8 359.3 367.2 381.1 371.6 366.2 381.3 392.6 402.8 416 438.6 459.5 477.3 498.2 526.8 539.9 541.9 539.7 539.7 539.9 539.3 539 533.5 515.2 494.1 475.1 462 438.9 411 393.2 377.4 365.1 370.4 377.7 389.7 408.4 424.9 439.7 471.5 496.2 518.2 531.6 543.2 547.2 544.2 538.8 536.2 532.7 531.6 528.1 523.5 517.5 513 505.2 502.8 500.5 495.4 494.4 488.6
259.5 251.1 249.5 244.1 237 228.9 226 224.2 224 224.5 225 227.2 229.1 229.2 228.9 229.4 239.9 241.8 245.7 247 246.5 245.4 246.2 248.1 247.6 247 244.1 240.5 238.7 236.2 230.9 228.2 227.2 225.2 223.3 223.3 223.3 223.3 223.1 223 223 227.7 227.7 227.7 227.7 227.7 227.7 227.7 227.8 227.9 227.7 227.7 227.7 227.7 227.7 227.7 227.7 227.7 227.6 227.6 227.6 227.7 228.3 229.8 231.6 235.3 234.2 231.1 231.3 233.8 237.9 238.8 239.8 242.2 246.6 249.3 250.6 250.6 249.9 248.9 246.3 244.7 244.4 245.8 248 251 255.9 260 263.8 269.3 275.8 280.9 283.8 288.9 298 310.7 322.6 331.5 338 343.5 350.3 359.8 373 383.9 388.6 386.5 382.7 381.6 381.1 379.4 378 379.6 384.9 387.4 391.2 395.8 405.5 413.2 421.2 429.1 433.8 434.2 430.7 423.8 417.2 412.7 409 406.5 403.1 398.4 392 379.5 367.6 357.8 346.9 338.5 324.2 330.4 349.1 353.8 357.6 365.4 369.8 382.4 391.1 383.9 371 370 380.6 391.9 404.3 422.5 444.5 467.1 487.1 509.5 527.3 535.9 538.6 538.8 537.9 537 534.2 523.6 503.1 483.3 467.7 444.8 422.5 402.1 387 372.3 370.4 380.8 386.3 404 420 440.3 460.5 488.1 518.8 535.8 550.2 555.9 554.1 552.8 550.4 545.2 542 540.4 537.7 533.7 529.7 523.1 519.7 516.5 513.9 509.1 505.6 496.2
261 255.4 251.4 246.7 238.7 229.6 225.6 224.2 224.2 224.5 224.7 225.2 228 228 228 230.2 235.5 239.7 241 243.7 244.5 242.1 240.5 242.1 241 239.4 236.5 233.9 232 229.4 227.4 224.6 225.3 223.7 223.4 223.3 223.3 223.1 223 223 223 227.7 227.7 227.7 227.7 227.7 227.7 227.7 227.7 227.7 227.7 227.7 227.7 227.7 227.7 227.7 227.7 227.7 227.7 227.7 227.8 228.3 228.8 229.4 231.2 235.3 234.2 232.7 232.4 234 236.6 239 241.1 243.7 248.5 250.6 251.6 251.8 250.3 249.3 248.5 247.7 247 247.3 249 251.8 256.2 259.3 264.3 270.4 277.6 281.7 288.9 295.1 306 318.9 329.9 339.6 347.2 353.1 360.2 370.7 382.1 391.9 392.5 390.8 391.2 390.4 388.6 387.4 386.2 387.4 390.3 395.1 399.3 401.9 410.9 418.1 423.1 429.6 432.7 432.7 429 424.8 420.1 417.7 414.5 410.9 407.2 402.3 393.1 377.8 365.5 351.9 344.4 338 329.3 330.1 353 359.2 365.8 373.6 379.6 389.3 398.9 394.5 389.4 381 390.5 391.2 389.4 404.2 428.2 450.6 471.7 489 513.7 529.8 535.6 534.3 533.6 532.9 528.9 513.1 491.8 476.4 456.1 436.4 415.7 399.3 382.5 370.1 375.9 389.9 401.3 417.9 436.8 450.6 481.8 515.2 537.8 555.5 562.5 565.5 563.8 561.1 559.7 556.2 552.5 551.2 548.1 544.3 539.1 532.4 531.3 526.4 521.6 517.3 513.6 507.5
