ncols 200
nrows 86
xllcorner 320000
yllcorner 243300
cellsize 50
304.6 304.1 304.2 305.5 307.2 312 316.7 325.2 335.7 347 353.7 359.9 358.2 350.6 347.2 347.7 349.5 353.1 352.6 353.2 354.2 352.7 348.3 340.1 333 328.7 325.3 323.3 321.7 321.8 321.5 319.3 315.8 312.4 308.9 303.4 298.4 296.1 292.7 290 287.3 285.4 284.7 284.1 282 278.2 273.9 271.7 267.2 260.7 253.4 249.6 246 242.9 243.1 242.7 240.8 238.1 237.2 236.2 234 232.1 231.4 228.8 225.5 222.4 219.8 217.4 215.1 213.6 211.8 209.7 208 204 196 168.9 161.8 168.7 170.3 168.7 169.6 168.3 167 166 164.4 161.4 158.3 154.5 150.2 146.3 141.6 130.8 131.5 121.5 115.4 108.1 107.8 102.6 94.9 87 83.2 75 70.5 69.6 68.4 65.8 65.7 65.5 65.6 65.3 65.2 65.4 71.9 77.4 81 82.1 86.1 86 87.1 87.9 82.9 81.5 79.7 79.1 80.3 81.5 81.2 81.9 82.1 82 80.5 81.2 80 78.2 77.5 75.4 73.5 72.3 71.7 71.1 71.1 70.9 71.1 70.6 70.4 70.2 70 70.4 71.8 72.5 73.7 74.5 75.2 75.2 75.3 75.4 75.5 75.6 75.6 76 77 79.3 80.1 79.6 78.5 77 78.1 79.4 79.7 80 79.7 79 77.8 76.2 74.6 73.2 72.2 70.9 70.1 70 69.9 69.3 68.7 68.6 68.6 68.6 68.6 67.9 67.2 66.7 66.5 66.4 66.5 66.6 66.9 67.4 67 67.6 67.6 67.5
308.5 307.8 308.8 309.8 311.9 315.5 320.4 326.7 335.2 346.2 352.1 358.8 358.9 351.3 347.4 351 352.5 352.8 355.4 356.7 356 355 352.8 343.7 336 329.6 325.6 322.5 320.3 318 316.3 314.2 311.7 307.3 302.6 299.1 295.5 292.9 289.8 287.3 283.9 281.6 280.4 277.9 275.1 271 268 266.2 262.7 254.3 248.9 245.4 243.1 241.1 239.1 238.5 237.5 236.5 236.3 235.5 232.9 229.2 227.9 227 223.8 221.1 219.3 217.4 215.4 213.7 211.3 209.1 207 201.7 195.8 182.6 152.7 150.6 160.2 155.9 158.9 154.6 152 152.8 151.3 149.6 146.8 143 137.4 131 124.1 116.3 110.6 102.9 97.4 92 93.3 85 75.7 68.8 65.8 65.5 65.3 65.2 65.4 66.4 69.5 69.3 69.3 69.4 69 68.7 65.5 65.9 69.1 71.4 71.6 71.1 71.4 72.1 71.9 72.6 73 73 72.2 71.7 71.2 71.8 72.1 72.1 72.4 72.2 72.1 71 71.3 70.9 69.7 69.3 69.6 70 69.8 69.2 69.4 69 69.7 69.9 70.1 70.3 71 72.3 73.2 73.7 73.7 73.5 73.1 73.3 73.5 73.7 74.1 75.5 77.2 79.4 79.7 79.3 78.3 75.4 78.5 79.2 79 79.7 78.7 77.5 75.8 74 72.6 71.6 69.6 69.6 69.2 69.5 69.4 68.7 68.4 68.2 68.1 68.1 68.1 67.6 66.9 66.8 66.8 66.6 66.4 66.6 67.1 67.5 66.9 67 66.7 66.5
313 314.1 314.9 315.7 317.5 321.2 324.9 329.9 335.6 342.8 348.6 354.5 357.9 352.2 350 354.1 354.2 357.1 358.2 356.5 355.7 356.1 354.7 346 338 330.4 326 321 316.7 314.3 310.8 307.7 305.9 302.2 299.4 296.5 293.6 290.9 287.1 284.1 279.8 277.3 275.3 273 269 266.7 264.6 262 256.8 249.8 245 243 241.2 237.7 232.1 228.3 232.5 233.9 234.2 231.7 231.4 227.4 222.9 223.7 222 220.3 218.4 216.5 214.6 212.5 209.9 206.9 202.6 197.2 190.8 184 173 152.5 141.6 140.1 144.3 144.7 141.1 137.8 135.9 134.6 131.6 125.9 119.7 113 108.7 98.5 93.6 90.2 86.5 80.5 68.4 65.5 64.8 65.9 69.7 69.9 69.3 69.1 69.1 69 68.9 68.7 68.9 69.1 69.2 69.1 69.1 69.1 65.7 65.8 65.9 70.5 70.7 69.9 70.1 69.5 68.8 68.8 67.8 65.7 65.6 65.6 65.2 65.3 65.2 65.1 67.6 69.1 69.4 69.3 69.5 68.9 68.7 68.4 68.5 68.3 69.1 69 69.7 69.8 69.8 70 70.3 71.3 72.3 72.4 71.9 71.3 70.8 70.8 71 71.9 72.6 73.6 74.3 77.2 77.6 77.7 77 74 76 77.1 77.8 77.1 75.9 74.9 73.5 71.8 70.6 69.5 69.8 69.8 69.4 69.2 68.7 68.4 68.2 68 67.8 67.7 67.7 67.2 66.9 66.9 66.9 66.9 66.6 66.9 67.5 68 68.3 67.3 67.1 67.7
327.5 327.9 326.4 326.9 328.5 329.8 332.2 335.9 339.4 343.4 348.2 354.8 358 353.4 353.1 354.6 355.1 357.8 357.1 356.2 356.5 354.9 351.1 345.3 337.6 331.1 325.4 320.1 313.1 306.7 306.5 303.3 303.1 300.5 297.3 294.8 291.6 287.8 282.7 279.2 274.8 272.6 269.8 268.1 265.2 263.9 262.2 260.2 254.9 249.3 245.8 242.6 238.9 236.2 236.1 233.9 225.1 225.5 229.3 229.6 227.9 225.7 220.7 220.6 219.7 218.7 216.6 214.6 212.7 209.7 207 203.1 198.5 192.9 186.4 180.3 175.2 167.5 155.6 139.7 126.8 123.5 126.7 125.1 122.3 120.7 116.3 110.5 105.2 98.3 92.5 89.2 84.9 76.7 71.6 65.7 65.3 70.3 70.4 69.9 69.9 69.9 69.8 69.3 69.3 69.2 69 68.8 68.7 68.8 68.9 68.9 68.9 69 69.2 69.5 66.3 66.1 66 65.7 67.4 67.2 65.7 65.3 65.6 65.8 65.6 68.4 68.3 67.9 67.9 67.6 65 65.7 68.8 69 69.4 68.6 68.3 68.2 68.8 68.7 69.3 69.1 69.7 69.8 69.7 69.7 69.8 70.4 71.2 70.8 70.3 69.8 69.3 69.6 69.7 70.4 71 71.6 71.4 72.9 73.7 73.5 73.8 73.6 72.5 73.5 72.7 73.2 72.3 71.4 70.6 70.5 69.8 69.4 69.5 69.7 69.1 68.7 68.5 68.3 68.1 67.8 67.6 67.4 67.2 67 67 67.1 67.2 67.4 67.3 68.1 68.6 68.9 69.8 70.3 69 68.3
342.8 342.5 341.9 340.1 339.6 337.7 338.6 340 343 346.2 350.6 356.9 358 356.5 355.8 353.7 355.5 357.7 356 355.3 353.3 350.5 346.7 343.7 338.5 332.7 326.1 319.4 311.9 306.4 302 300 300.2 298.5 295.4 292.2 288.9 284.8 279.2 274.7 271.7 269.5 268.1 267.9 265.2 262.4 260.5 259.1 254.9 252.7 249.7 243.3 240 240.3 239.5 235.7 233.6 228.3 215.5 217.6 223.7 221.4 219.6 218.4 215.4 215.1 213.8 212.2 208.6 205.1 201.6 197.7 193.3 189 182.8 178.1 172.8 164.5 157.7 148.7 140.2 131.3 116.9 106.5 107.5 106.7 103 99 94.7 91.7 87.5 81.8 73.6 70 65.6 70.6 69.7 70.3 69.9 69.9 69.9 69.8 69.8 69.8 69.5 69.4 69.1 68.9 68.9 68.6 68.7 68.7 68.8 69.1 69.4 69.5 69.5 72.3 69 65.6 65.7 65.7 65.6 66.2 68.8 68.4 68.6 68.7 68.7 68.7 68.7 68.4 68 66.2 64.9 68.7 68.8 69 69.3 69 69.2 69.1 69.4 69.3 69.8 69.7 69.6 69.6 69.5 69.7 70.6 70.5 70.2 69.7 69.7 69.7 69.7 69.6 70.2 70.5 70.4 70.3 70.3 70.7 70.7 70.7 70.8 70.9 70.7 70.5 70.4 70.1 69.8 70 69.8 69.5 69.7 69.4 68.7 68.5 68.3 68.1 67.9 67.7 67.5 67.3 67.1 67.3 67.4 67.6 67.7 67.8 68.1 69.2 69.9 70.9 71.9 71.8 71.8 71.3
356.8 354.8 353 349.2 345.1 342.8 343.2 344.6 348 351.9 357.3 363.1 360.6 360.3 355 353 355 357.7 355.4 352.2 349.7 346.5 341.2 339.3 335.6 332.9 328.4 319.2 310.8 304.6 301.5 298.5 296.6 294.7 292.2 289.3 285.9 281.4 276.7 273.1 270.8 269.3 268.9 268 264.2 262.1 259.2 256.8 253.8 253.5 248.5 249.3 247.7 244.7 241 238.4 234.8 230.3 224.3 211.3 216.6 219.1 217.9 216.3 212 209.2 208.6 206.3 203.5 199.1 195.5 192.4 188.7 184.3 180.3 175.9 171.4 166.2 157.6 147.7 138.4 130.3 122.4 113.8 102.7 100 97.5 94.9 91.9 87.3 81 71.3 70.1 65.6 71.2 70.5 69.9 69.9 69.9 69.9 69.8 69.8 69.8 69.7 69.7 69.5 69.1 69 69 68.8 68.6 68.6 68.8 69 69.2 69.4 69.5 70.1 69.5 69.1 68.9 68.8 68.9 68.7 68.6 68.4 68.3 68.4 68.4 68.5 68.5 68.6 68.7 68.4 66.5 64.6 68.4 68.2 69.2 69.5 69.6 69.5 69.6 69.5 69.8 69.6 69.6 69.5 69.2 69.5 70.2 70 69.8 69.6 69.6 69.5 69.4 69.2 69.8 70.1 69.9 69.9 69.8 69.9 70 70 70.1 70.2 70 69.8 69.7 69.5 69.2 69.4 69.8 69.7 69.2 68.8 68.6 68.5 68.3 68.1 67.9 67.7 67.5 67.3 67.2 67.6 67.9 68 68.2 68.4 68.5 69.4 71.1 72.5 73.6 73.7 73.8 73.4
364 363.1 358.4 353.4 350.6 349.8 350.1 352.5 354.9 360.1 369.9 366.5 363.2 359.3 355.1 352.2 354.6 355.2 352 347.7 342 339.6 335.4 334.1 332.4 331.5 326.9 319.1 309.6 302.7 298.2 296 294.1 292.2 289.9 286.9 283.7 278.8 278.9 274.5 272.1 269.7 267 265.4 263.6 261.7 257.9 257.8 255.6 253.9 254.6 251.6 247.6 244.1 241.4 236.8 231.8 226.6 221.3 214 209.3 215.6 213 210.6 208.8 205.6 199.9 196.5 195.4 192.6 189.1 186.9 184.4 180.8 178 174.2 170.6 165.4 157.2 148.3 137.6 130.6 122.8 116 110.7 104 92.6 93.8 89.1 85.1 78.4 70 65.6 68.7 70.7 70.3 70 69.9 69.8 69.7 69.6 69.5 69.4 69.5 69.5 69.2 69.2 69.1 69.1 69 68.5 68.5 68.6 68.8 69.1 69.3 69.4 68.9 68.9 68.9 68.8 68.7 68.7 68.6 68.5 68.3 68 68.2 68.2 68.2 68.3 68.4 68.6 68.7 68.4 66.4 64.7 68.6 69.3 69.4 69.6 69.7 69.7 69.7 69.8 69.5 69.5 68.9 68.8 69.4 69.8 69.6 69.4 69.3 69.3 69.2 69.1 68.9 69.4 69.5 69.5 69.4 69.7 69.5 69.6 69.7 69.6 69.8 69.8 69.6 69.4 69.3 69.1 69.2 69.4 69.3 69 68.7 68.4 68.6 68.4 68.2 68 67.8 67.6 67.5 67.4 67.8 68.1 68.4 68.8 68.9 69.1 69.3 71.1 72.6 73.6 74.2 74.5 73.8
367.9 367.7 364.4 360.1 359.6 358.2 357.9 359.4 364.9 377.1 374.5 369.1 364.3 360.4 356.2 353 352.2 351 347.9 343.3 337.7 333 330.7 330.5 329.7 327.3 322.7 316.4 306.3 300.1 296.7 294.5 292.7 291.1 288.5 285.7 283.6 282.5 280 277.7 274.5 270.5 267.7 265.3 263.1 260.7 259.8 259.8 258.6 258.2 255.2 252.2 248.4 244.1 241.1 235.4 230 223.9 218 214 201.9 208.8 207.6 202.9 201 198.4 193.9 190.9 189.2 185.3 181.4 181.8 180.4 177.4 175 172.6 168.2 163.9 157.8 150.5 141.7 134.1 126.8 118.9 112.4 103.5 95.9 88.1 86.5 83.8 70.8 65.5 66.8 70.5 70.1 69.8 69.5 69.4 69.2 69.2 69.2 69.3 69.3 69.3 69.4 69.2 68.2 68.2 68.2 68.3 68.2 68.4 68.6 68.7 68.9 69.1 69.3 68.8 69 68.8 68.7 68.6 68.6 68.5 68.3 68.2 68 68 68 68 68.1 68.3 68.4 68.5 68.7 68.4 66.1 64.7 69.2 69.1 69.7 69.3 69.4 69.6 69.7 69.2 68.6 68.5 68.4 68.9 69.3 69.2 69 68.9 69 68.9 68.8 68.6 68.9 68.9 69 69 69.4 69 69.3 69.3 69.3 69.5 69.6 69.4 69.2 69.1 69 68.9 68.9 68.7 68.9 68.5 68.2 68.4 68.4 68.2 68 67.8 67.8 67.3 67.7 67.9 67.9 68.1 68.3 69.3 69.7 69.8 70.8 72.7 73.4 73.9 74.3 73.8
365.4 368.5 367.3 367.4 367 365.3 364.9 368 378.1 383.5 377.7 372.6 368.6 368.8 361.3 354 347.4 344.6 341.4 334.3 329.9 328.4 327.6 326.7 326 324.6 321.4 314.4 304.4 298.8 295.4 292.9 291.3 290.1 288.6 286.8 284.3 284 282.1 278 275.7 272.1 269 266.4 265 263.2 261.8 261.8 260.9 258.4 255.5 252.6 249.3 244.9 240.2 234.7 229.2 223 216.5 212.3 202.3 197.4 198.1 196.1 192.8 189.7 187.2 184.6 182.9 180.4 178 175.5 173.5 173.4 172.4 170.5 167.3 163.3 158.3 151.1 143.3 136.5 129.3 120.9 110.8 100.1 92 85.1 82.9 72.4 65.7 64.5 70.4 69.7 69.4 69.1 69 69 69 69.1 69.1 69.1 69.2 69.2 69.2 69.1 68.7 68.1 67.8 67.9 68.2 68.4 68.6 68.7 68.9 69 69.1 68.8 68.9 68.7 68.6 68.5 68.4 68.3 68.2 68 67.9 67.7 67.8 67.8 68 68.1 68.2 68.4 68.5 68.4 68.1 65.4 64.2 67.7 68.6 68.9 69.1 68.9 68.8 68.7 68.2 68 68 68.4 68.8 68.8 68.6 68.5 68.5 68.7 68.5 68.3 68.3 68.4 68.5 68.2 68.9 68.5 68.9 68.8 68.8 69.1 69.5 69.3 68.7 68.8 68.9 68.7 68.5 68.4 68.5 68.6 68.5 68.2 68.4 68.2 68 68 67.7 67.5 67.8 67.8 67.7 68 68.1 68.2 69.2 70.1 70.6 72 72.6 73 73.3 73.2
361.2 365.4 369.3 371 370.4 369.9 369.3 373.7 386.3 385.3 381 376.9 377.5 373.6 366.1 358.8 350.8 343.1 335.6 332.5 329.3 327.3 325.3 324.5 323.8 321.6 318.4 312.8 304.2 298 294.7 293.1 291.9 290.6 289.5 287.8 285.9 283 282.5 283.1 279.1 274.4 272.1 269.9 267.5 266 265.2 265.3 263.1 260.2 256.7 253.2 249.7 245.2 238.7 233.3 227.2 220.6 215.1 209.6 201.1 190 183.9 183.5 183.2 182.6 181.4 178.5 176.2 173.4 171.1 169.9 168.9 168.7 168.2 166.5 164.8 161.8 157.2 151.9 145.7 138.3 130.3 120.2 108.2 96.5 87.3 80 72.5 66.8 65 70 69.6 69.4 69.3 69.1 69 68.9 68.8 68.9 68.9 69 69 69 69.1 69.1 69.3 68.5 68.2 68.3 68.2 68.1 68.4 68.7 68.9 69 68.9 68.9 68.8 68.9 68.7 68.5 68.3 68.2 68 67.9 67.7 67.6 67.5 67.7 67.8 67.9 68.1 68.2 68.3 68.1 68 66.4 65.7 64.3 64.6 68.2 68.3 68.3 68.1 68 68.3 68.4 68 68 68.4 68.1 67.9 68 67.8 68.1 68.1 67.8 67.6 67.3 65.5 64.4 66.6 68.3 68.7 68.6 68.4 68.7 69.2 68.9 68.3 68.5 68.8 68.8 68.5 68.4 68.4 68.2 69 68.2 68.2 68.2 68.2 68.1 67.6 67.7 67.7 67.6 67.4 67.9 68 68.1 68.2 69.1 69.8 70.2 70.8 71.4 71.9 72.1
353.7 360.9 365.8 370.4 370.5 370.1 369.2 376.1 387 386 383.8 382.8 381.1 373.3 366.3 360.4 354.5 345.9 337.7 332.2 329.5 327.3 326.1 323.8 321.2 319.8 315.1 309.3 303 297.5 294.2 292.7 291.5 290.3 288.3 286.9 284.3 285.7 286.5 285.5 283.1 283 277.8 273.5 269.8 269.4 268.7 264.3 262.4 260.5 257.9 253.8 249.3 245.1 238.5 233.7 228.1 220.4 213.8 206.5 198.7 190.5 182.7 173.2 173.9 174.1 174.3 172.3 168.2 166.6 165 164.5 164.3 163.5 162.8 162.5 161.8 159.4 156 151.4 145.4 138.3 127.1 114.8 99.4 91.2 86.2 71 65.4 65 70.1 69.9 69.7 69.5 69.4 69.3 69.1 68.9 69 68.6 68.6 68.7 68.8 68.8 68.9 68.9 70 68.8 68.6 68.5 68.6 68.1 68.1 68.1 68.5 68.9 68.4 68.7 68.6 68.7 68.8 68.9 68.7 68.5 68.4 68.1 67.8 67.5 67.4 67.5 67.7 67.8 67.9 68.1 68 67.9 67.8 67.9 68.2 66.2 64.4 64.4 67.2 67.5 67.5 68 68.3 68.6 67.9 68 67.8 67.5 67.4 67.4 66.8 67 66.9 66.8 66.1 66.2 66 65.3 64.6 67.2 68.5 68.5 68.4 68.5 68.3 68.2 68 68.5 68.8 68.5 68.4 68.2 68.1 67.5 67.5 67.8 67.9 68 68.5 68 67.6 67.4 67.5 67.4 67.2 67.6 67.9 68 68.1 68.2 68.2 68.3 69.1 69.6 69.7 69.9
343.1 353.9 359.3 365.1 368 367.7 368.3 372.6 382.5 386 383.7 384.8 381.7 375.1 366.7 360.8 355.1 346.5 339.7 334.2 329.8 327.5 324.8 322.6 319.1 315.9 311.2 306.6 301.8 297.6 294.1 292.4 291.1 290.5 288.5 286.2 287 288.3 288.7 287 287.7 284.4 279.4 275.2 272.9 270.9 267.5 264.1 262.1 260.1 256.5 253.4 248.8 244.2 238.5 236.8 229.6 221 213.4 203.5 195.1 188.1 182.7 176.2 163.7 163.8 165.5 164.6 163.5 162.8 160.3 159.8 159.6 158 155.4 158.4 158 155.6 152.5 148.2 140.9 132.1 120.4 105.4 94.6 88.3 79.6 66.4 67.4 70.3 70 69.7 69.8 69.7 69.5 69.4 69.2 69 68.9 69 68.5 68.4 68.5 68.5 68.6 70.9 68.4 68.8 68.9 68.8 68.8 68.6 68.1 68.1 68.3 68.7 68.3 68.5 68.4 68.5 68.6 68.7 68.7 68.5 68.2 67.9 67.6 67.5 67.4 67.4 67.5 67.6 67.8 67.8 67.7 67.6 67.6 67.6 68.1 68.5 67.2 65.4 64.1 64.2 67.4 68 68.2 68.2 68.3 67.6 67.2 67.2 67.2 67.2 66.7 66.3 66.3 66.3 66.3 66.4 66.4 66.4 65.9 65.2 67.3 67.9 67.9 68.5 69 69.3 68.3 68.2 68.2 68.1 68 67.9 67.8 67.3 67.2 67.4 67.6 67.7 67.6 67 67.3 67.3 67.2 67.2 67 67.4 67.7 67.7 67.3 66.7 66.9 66.8 66.9 67.1 67.3 68
332.7 344.9 351.2 358.6 363.6 363.6 364.9 368.3 376.5 383.3 382.3 384.3 381.7 372.5 365 359.3 353.5 347.6 342.1 335.8 330.9 327.1 322.8 319.4 317 311.8 306.2 305 301.2 297.2 293.6 291.1 290.5 289.9 289.5 289.5 289.6 289.9 289.2 290.2 288.1 284.3 279.3 274.6 271.3 268.2 265.2 262.8 260.8 257.3 253.9 251.4 249.3 244.4 241.4 236.6 229.3 221.9 212 202.8 194.3 187.5 181.2 175.3 169.8 156.3 156 160.3 160.7 159.3 156.2 152.9 152.3 152.8 150.3 150.7 151.9 149.9 146.7 142.6 133.7 123.3 109.6 98.8 89.6 83.3 66 66.5 70.8 70.2 69.9 69.5 69.7 69.8 69.6 69.5 69.3 69.1 68.9 68.9 69.1 68.7 68.2 68.2 71.3 68.1 68.2 68.6 69 69.1 69 69 68.3 68.4 68.3 68.3 68.2 68.1 68.2 68.3 68.3 68.3 68.4 68.3 68 67.7 67.6 67.5 67.4 67.3 67.3 67.5 67.6 67.5 67.5 67.5 67.5 67.5 67.5 68 68.4 67.6 65.2 64.4 64.4 67.8 67.8 68.1 68.4 67.5 67.1 67 67 67 66.6 66.5 66.4 66.4 66.5 66.5 66.6 66.6 66.7 65.1 65.8 66.6 66.9 68.1 68.2 68.7 67.8 67.9 67.7 67.7 67.7 67.6 67.5 67 66.8 66.9 67.2 67.5 67.4 67 67.2 67.3 67.3 67.1 66.9 66.7 66.6 66.8 66.8 65.7 65.8 65.8 66.2 66.8 67.6 67.7
327.5 336.8 342.8 352.1 358.8 358.7 360.7 364.9 370.5 377.2 381.4 382.4 378.8 370.6 363.8 358 352.3 348.4 343.3 337.9 332 326.2 320.9 315.7 311.1 307.7 303.8 299.3 297.9 293.4 291.3 289 287.5 288.3 289.4 289.6 290.7 290 290.2 288.4 285.2 282.1 278.2 273.5 270 267 264.5 261.7 258 254.3 252.7 250.7 248.6 244.9 241 236.3 229.4 222.8 212.4 203.9 196.6 186.9 179.6 173.9 168.5 163.1 149.6 152.4 154.9 155.6 152.6 146.8 142.6 143.2 142.1 141.2 141.9 141.3 137.9 131 120.5 113.4 101.2 91 84 66.6 65.6 70.5 70.4 70.1 69.8 69.5 69.5 69.7 69.7 69.6 69.4 69.2 69.1 68.9 69 69.1 68.7 71.1 67.9 68.2 68.4 68.4 68.9 69.3 69.3 69.3 68.8 68.8 68.7 68.5 68.3 68.2 68 68 68 68 68 68 67.8 67.7 67.6 67.5 67.4 67.3 67.2 67.3 67.3 67.3 67.3 67.3 67.4 67.4 67.5 67.4 67.8 68.3 67.8 65.9 64.6 64.6 67.8 68.4 68.1 67.4 67.3 67.1 67 66.9 66.8 66.7 66.7 66.6 66.5 66.5 66.5 66.5 66.5 66.5 64.8 65.6 66.7 67.6 67.6 68 67.4 67.4 67.3 67.3 67.3 67.2 67.1 66.8 66.6 66.5 66.8 67 67.5 67.1 67.2 67.5 67.6 67.3 67.1 66.9 66.8 66.5 65.2 64.9 65 65.2 65.4 65.6 65.8 65.6
323.5 330.7 337.8 346.1 353.5 355 356.2 360.5 365.6 373.2 378.1 377.9 373.4 368 362.4 357 350.3 346.3 342.8 337 330 322.9 316.1 311.4 306.2 303.7 300.1 296.9 293.9 291 288.8 286.7 284.9 285.4 288.8 290.5 290 287.9 285.5 283.8 281 277.7 274.3 271.5 267.8 264.7 261.6 257.8 254.3 252.8 251.7 249.6 247.6 244.4 240.4 235.6 229.7 223.5 215.5 206.7 197.7 189.4 180.3 173 167.6 161.9 155.2 146.8 147.7 149.7 148.8 144.5 141.3 134.8 132.6 131.8 132.4 130 126.5 118.7 110.2 101.3 93.3 86.7 74 65.6 70.8 70.6 70.3 70 69.7 69.4 69.4 69.5 69.7 69.7 69.5 69.3 69.2 69 68.8 68.7 71.2 68.8 68.2 68.5 68.4 68.5 68.6 69.2 68.7 68.7 68.7 68.8 68.8 68.7 68.5 68.3 68.3 67.8 67.8 67.8 67.8 67.8 67.8 67.9 67.7 67.5 67.4 67.3 67.1 67.2 67.1 67.2 67.2 67.2 67.3 67.3 67.5 67.9 67.2 67 68 68.1 67.2 64.9 64.4 68.8 68.1 67.7 67.7 67.7 67.7 67.6 67.5 67.3 67 66.7 66.5 66.4 66.3 66.2 66.1 65.9 65.9 65 66.7 67.1 67.1 67.2 67 67 67 66.9 66.9 66.9 66.8 66.5 66.3 66.2 66.4 66.9 67.6 67 67.1 67.3 67.4 67.6 67.3 67.1 67 66.6 64.8 64.9 64.7 64.5 64.7 64.4 64.8 65.5
324.5 330 336.5 343 348.5 351.2 352.7 354.4 360 368.1 374 375 370.4 364.2 359.1 353.8 347.6 343.8 340 335.2 328.1 320.6 314 308.7 303.8 300.8 297 295.2 292.9 289.8 287.1 284.7 283.7 278.2 287.5 287.3 286.2 283.8 280.6 278.2 275.9 272.6 270.5 268.9 265.9 261.7 258.2 255.2 252.8 251.3 250 247.7 245.2 242.4 239 234.8 230.1 224.9 218.7 209.7 200.8 190.8 181.6 174.9 168.1 162.4 157.1 150.5 139.9 142.9 144.1 141.9 137.7 131 128.1 124.2 122.4 120.8 115.1 108 101.5 96.2 87 79.4 65.7 70.2 70.9 70.7 70.6 70.1 69.6 69.3 69.2 69.4 69.5 69.8 69.8 69.8 69.8 69.8 70 71.1 67.7 68.1 68.2 68.8 68.9 68.7 68.4 68.7 68.7 68.7 68.6 68.7 68.8 68.8 68.7 68.5 68.5 68.2 67.8 67.7 67.7 67.7 67.7 67.7 67.8 67.8 67.7 67.6 67.4 67.2 67.1 67.1 67.1 67.2 67.2 67.3 67.6 67.9 67.4 67.3 67.3 67.7 68.3 68.7 64.7 66.5 68.3 68.2 68.1 68.1 68.1 68 67.8 67.3 67.1 66.8 66.6 66.5 66.4 66.3 66.2 66 66.1 66.2 66.6 66.8 66.8 66.8 66.7 66.6 66.6 66.5 66.5 66.5 66.4 66.3 66.1 65.9 66.1 66.6 66.6 66.7 66.7 66.8 67 67.2 67.3 67.3 67 66.8 65.3 65.2 65.1 64.9 64.5 64.1 64.6 65.3
327.2 332.9 339.1 344.2 347.2 348.1 349 350.8 356 363 370.9 372.4 366.9 359.5 353 348.7 345 341.4 337.5 333 326.5 319.3 313.5 307.6 302.2 299.1 294.4 293.6 291.3 288.7 287.8 287.1 286.6 276.9 282.4 283.3 280.7 278.6 275.5 272.8 271.1 269 267 264.9 261.8 257.9 254.7 253.4 251.3 249 246.8 244.8 242.4 239.4 235.9 232.2 229 223.8 218.3 211.3 203.1 193.8 186.9 178.4 170.5 162.8 156.5 150.8 145.8 135.5 132.3 132.6 133.1 129.6 124.7 120.1 116.7 114 107.3 101.3 95.5 87.6 77.9 69.8 65.8 71.1 70.9 70.8 70.7 70.6 70.1 69.6 69.3 69.5 69.7 70 69.8 69.6 69.6 69.8 71.1 69.6 69.3 68.4 68.6 69 68.6 68.4 68.6 68.8 68.7 68.6 68.6 68.7 68.7 68.7 68.7 68.7 68.7 68.5 68.1 67.7 67.5 67.5 67.5 67.6 67.6 67.7 67.7 67.8 67.8 67.6 67.4 67.2 67.1 67.1 67.2 67.2 67.5 67.7 67.8 67.5 67.3 67.4 68.1 68.4 68.7 64.5 68.7 68.6 68.5 68.5 68.5 68.3 67.7 67.4 67.2 66.9 66.7 66.6 66.5 66.4 66.2 66.2 66.3 66.2 66.3 66.7 66.8 66.8 66.7 66.5 66.4 66.3 66.2 66.1 66.1 66 65.8 65.5 65.8 66.2 66.3 66.3 66.4 66.4 66.6 66.7 66.9 66.8 66.6 66.8 65.4 65.3 65.2 65.3 64.9 64.4 64.7 65.4
329.8 336 342.5 347.8 347.8 346.4 346 348.7 355.2 361.2 366.3 369 363.8 356.1 349.8 345.3 342.3 339.1 335 330.2 324.4 317.9 312.5 306.6 301.8 299.5 296.1 293 290.2 289.4 288.8 287.2 284.3 281.1 271.9 275.1 275.2 272.8 270.3 268.6 267.5 265.4 263.3 260.3 257.3 254.2 252.3 250.2 247 244.8 242.8 240.6 238.4 235.8 232.4 229 225.4 221.4 217.7 211.8 205.4 197.3 189.6 180.8 170.8 162.8 157.1 152.2 147.6 143.4 137.1 121.1 124.5 124.2 121.8 117.9 111.5 108.6 100.5 95.4 87.3 80.1 70.7 71 65.9 70.4 71.1 71 70.9 70.8 70.6 70.1 69.7 69.8 69.9 70.2 70 69.7 69.6 70.8 69.8 69.9 69.6 69.1 68.7 68.8 68.8 68.7 68.8 68.8 68.7 68.6 68.5 68.6 68.6 68.6 68.7 68.7 68.8 68.9 68.4 68 67.4 67.4 67.4 67.4 67.5 67.5 67.6 67.8 67.8 67.7 67.6 67.5 67.4 67.3 67.1 67.2 67.4 67.6 67.8 67.7 67.4 67.2 67.7 68.3 68.3 64.5 68.3 68.5 68.6 68.7 68.6 68.1 67.8 67.5 67.3 67 66.8 66.7 66.6 66.5 66.4 66.5 66.3 66.3 66.3 66.4 66.8 66.8 66.8 66.5 66.4 66.3 66.2 66.1 66 65.9 65.5 65.2 65.8 66.2 66.2 66.2 66.2 66.2 66.3 66.2 66.2 66.2 66.2 66.1 65.2 65.2 65.2 65.4 65.2 64.8 64.9 65.4
333.1 338.1 344.4 350.1 350.7 344.7 343.1 347.1 352.5 358.3 361.3 363.9 360.3 353 347.3 342.7 339 335.4 331.3 326.5 321 316.6 311.2 306.4 301.8 298.4 295.3 291.7 290.3 289.9 288.3 284.5 281.6 278.3 275.2 264.5 267.9 267.9 266.6 265.5 263.9 261.6 259 256 252.8 250.1 247.5 245.8 242 240 237.7 235.3 233.5 230.7 227.7 224.5 221.7 218.4 215.9 212.7 206.2 199.4 191.9 182 172.9 165.8 158.8 154.3 149.6 145.1 138.3 132.2 117.7 115 115.4 111.1 104.3 100.7 96.6 88.5 86.2 74.2 70.5 71.2 66.4 69.4 71 71 70.9 70.9 70.8 70.6 70.2 70.3 70.4 70.5 70.4 70.3 70.8 70.2 70.2 70.1 69.6 68.7 68.7 68.7 68.7 68.8 68.8 68.8 68.7 68.6 68.5 68.5 68.5 68.6 68.6 68.7 68.9 68.6 68.3 67.8 67.4 67.3 67.3 67.3 67.4 67.7 67.8 67.7 67.7 67.7 67.6 67.5 67.4 67.3 67.2 67.3 67.5 67.7 67.8 67.7 67.4 67.3 67.5 68.1 68.5 64.4 68.6 68.6 68.6 68.5 68.4 68.2 67.9 67.6 67.4 67.1 66.9 66.8 66.7 66.6 66.6 66.4 66.2 66.3 66.4 66.5 66.6 66.8 66.8 66.7 66.4 66.3 66.2 66.1 66 65.9 65.5 65.3 65.9 66.2 66.2 66.2 66.2 66.3 66.2 66.1 66 65.9 65.9 65.8 65.2 65.1 65.3 65.5 65.4 65.1 65 65.4
336.9 340.8 345.5 352 350.3 343.2 340.7 344.3 349.6 355.3 357.5 358.2 355.3 349.3 343.4 340.1 335.8 331.4 326.8 322.1 315.9 311.5 306.8 303.8 301.2 297.6 294.4 292.7 290.9 288.7 285 282 278.6 274.9 272 267.6 258.8 262.3 263.3 262.5 259.9 256.4 254.3 252.4 248.4 244.7 242 239.4 234.8 233.1 232.4 230.5 228.4 225.7 222.9 220.6 218.1 216.1 214.4 210.2 206.8 200.8 192.7 184.7 175.8 169.5 160.6 155.3 151.3 145 138.1 132.6 125.9 110.7 103.6 100.2 97.9 94.2 89.3 86 82.9 74.3 70.5 70.6 67.7 67 70.6 70.6 70.7 70.7 70.7 70.7 70.6 70.5 70.6 70.6 70.8 71.8 70.4 70.8 70.8 70.6 68.9 68.7 68.6 68.6 68.6 68.6 68.7 68.7 68.6 68.6 68.5 68.4 68.5 68.5 68.6 68.5 68.3 68.1 67.8 67.5 67.4 67.4 67.5 67.6 67.7 67.7 67.7 67.7 67.7 67.7 67.6 67.6 67.4 67.3 67.2 67.3 67.5 67.7 67.8 67.6 67.3 67.4 67.4 67.8 66.1 67.8 68.6 68.6 68.5 68.4 68.3 68.2 68 67.7 67.5 67.2 67 66.9 66.8 66.8 66.6 66.4 66.3 66.3 66.4 66.5 66.6 66.7 66.9 66.9 66.5 66.3 66.1 66.1 66 65.9 65.6 65.4 65.9 66.2 66.2 66.2 66.2 66.2 66.2 66.1 66 65.9 65.8 65.6 65.2 65.1 65.4 65.7 65.5 65.3 65.2 65.4
343.2 348.7 350.7 349.3 347 343 338.7 341.2 346.3 350.4 352.4 352.2 350.2 344.6 340 335.8 331.4 326 321.6 316.8 311.8 307.9 304.6 301.3 298.5 296.3 293.8 291.2 288 284.1 280.7 278.4 275.6 272 268.4 264.9 262 251.9 253.6 253.9 255.5 251.9 248.9 246.2 243 238.9 235.4 231.7 227.7 226.8 226.1 225.4 224 221.5 218.6 216.6 215.3 213.6 211.6 208.1 205 200.2 193.6 186.7 180.3 172.6 163.3 156.7 152.5 147.5 141.8 133.6 126.4 118.7 106.1 97.4 95.9 91.4 86.9 83.7 82 74.1 70.5 70.6 70.3 66.6 70.7 70.8 70.8 70.6 70.5 70.6 70.8 70.7 70.8 70.7 70.9 70.7 70.3 70.2 70.5 70 68.7 68.6 68.5 68.5 68.5 68.5 68.6 68.6 68.5 68.5 68.4 68.4 68.1 67.6 67.6 67.6 67.7 67.3 67.3 67.3 67.3 67.3 67.4 67.6 67.7 67.7 67.7 67.7 67.7 67.7 67.6 67.6 67.5 67.4 67.4 67.3 67.6 67.8 67.7 67.5 67.4 67.5 67.4 67.6 64.6 68.3 68.5 68.5 68.4 68.3 68.3 68.1 68 67.8 67.6 67.3 67.1 67 67 66.8 66.6 66.4 66.3 66.4 66.5 66.6 66.6 66.7 66.8 66.9 66.7 66.3 66 65.9 65.7 65.7 65.7 65.6 65.9 66.2 66.2 66.2 66.2 66.2 66.2 66.1 66 65.8 65.9 65.9 65.2 65.2 65.5 65.8 65.6 65.5 65.2 65.6
353.9 357.7 350.8 346.2 343.1 341.4 339.5 336.1 339.8 342.6 344.7 344.9 342.4 340 335.3 331.2 325.8 320.6 316.4 311.6 307.8 304.7 301.6 298.5 295.9 293.5 290 286.1 283.1 281 278.3 275.3 272.7 269.4 266 261.6 259.5 257.3 245.1 242.7 247.2 245.7 243.2 240 236.2 232.6 228.9 225.5 223.1 221.5 221 219.7 218.5 217 214.2 212 211.5 210.3 207.9 204.6 201.2 197.7 192.8 187.7 181.4 174.3 167.4 161 156.5 151.4 144.4 136.8 125.8 117 108.3 98.7 91.7 89.2 86 82.9 81.1 75.2 71.1 70.8 71 66.6 70.8 70.7 70.6 70.5 70.5 70.5 70.6 70.9 71 71.2 70.7 71.4 71 70.6 70.9 70.7 69.1 68.5 68.4 68.3 68.4 68.4 68.5 68.5 68.4 68.4 68.3 68.3 67.5 67.6 67.6 67.6 67.2 67.2 67.2 67.2 67.2 67.2 67.2 67.4 67.5 67.6 67.7 67.7 67.7 67.6 67.6 67.6 67.5 67.4 67.5 67.3 67.1 66.1 66.2 66.4 67.4 67.6 66.7 66.3 64.5 68.4 68.4 68.3 68.3 68.3 68.2 68.1 67.9 67.8 67.7 67.4 67.2 67.1 66.9 66.7 66.5 66.3 66.3 66.4 66.5 66.6 66.7 66.8 66.8 66.8 66.6 65.6 65.4 65.3 65.4 65.5 65.7 65.7 65.9 66.2 66.2 66.2 66.2 66.2 66.1 66 65.9 66 66.1 66.1 65.1 65.3 65.6 65.7 65.7 65.5 65.3 65.4
362.4 355.6 349.1 344.3 340.7 337.7 335.1 331.3 333.5 335 337.2 336.9 334.4 331 328.8 324.3 318.8 315.4 312.6 307.7 304.9 301.7 298.2 295.1 291.8 288.2 284.6 281 278.3 276 273.7 271.1 268.7 266.4 263.5 259.4 255.2 252.9 248.3 237.3 234.9 240.6 236 232.5 230.2 226.2 224.1 221.3 218.3 216.3 215.7 213.9 212.9 211.9 209.4 207.5 205.6 204.2 202.4 199.4 198.1 193.9 190.7 186.2 180.6 174.7 168.3 163.4 157.8 152.5 144.2 134.8 124 113.8 99.7 93.2 88.1 85.1 83.6 81.3 79.2 75 71.6 71.1 70.9 66.3 69.5 70.6 70.4 70.4 70.4 70.5 70.5 70.9 71.5 71.5 70.8 71.8 71.4 71.1 71.3 71.7 69.6 68.4 68.3 68.2 68.2 68.3 68.4 68.4 68.4 68.3 68.2 68.2 68 68.1 68.1 67.9 67.6 67.1 67.1 67.2 67.1 67.1 67.1 67.2 67.3 67.4 67.5 67.6 67.6 67.6 67.6 67.5 67.5 67.4 64.6 64.5 64.5 64.5 64.5 64.6 64.5 64.6 64.4 64.5 64.2 68.2 68.2 68.2 68.2 68.2 68.1 68 67.9 67.7 67.6 67.5 67.3 67.1 66.9 66.7 66.5 66.3 66.4 66.5 66.6 66.6 66.7 66.7 66.7 66.7 65.8 65 65.1 65.3 65.5 65.6 65.8 65.7 65.9 66.2 66.2 66.2 66.2 66.1 66.1 66 66.1 66.1 66.1 65 65.2 65.5 65.1 65.3 65.3 65.4 65.3 65.3
360.2 353 349 343.3 339.1 336.6 332.6 329 328.4 330.2 330.6 329.6 328.2 324.3 320.3 316.7 313.3 310.3 307.6 305.8 302.3 298.7 294.9 290.9 286.6 282.4 279.3 276.3 273.7 271.5 269.5 267 264.7 262.6 260.1 256 251.8 248 243.9 240.1 227.9 226.5 228.8 227.1 224.1 221.9 218.4 214.4 211.8 209.5 209.2 206.3 205.6 206.5 201.6 200.2 199 196.1 195.2 194 193.8 189.4 186.2 182.2 178.3 173.3 168.7 163.7 157.7 151.3 142.9 132.8 121.2 108.2 97.9 89.2 86.3 83.7 81 79.8 77.2 74.9 72.4 71.8 71.5 69.7 66.6 70.8 70.5 70.6 70.5 70.4 70.4 71.2 72.9 73.8 73.1 79.7 74.7 72 72 71.4 69.8 68.5 68.2 68.1 68.1 68.2 68.3 68.3 68.3 68.2 68.1 68.1 68.4 68.6 68.4 68.3 67.9 67.1 67.1 67.1 67.1 67 67 67 67.1 67.2 67.3 67.5 67.6 67.8 67.3 67.1 66.9 64.6 65.7 67.5 67.4 67.1 67.5 67.3 67.8 67.8 67.7 67.8 68.2 68 68 68 68 68 68 68 67.8 67.7 67.5 67.3 67.2 67 66.8 66.6 66.4 66.4 66.4 66.5 66.6 66.6 66.6 66.6 66.8 66.5 65.5 65.9 65.7 65.3 65.6 65.8 66 66.2 66.5 66.3 66.2 66.2 66.1 66.1 66 66 66 65.9 65 65.4 65.6 65.7 66 66.8 66.2 65.6 65.2 65.4
358.3 352.5 348.6 343.4 338.8 335.1 330.9 326.9 325.5 326.4 326.3 323.9 321.1 317.2 313.7 310.7 307.6 305.1 302.8 303 298.8 294.3 290.2 286.2 282 278.7 275 271.9 269.4 267 264.9 262.9 260.7 258.5 255.9 252 247.3 243.3 240.3 236.3 232 221.7 214.3 218.5 219.2 216.1 212.4 208.1 205.2 202.8 201.8 199.5 198.8 199.7 198.2 196 192.8 190.9 188.8 188.8 188.1 184.8 182.9 180.8 176.7 173 167.8 161.5 153 145.9 136.9 126.4 114.4 97.9 92.9 88.1 85.4 84 83.9 82.7 80.6 74 71.9 71.5 71.2 71 66.7 70.9 70.7 71.1 71.1 71 71.3 75 80.5 82.5 82.3 84 83.3 79.1 73.7 71.6 70.1 69.3 68.7 68.3 68 68.1 68.1 68.2 68.2 68.1 68 68 68.2 68.3 67.9 67.7 67.6 67.2 67 67 67 66.9 67 67.3 67.3 67.3 67.4 67.8 68.1 68.3 67.9 67.4 64.8 64.8 66.7 67.2 67.7 67.3 67.3 67 67.5 67.7 67.8 67.8 67.7 67.9 67.8 67.8 67.8 67.8 67.8 67.9 67.7 67.5 67.3 67.1 67 67 66.8 66.6 66.4 66.4 66.4 66.5 66.5 66.6 66.7 66.9 66.9 66.2 66.6 66.7 66.2 65.8 65.8 65.9 66.1 66.3 66.5 66.6 66.3 66.1 66.1 66 65.9 65.8 65.7 65.1 65.4 65.8 66.2 65.9 66.2 65.5 65.2 65.3 65.3 65.4
357.9 351 347.5 342 337.5 332.8 328.5 324.5 323 323.8 321.8 318.8 315.7 312.2 309.5 306.6 304.3 301.3 298.1 297.2 293.7 289.8 285.9 282 278.7 274.9 270.6 267.7 265 262.6 260.4 258.2 256 252.6 250.2 246.6 241.8 237.7 233.8 231.3 227.6 223.3 217.5 205.3 209 210.5 206.3 202.9 199.7 196.9 196.3 193 192 188.8 186.6 187.1 189.6 187.6 183.9 182.5 181.6 180.2 179.3 177.1 172.9 168.6 161.7 155.3 148.1 138.7 127.5 116.8 105.2 96.4 89.8 87.7 85.7 84.9 84.1 83.5 81.6 71.3 71.9 71.6 71.3 71 66.6 70.4 70.9 71.3 71.7 73.5 77.2 83.9 84 84 84.1 84.4 84.1 83.5 77.2 75.9 73.5 71.7 71.5 70.1 69.5 69.9 70.2 69.9 69.1 68.7 68.6 68.6 68.7 68.4 67.7 67.2 67.5 68.2 69.5 71.5 72.4 72.2 71.4 69.7 68.7 67.8 67.9 68.3 68.6 68.8 68.5 68 65.7 64.3 66.5 67.2 67.1 67.5 67.3 66.9 67.3 67.8 67.8 67.7 67.7 67.6 67.7 67.7 67.7 67.7 67.8 67.7 67.5 67.3 67.1 66.9 66.8 66.9 66.7 66.5 66.5 66.4 66.5 66.6 66.6 66.7 67 67 66.9 66.8 66.8 66.7 66.5 66.2 65.9 66.2 66.3 65.9 66.4 66.5 66.1 66 65.8 65.5 65.7 65.5 65.4 65.5 65.8 66.2 66.6 66.5 65.6 65.4 65.4 65.5 65.5 65.5
357.4 350.4 346.2 341.1 334.7 329.7 325.3 322.3 320.7 321.5 320.6 316.4 313.1 310 307.1 304.2 300.2 293.4 291.6 290 287.5 283.9 276.7 268.1 267.8 269.8 266.3 263.8 261.4 258.5 255.8 252.7 248.8 246.1 244.5 240.6 237 232.5 229.5 225.4 222.8 219 216.6 212.2 198.8 200.3 200.7 198.3 195.4 187.4 183.9 181.5 178.6 174 173.6 172.1 177.8 180.1 178.7 175.9 175.1 173.1 169.9 168.6 164.6 159.5 154.4 144.2 136.5 129.4 120.2 108.7 97.3 91.9 88.8 86.6 85.4 84.7 84.5 84.4 77.4 71.5 71.8 71.7 71.3 71 66.5 68.5 71.2 72.2 74.2 76.4 81.2 85.3 84.6 84.5 84.5 84.4 84.4 81.4 83.5 83.6 82.9 82.7 82.5 77.9 79.7 80.8 81.4 79.7 80 79.1 75.5 73.3 73.9 73.6 74.4 79.1 81.3 81.6 81 81.5 81.7 81.1 79.6 77.1 76.1 75.3 76 75.5 76.2 75.1 73.6 72.9 70.3 64.7 64.5 66.1 66.6 66.8 67.1 67.1 67 67.7 67.7 67.7 67.6 67.6 67.6 67.6 67.7 67.8 67.8 67.6 67.4 67.1 66.9 66.7 66.6 66.7 66.7 66.5 66.7 66.6 66.6 66.6 66.8 67.1 67.1 67 67 66.7 66.7 66.7 66.6 66.3 65.7 65.9 62.8 62.4 62.4 62.6 62.6 63.4 65.9 65.9 65.8 65.4 65.2 65.5 65.7 66 66.2 66.3 65.9 65.6 65.6 65.7 65.7 65.7
355.6 351.2 347.2 341.1 334.6 326.9 322.6 319.8 317.7 320.1 319.7 316.1 312.6 308.6 302.2 296.3 295.4 294.6 293 290.8 284.8 282.9 280.3 268 264.6 260.4 255.2 253.1 250.6 248.7 242.8 239.2 238.8 235.2 233.6 232.2 230.9 227.2 224.3 219.2 206.2 201.8 201.7 197.3 192.4 188.1 185 183.1 178.7 172.3 162.1 158.3 155.9 153.1 155.6 156.3 160.7 167.4 170.2 168.7 166.2 165.1 161.5 158.5 155.3 148.8 142.5 134.8 126.5 119.8 111.3 101 95.1 90.6 87.8 86.3 85.2 84.1 83.8 78 71.4 71.4 71.7 71.6 71.3 70.9 68.7 67.2 70.5 74 77 79.7 84 85.7 85.4 85.2 85.2 85.2 85.1 84.3 84.1 84.4 84.5 84.3 83.6 85.7 85.6 84.7 84.2 84.2 84.4 83.4 82.8 83.3 83.8 83.8 84 85.5 86.5 86.7 86.1 87.9 87.9 86.9 85.8 84.9 83.9 85.2 86 86.5 87.3 83.4 81.9 79.6 76.8 74.1 69.2 64.7 64.5 64.3 65.6 65.5 67.4 67.6 67.4 67.4 67.4 67.4 67.5 67.6 67.7 67.8 67.6 67.4 67.2 67 66.7 66.6 66.4 66.4 66.6 63.8 63.8 63.8 63.7 63.7 63.8 63.6 67.2 66.8 66.7 66.5 66.6 66.6 66.6 66.3 65.6 62.9 63.5 65 66 65.5 65.7 62.9 62.6 65.6 65.8 65.4 65.2 65.5 65.2 65 65.2 65.4 65.6 65.7 65.7 65.7 65.7 65.7
356.3 352.2 348.1 340.8 332.9 325.7 321.5 318.2 314.1 317.8 315.5 312.5 308.9 302.4 307.7 306.6 304.7 300.6 296.8 293.1 288.5 283.5 279.5 276.1 271.1 266.2 261.1 259 254.4 251.7 248.6 244.1 242.7 241 235.1 229.1 223.6 218.2 215 215 213.4 212.4 203.9 202 198.3 193.9 192.3 195.9 192.3 187.3 184.3 181.4 176.2 166 155.5 144.8 149.1 152.1 156.5 159.5 156.8 156.6 154.4 150.7 146.3 140.1 132.7 126.1 118.9 111.2 102.8 96 91.1 88.4 87.2 86.5 85.3 81.9 75.2 70.8 71.4 71.3 71.2 71.3 71 70.9 70.8 67.1 69.9 73.3 77.4 82.5 85.2 85.7 85.5 85.7 85.7 85.7 82 85.2 84.9 84.8 85.5 87.3 89.2 88.6 89.9 89.2 88.5 88.3 88.6 88.5 88.6 88.7 89.3 91.2 93.8 93.4 93.3 93.5 92.1 93.9 95.3 95.1 95.1 93.5 94.2 94.3 94 93.9 93 90.2 88.7 85.9 83.1 80.6 78.2 74.5 68.4 65 64.5 64.4 64.4 67.5 67.3 67.1 67.1 67.1 67.5 67.6 67.7 67.4 67.6 67.3 67.1 66.9 66.6 66.4 65.8 63.8 63.7 63.7 66.3 66.2 65.6 65.6 65.4 65.1 64.3 64.4 67.2 66.3 65.9 66 66 64.5 63.4 62.8 64.5 66.7 66.7 66.8 66.7 66.4 62.5 63.3 65.9 65.6 65.2 65.3 65.7 65.4 65.2 65.4 65.6 65.5 65.7 65.7 65.7 65.7
357.9 353.5 348.8 342.3 334.1 327 321.6 318.7 315.8 309.8 308.1 310 313.8 313.7 313.1 310.6 306.4 302.3 296.3 294.2 289.7 284.3 280.1 276 271.5 268.2 264.9 261.4 258.1 254.9 252.5 251.2 249.2 245.6 241.3 238.2 232.1 230.3 231 227.9 224.9 223.3 221.6 217.5 212.8 212.6 210.1 207.7 201.6 194.4 189.8 185.8 180.7 174.9 166.8 155 138 136 137.2 143.6 147.5 145.7 146.2 141.2 136.3 131 126 118.4 111.7 102.3 97.1 91 88 86.6 85.7 83.1 78 73.5 70.9 71.4 71.5 71.4 71.3 71.2 71.3 71.2 71.2 68.4 67.5 72.2 77 83.9 85.3 86 85.5 84.9 84.5 84.8 85.8 86 86.2 87.6 91 95.2 96.8 93.8 94.7 94.7 94.3 94.3 94.2 94.9 95.6 96 96.9 101.9 107.5 105.3 102 102.6 102.2 104.9 104.5 105.6 109.7 108 106.2 104.3 102.2 100.9 100.2 99.4 96.5 92.2 89.4 86.5 83 78.1 77.8 72.4 67.1 65.6 64.5 64.3 67.7 67.3 67 67.2 67.4 67.5 67.7 67 67.4 67.4 67 66.7 66.4 65.4 63.9 63.8 66.9 66.2 66.3 66.5 66.4 66 66 66 65 64.5 64.6 66.5 66.2 65.4 64.9 63.8 63.3 64.8 66.5 66.6 66.6 66.7 66.6 66.2 65.2 62.6 65.6 65.2 65.1 65.6 65.8 65.7 65.2 65.4 65.6 65.5 65.3 65.7 65.8 65.8
357.6 354.8 350.5 343.7 335.8 328.5 322.6 319.7 317.3 315.8 316.5 316.2 316.8 316.3 315.5 313.1 308.9 303.5 297.1 294.5 289.9 285.4 281.5 278 272.8 269 264.6 261.1 258.6 256.7 255.5 253.3 250.6 248.2 245.2 240.9 238.8 238.4 236.6 232.5 230.6 229.6 226.4 220.3 218.1 218.5 217 215.1 211.6 206.7 198.3 189.1 183.8 177.8 170.8 164.1 154.8 142.4 128 125.4 126.2 129.5 132.2 130.5 126.9 123.1 120.6 112.5 104.8 96.9 89.8 87.4 86.4 85.4 80.1 75.8 72.6 70.9 70.9 71.6 71.7 71.6 71.4 71.5 71.6 71.7 71.7 71.4 67.9 71.6 77.3 86.1 85.6 85.6 85.6 85.4 85.4 85.6 87 87.5 90.1 94.2 98.2 101.4 102.1 100.3 100.9 100.7 101.2 101.3 102.8 103.3 104.3 105.5 108.6 113.6 115 114.4 116 115.8 115.5 115.4 117.8 119.2 121.7 120.3 118 114.8 112.3 110.5 108.7 106.1 102 97.7 94.5 91.6 87.7 81.3 84.2 82.7 78.9 72.4 68 64.7 64.6 64.4 64.1 65.5 67.4 67.5 67.2 66.6 67 67.5 67.1 65.5 64.8 64.1 64 67 67.2 66.6 66.4 66.4 66.5 66.6 66.5 66.8 67.2 65.9 64.3 63.9 63.8 63.5 63.7 63.7 64.6 66.3 66.4 66.4 66.5 66.5 66.3 66.2 65.3 62.2 65.5 65.2 65.4 65.5 65.6 65.7 65.5 65.4 65.5 65.4 65.2 65.3 65.7 65.8
358.2 356.1 352.2 345.2 337 328.9 323.3 320 318 316.8 317.1 317.7 318.2 318.1 316.4 314.6 309.5 303 297.8 294.2 291.2 286.6 283.6 279.4 273.9 269.3 265.3 261.9 259.8 258.1 256.6 254.5 252 250.8 248.1 244.4 242.8 241.5 238.5 235.7 233.7 231.8 228.8 222.7 223.9 223 222.1 220.4 217.4 213.3 204.9 197 191 181.1 173.3 167.3 160.6 155.3 143.8 130.2 122.9 118.1 111.8 107.9 105.2 101.8 107.1 100.6 97.9 92.2 88.8 86.8 85.7 82.4 75.3 73 72.2 71.5 71.7 71.6 71.8 71.7 71.6 71.7 71.8 71.9 71.8 71.8 68.3 68.4 78.3 86.1 85.7 85.7 85.6 85.6 86 86.8 88.3 91.4 97.1 101.1 104.3 105.9 105.8 105 104.5 106 106.5 109 111.7 113.4 114.8 118 121.3 121.6 123.5 124.3 125.8 126.6 127.7 132.2 132.5 131.5 130.2 128.7 126.9 124 121.8 118.5 115.1 111.3 107 102.8 98.5 94.4 88.5 89.5 89 88.5 87.1 84.6 80.9 77.1 72.7 67.1 64.8 64.7 64.8 64.5 64.4 64.6 64.4 64.4 64.5 64.2 64.5 67.3 67.9 67.7 67.5 66.9 66.5 66.6 66.6 66.6 66.7 66.8 66.9 66.9 66.8 66.8 66.5 66.4 66.6 66.5 66 66 66.2 66.3 66.3 66.2 66 65.8 65.8 62.2 65.7 65.3 65.3 65.3 65.3 65.4 65.6 65.4 65.4 65.3 65.1 65 65.3 65.6
356.2 356.7 353 346 338 330 324.7 320.7 318.6 317.4 317.3 317.7 318.6 318.8 316.3 312.9 308 302.6 297.8 294 291.6 287.8 285.1 281 275.3 270.7 266.2 263.1 261.2 260.2 259.1 256.9 253.8 251.6 248.7 245.6 244.1 241.7 239 235.5 234.6 230.9 228.2 228 227.5 226.2 225.1 224.3 220.9 216.6 210 204.1 198.1 188.2 180 172.2 163.7 160.1 155.3 149.8 136.9 131.5 127.4 127.2 120.5 104.3 97.3 97.5 92 88.3 86.3 84.5 83.4 81 74.8 72.6 72.6 72.1 72.2 72 71.8 71.9 71.9 72 72 72 71.6 72 68.4 68.8 78.4 85.6 86.3 86.4 86.5 86.3 86.3 88.9 92.6 97.8 102.3 106 108.5 108.5 107.8 107.9 108.5 109.9 112 115.5 119 122.2 125.9 128.8 129.1 130.3 131.2 132.8 138 140.8 141.5 141.1 140.7 140.2 138.8 137.3 134.2 131.2 126.6 123.1 119.7 115.4 111.1 103.6 96.2 94.4 95.8 96.4 97.3 97.6 98.8 98.1 96.4 94 90.1 86.5 81.8 78.2 74.9 71.7 69.7 67.2 64.8 64.8 67.4 67.2 67.5 67.8 67.6 67.5 67.4 67.2 66.7 66.7 66.7 66.7 66.7 66.8 67 66.8 66.8 66.7 66.6 66.5 66.7 66.5 66 65.7 66 66.1 66.1 65.9 65.6 65.5 63 65.9 65.8 65.4 65.3 65.4 65.4 65.4 65.5 65.5 65.6 65.5 65.3 65.1 64.9 65.4
353.6 354.1 352.1 344.9 337.5 331.1 326.5 321.9 319.1 317.4 316.5 317.2 317.5 317.6 315.3 311.5 306.9 301.9 297.1 293.4 291.2 289.1 285.7 282.3 277.3 271.7 267.2 264.2 262.1 261.1 259.4 257.7 255 252.7 249.6 246.3 244.3 242 239.1 236.1 234.2 230.9 230 228.8 227.7 226.9 226.3 225.1 222 216.9 212 207 200.5 192.9 184.6 176.6 172.5 169.6 160.8 158.1 154 147.1 142 132.7 122.2 106.4 98.2 92.6 90.5 87.6 85.8 80.5 81 79 74.7 72.3 72.6 72.7 72.6 72.4 72.2 72.1 72.1 72.1 72.1 71.8 71.4 71.6 68.4 68.6 85.7 85.8 86.5 86.8 87.1 86.9 88 92.1 98.1 102.9 106.1 108.8 110.3 110.1 110.1 110.2 110.7 114.5 116.8 120.6 126.2 131.8 136 136.4 136.8 137.6 139.9 144.2 149.4 150.4 149.5 147.2 147.2 146 144.3 141.5 137.8 135.6 128.9 124.9 119.4 110.2 101.1 100.4 102.3 106 105.4 108.7 112.4 115.4 116.9 116.1 113.9 113.7 112.2 107.7 102.7 97.1 94.5 88.7 84.5 80.5 72.9 68.8 66.4 66.4 66.8 67.6 67.5 67.3 67.3 67.3 66.8 66.8 66.8 66.7 66.8 67 66.9 66.5 66.6 66.6 66.6 66.5 66.7 66.6 65.8 65.4 65.6 65.8 65.8 65.6 65.4 65.4 62.5 65.8 65.7 65.4 65.4 65.4 65.4 65.5 65.4 65.4 65.5 65.6 65.8 65.9 64.7 65.3
350.8 351.8 349.4 343.1 335.2 329.3 325.2 321.1 318.8 317.2 316 315.1 315.2 315.3 314.5 311.6 306.7 301 295.3 292 290.2 288.7 286.4 282.9 277.7 272.3 268.3 265.6 263.4 261.5 259.7 257.5 254.8 252 249.4 246.1 242.4 239.8 236.4 234.4 233.2 231.6 229.8 228.2 226.8 225.6 225.9 223.5 221.1 216.9 212.8 207.2 199.8 193 187 181.8 178.7 175.2 169.2 164.4 158 150.4 141.2 130.6 119 103.5 93 88.4 83.6 85.8 82.1 75.9 76.1 76.3 72.9 72.4 72.8 73 72.6 72.5 72.3 72.2 72.2 72.2 72.1 71.7 71.3 71.2 68.3 74.4 86.4 86.5 86.7 87.2 87.7 88 91.1 95.2 101 104.8 107.7 109.4 111.2 112 112.4 112.7 113.8 117.7 120.8 126.1 133 138.8 142.5 142.7 143.6 145.5 148.9 152.3 155.2 155.9 154.9 153.1 151 148.5 145.6 141.9 139 135.3 130.1 120.1 109.8 107.6 107.2 113.1 115.6 116.7 118 122.4 126.9 131.1 137.4 141.9 142.7 142 136.5 132.6 124.4 117.6 114.8 107.8 99.9 93.6 85.9 74.6 66.4 66.4 66.5 67.5 67.3 67.2 67.2 67.4 66.8 66.9 66.9 66.8 67 67.1 66.6 66.3 66.3 66.4 66.4 66.5 66.7 66.6 65.7 65 65.3 65.6 65.7 62.3 62.4 62.9 65.7 65.7 65.6 65.4 65.4 65.5 65.4 65.4 65.3 65.3 65.4 65.6 65.7 65.8 64.7 65.3
348.3 348.9 344.7 337.6 330.9 325.5 322.3 319.5 317.6 316.2 315 314 313.3 312.3 311.3 307.4 303.5 299.1 294.9 292.1 288.5 286.7 284.3 280.8 276.9 272.2 268.3 264.9 262.8 260.9 258.9 256.4 253.4 250.3 247.4 243.9 239.7 236.8 234.3 232.1 230.9 229.4 227.5 225.9 223.3 222.4 221.3 220.3 218.4 215.8 210.8 203.8 197.1 192.5 189.8 186.1 183.8 178.5 173.8 167.4 158.6 148.8 136 123.4 107.1 96.2 88.7 85.3 85.1 83.6 78.4 74.7 74.3 73.2 72.7 72.5 73 73 72.4 72.3 72.1 72.4 72.3 72.3 72 71.6 71.4 68.5 68.1 85.1 86.5 87 87.5 87.7 88.2 91.6 96 99 99.6 103.7 106.9 108.5 110.3 112.5 113.7 115.8 117 120.3 125.4 131 138.1 143.9 147.7 147.8 147.8 150.5 154.3 156.5 156.6 157.5 156.9 153.3 150.9 148.1 144.5 140.7 137.3 132 121.3 111 113 117.7 121.3 121.2 123 125.5 129.3 133.1 140 144.8 153.8 160.9 161.9 156.1 149.3 143.5 139.5 132.6 124.6 118.4 112.2 104.5 100.6 92.7 81.7 66.8 66.4 67.5 67.1 67.1 67.1 67.3 66.8 67 67.1 67.7 67.1 67.3 66.4 66 66.1 66.1 66.6 66.5 66.6 65.7 63.3 62.4 62.2 62.4 62.2 64.6 65.4 65.3 65 65.2 65.3 65.5 65.4 65.4 65.3 65.3 65.3 65.2 65.3 65.5 65.6 65.7 64.8 65.4
344.6 345.5 341 334.7 327.4 323.2 319.4 317.4 316.3 315.2 314.1 312.8 310.4 308.2 306.5 303.6 300.2 296.8 292.5 288.5 284.4 281.7 279.6 276.7 272.8 269.2 266.1 263.4 262 258.7 256.5 253.5 250 246.9 243.9 240.7 238.4 236.1 233.9 232 229.2 225.8 223.5 220.9 218.6 217.7 216.5 215.1 212.8 210.2 205.6 202.2 198.6 195.2 192.4 188.7 184.7 178.1 170.9 164 154.3 140.7 124 109.9 99.6 89.5 82.6 81.6 81.7 76 76.8 74.4 72.7 72.7 72.2 72.3 72.8 72.7 72.2 72 71.3 70.5 71.6 72.1 71.7 71 68 68.7 77.7 85.5 86.6 87.3 88.4 88.7 90.1 93.6 96.4 99.1 100.5 102.7 105.1 109 112.1 113.6 114.6 118.2 120.9 122.6 130.1 135.4 140.4 144.9 148.8 151.5 151.2 153.8 157 157.8 156.3 155.7 155.4 152 149.7 147.6 143.1 138.8 133.2 132.6 123.7 124.6 127.3 127.5 127.4 128.9 130.5 133.2 137.1 142.4 148.6 154.1 161.3 169.4 166.2 161.2 152.9 148.2 143.1 137.9 132.2 127.7 122.2 116.2 111.4 105.1 95.6 88.3 79.8 73.5 69.6 68.2 68.4 68.2 67.4 66.9 67.5 68.4 68.2 67.1 66.1 65.7 65.8 66.3 66.5 66.5 62.3 62.7 62.7 62.6 65.5 65.3 65.4 65.7 65.7 65.3 65 65.2 65.3 65.4 65.3 65.3 65.3 65.2 65.2 65.1 65.1 65.4 65.6 65.5 64.9 65.5
340.5 341.8 337.5 331.4 325 320.3 316.2 314 313.5 313.3 312.5 309.6 308.5 305 302.8 300.8 296.4 293.4 289.1 284.4 280.3 277.7 275.4 272.7 269.7 266.9 262.8 259.8 257.8 254.4 253 249.5 245.6 242.6 240.3 238.5 237.1 235.4 232.4 229 226.1 223.1 218.7 216.6 215.4 214.2 212.2 211.2 209 206.8 203.7 200.7 197.3 193 190 182.2 177 172.4 165 157.4 146.1 130.8 110.7 100.1 90.1 81.3 78.4 71 68.5 70.9 70.5 72.3 72.2 70.6 68.9 68.9 68.7 68.6 68.4 68.4 68.5 68.4 68.4 68.6 68.4 68.4 69.2 77.7 87.5 86.4 87 88 88 88.6 90.7 93.2 95.9 98.2 100 102.7 106 109.1 114.2 115.7 118.1 122.2 125.7 126.8 133.1 137.5 140.7 144.8 148.7 152.3 152.7 154.1 155.8 156.8 154.4 153.5 152.4 151 147 144.5 141.6 140.1 139.6 135.5 127.9 134.3 132.9 132.5 133 134.1 136.2 140.3 144.6 149.7 155.1 161.4 166.8 168.7 166.4 159.2 153.5 149.2 145.8 141.2 136.8 133.5 128.4 123.4 117.9 112.8 106.7 99.3 91.4 88 84.1 80.4 77.3 75.5 73 70.1 72.2 74.6 72.4 67.6 65.9 65.6 66 66.7 66.4 62.4 62.7 65.3 65.4 65.2 65.3 65.1 65.2 65.7 65.7 65.2 65.2 65.2 65.3 65.5 65.6 65.2 65.2 65.2 65.1 65 64.9 65.3 65.5 65.2 65 65.4
333.5 336.4 333.6 326.9 321.2 317 312.4 310.7 310.1 309.8 309 305.9 305.3 302.6 297.7 296.1 292.5 288.5 284.4 280.8 276.7 273.7 271.3 268.2 265.3 262.2 258.3 254.8 252.9 250.1 248.1 245.4 241.1 239.5 237.6 236.2 234.7 232.8 230 226.4 223.2 219.9 215.9 214.5 213.7 211.2 202.7 206.7 205.9 204.4 202.4 199.3 191.7 185.4 181.2 176.6 169.9 164.7 158 150 136.2 117.1 100 92.7 80.4 70 68.8 71.4 72.2 68.8 68.9 68.8 68.8 68.9 68.9 69 71.5 71.8 72 72.1 72.3 72.2 71.3 69.1 69.5 73.9 81.6 93.5 86.8 86 85.6 86.6 88.7 90 92.1 94 95.7 97.9 100.9 104.2 108.1 112.7 115.8 117.3 121.5 124.1 128.2 132.9 137 139.6 141.6 144.7 148.6 152.5 153 153.1 154.5 154.3 152.7 151.5 149.5 147.8 149 147.6 146.7 143.3 139.8 133.4 138 138.7 138.2 137.7 138.2 139.9 142.6 147.3 152.3 156.9 161 163.5 163.4 161.1 157.8 153.2 150.3 148.7 145.7 141.2 137.8 134.4 130.2 125.1 120.1 115.4 109.3 103.7 98.7 95.3 91.9 87.8 85 82.8 80.2 77.6 71.3 74.7 76.4 73.4 68.6 66.5 66.3 66.7 66.6 62.9 63.5 65.8 65.5 65.1 65.1 64.9 65.1 65.8 65.6 65.1 65.4 65.2 65.2 65.5 65.7 65.7 65.1 65.1 64.9 64.9 64.8 65.1 65.4 65.2 65.1 65.3
325.1 327 324 321 317.3 312.3 307.9 305.3 304.5 304.9 304.1 302.3 299.6 297 293.1 290.1 287.4 283.1 279.6 276.3 272.6 268.5 265.7 263.2 260.5 257.6 254.6 251.7 249.1 246.4 244.7 242 239.4 237.3 235.2 234.2 232.3 230.1 227.4 224.2 221.3 218.4 214.9 212.7 211.8 205.3 194.8 191.6 195.2 203.3 199.6 193 185.9 180.4 175.8 172.7 166.1 158.1 147.9 138.8 123.5 106.5 95.4 82.8 69.6 71.3 72.3 72.3 72.5 72.2 68.7 68.8 70.6 71.6 71.9 71.9 71.3 71.6 71.3 71.6 72.1 71.6 73.5 77.4 76.1 73.2 74.1 76.2 79.9 83.3 86.9 88.4 91.1 91.6 93.1 94.8 97.3 100.3 104 108.1 112.8 116.4 118.6 122.6 126.4 128.1 132.5 136.7 139.3 140.8 143.2 146.1 149.3 152.8 154.8 153.6 153.4 153.5 152.4 151.7 152.2 152.6 152.8 151.1 149.3 144.8 142.9 144 143.1 142.5 142.3 142.1 143.4 146.5 150.2 154.6 157.9 160.4 161.4 160.8 159.2 156.4 152.9 150.2 147.5 145.5 143.5 140.3 136.8 134.2 130.6 125.8 121.4 116.9 111.8 107.9 104 101.1 97.2 93.2 89.7 86.7 83.8 81.8 79.7 74.9 77.9 78.1 75.5 70.9 69.6 69.1 67.8 63.3 62.8 62.3 63.2 62.8 64 64.6 65 65.6 65.6 65.1 65.6 65.2 65.2 65.5 65.7 65.8 65.6 65 64.7 64.8 64.6 64.9 65.3 65.2 64.7 64.2
316 318.3 317.6 314.8 311 306.3 301.9 300 298.6 298 295.9 293.8 291 288.7 285.4 282.7 280 277.6 274.4 270 266.2 263.5 261.2 259.2 256.8 253.9 250.4 247.1 245.3 243.3 243.1 241.3 239 236.2 234.1 232.5 230.4 228.2 225.9 222.3 219.4 216.5 214 212.6 210.4 205.2 189.7 186.3 179.5 187.4 198.3 191.1 183.5 177.1 170.9 166.5 159.5 149.6 137.1 122.2 107.2 96.9 87 69.3 69.3 72.9 72.8 72.5 72.6 72.5 72.2 71.8 71.9 71.8 71.3 72 71.8 72.1 71.6 71.9 82.9 82.1 86.7 86.4 84.8 79.6 75.7 75.9 79.6 84.5 89.5 90.3 90.7 92.3 94.3 96.7 99.8 103.7 108.4 112.2 116.4 120.6 123.3 127 131 134.6 135.4 139.9 142.4 144 145.8 147.8 150.9 154.8 156.5 155.4 154.8 153.5 152.7 153.5 155.3 155.9 154.9 152.9 150.4 149.4 149.3 148.3 147.3 146.6 146.6 147.9 150.6 153.3 155.9 158.1 159.8 160 158.8 156.9 154.8 152.6 150.6 147.9 145.7 143.4 141.2 138.7 135.4 132.8 130 126.7 122 117.6 114.1 110.5 107.6 104.5 100.2 96 92.1 89.2 86.4 84.1 77.8 78.8 80.7 80.9 79.3 78.3 77.8 76.2 75 75 73.3 72.7 68.9 64.8 61.8 61.4 61.4 61.6 61.7 63.3 63.5 63.5 63.6 63.6 63.6 63.7 64.2 64.4 64.1 64.1 64.4 64.5 64.7 63.4 62.3 62.1
310.3 311.6 311 308.2 303.9 299.7 296.9 295.2 293.7 292.3 290.4 287.8 284.3 282 278.3 276.1 273.8 271.6 268.9 265.1 261.8 259.4 256.9 254.9 252.8 250.3 247.7 245.4 245.2 243.5 243.3 241.6 239.6 237.2 234.3 231 228.6 226.5 224.5 221.5 218.6 217.4 216.2 214.9 213.4 210.5 208.1 204.7 188.7 176.1 186.6 187.6 181.9 173.4 165.9 158.7 150.5 138.1 122.4 108.3 98.4 87.5 73.3 70.7 69.6 73.2 73 72.9 72.7 72.5 72.3 72 72.2 72.5 72.5 72.6 72.6 72.5 72.2 72.2 80.4 86 87.5 87.5 87.6 86.2 81.7 79.8 83.9 87.6 90.5 91.6 92.3 93.8 96.7 99.4 102.8 109.2 112.2 114.9 119.2 123.7 127.7 132.4 136.2 139.3 142 143.3 145.8 148.1 148.3 149.5 152.5 157.6 159.4 157.5 155.4 154.6 155.7 155 156.8 156.7 155.6 153.6 153.2 153.5 152.6 152 151.5 151.9 153.2 155.4 156.1 158.2 159 158.2 158.6 157.6 155.5 153 150.3 149.7 148.4 146.3 144.1 141.4 138.9 136.5 134.7 132.2 129.8 126.6 123.3 119.3 115.8 111.6 109 105.8 102.2 97.5 93.8 90.9 88.2 85.1 79.6 81.1 83.7 83.4 83.4 84 84.8 86 85.8 83.8 81.7 79.5 79.2 79.6 77.4 75.8 71.3 65.1 65.5 64.9 64.4 64.4 65 64.7 65 64.1 64.5 64.2 61.5 62.1 61.5 63.1 67.8 71.8 79.8 83.5
306.1 306.7 305.3 301.4 297.1 295 292.9 291.6 288.7 286.9 284.6 282.4 278.9 275.7 273.9 272 270.1 267.8 264.4 261.3 259 256.2 253.5 251.6 250.3 248 245.8 245.4 244.9 244.3 243.4 241.4 239.3 235.9 232.4 229.2 226.8 225 223.1 220.3 220.7 219.6 217.8 216.2 214.4 211.4 207.9 202.9 196.6 180.5 173.5 181.7 175.1 168.2 154 146.5 138.2 125 110.8 99.6 94.5 75.2 72 72.1 69.8 73.5 73.3 73.1 72.9 72.6 72.3 72.3 72.5 72.6 72.8 72.8 72.7 73.3 73.9 78.5 84.8 87.5 87.5 87.5 88.5 88.6 88 86 85.3 88.9 91.7 93.1 94.2 96.8 101.9 105.9 109.8 114.6 116.7 117.8 121.8 127.1 132.6 138 141.6 144.9 147.9 149.4 151.1 151.9 151.1 151.2 154.9 161 160.7 158.4 157.5 158.2 159 157.3 158.4 156.3 157.8 157.2 157.7 157 156.5 156.5 157.6 158.4 159.2 160.1 160.5 160.6 159.1 158.1 156.3 154.6 152.4 150 147.6 146.6 145.3 143.5 141.4 139.7 137.5 135.5 134.3 132.2 129.3 126.6 123.4 120 116.4 113 109.1 105.3 102.3 99.4 95.8 92.7 89.4 85.9 81.4 83.7 85.2 85.9 87.8 89 90.9 93.1 92.2 89.1 85.3 82.5 81.1 80.3 79.2 77.4 71.7 67.2 68.7 68.4 68.4 66.4 66.1 66.1 69.3 71.6 72.5 74.2 74.4 77.8 77.5 78 84.9 87 89.9 87.7
302.1 302.7 300 296.7 293.1 291.6 289.9 287.7 285.2 283.7 281.2 278.7 275.1 272.9 270.9 269 267.7 265.9 264.5 262.9 260.9 257.2 253.4 251.7 248.8 247.2 244.9 241.6 242.8 243.9 242.6 240.4 237.5 233.5 230.7 227.4 224.7 223.9 222.9 222.6 222 219.7 217.5 215.8 213.4 209 204.2 199.9 194.3 186.5 177.9 167.2 163.6 156.5 138.4 129.9 123.3 111.5 101.7 96.5 82.8 71.7 72.5 72.9 69.4 73.3 73.6 73.4 73.1 72.9 72.7 72.7 72.9 72.8 72.5 72.3 72.4 73.1 80.1 86.7 87.6 88 87.9 86.8 87.3 87.3 85.9 85.4 89.3 91.4 92.7 95.1 97.9 101.9 108.4 111.7 114.6 119.4 122.3 123.5 126.2 132.6 137.8 143.4 147.4 150.4 153.3 154.9 155.7 155.8 153.7 153.9 159.2 162 161.6 161.1 161.6 161.4 161.1 159.7 159.7 159.9 160.6 160.7 161 161 161.5 162.5 162.8 161.8 161.5 162.8 161.8 160.7 158.8 157 153.9 151.6 149.4 147 144.6 143.4 142.3 140.7 139.4 138.1 136.2 134.9 133.8 131.9 129.6 126.6 124.3 120.7 116.8 112.9 108.5 105.7 102.9 101.5 98.2 93 87.3 84.4 84 86.8 89 91 93.2 95.9 97.8 98.1 95.9 91.9 87.6 84.8 82 80.6 79 75 70.3 67.2 75 77.8 78.3 79.5 79.9 81.1 82 81.3 80.4 82.6 82.2 86.1 86.9 87.9 90.2 95.6 98.5 97.6
298.9 299.2 296 293.2 290.9 289.3 288 286.5 283 280.6 278.5 277 274.4 273.8 273.8 272.4 271.1 269.1 266.3 263.3 260.6 256.5 253.4 251.7 249.6 248.2 245.9 243.4 238.5 240.8 239.9 237.4 233.7 230.1 224.8 223.2 223.1 222.9 222.4 222.7 221.3 218.2 215.6 212.4 208.6 204.3 199.2 191.9 185.8 178.6 172.9 156 141.4 134.3 125.8 118.4 113.5 104.1 97.5 86.3 72.5 71.9 72.4 73 69.6 72.9 73.5 73.7 73.5 73.3 73.1 72.9 73.4 73.9 73.1 73.7 73.4 76.2 81.7 85 87.2 90.2 85.7 84.7 86.7 87.2 86.2 88 91.1 92.6 95 99.2 104.3 106.9 112.9 117.5 119.6 123.2 126.6 128.8 132.4 137.8 143.8 150.3 154.4 157 158.7 160.1 160 159.4 159.1 159.4 161.9 164.5 165.1 165.6 165.6 165.2 163.3 161.9 161.5 162 162.4 162.8 164.6 166.8 168.3 167.6 166.8 164.4 163.7 163.6 162 159.8 157.8 154.8 151.8 148.8 146.4 144 141.8 140.2 139.5 138.7 137.4 136.2 135.6 134.6 133.2 131.7 130 126.7 124.8 122.8 118.9 113.7 109.4 105.6 102.1 97.9 93.2 88.1 86.2 86 88.7 91.2 93.9 96.1 98.4 100.7 101.7 99.7 96.7 93.1 89 86.6 83.3 80.9 77.8 70.3 69.9 73.3 78.9 81.1 82.8 84.8 86.6 87.1 85.3 82.7 84.3 86.1 87.9 90.9 93.8 96 95.7 101.5 104.5 105.6
298.6 297.1 293.2 291.1 289 287.6 286.6 285.3 282 280.1 278.7 277.5 276.9 276.6 277 275.8 273.8 270.8 266.4 262.6 259.7 255.9 254.3 252.5 250 247.6 244.9 241.9 233.1 234.1 235.2 233.2 229.8 226.4 223.2 221.8 220.3 221.3 221.8 221.3 218.7 213.8 209.2 205.9 202.3 196.3 190.3 182.5 173.8 165.3 157.8 147.8 127.5 120 114.4 107.8 103.2 98.1 93.6 77.2 72 72.2 72.5 72.9 69.3 73.5 74.2 74 73.9 73.7 73.5 73.3 73.6 74.1 74.6 74.3 73.9 79.5 82.1 84.3 87 89.3 87.8 85.3 85.5 86.7 87.5 89.9 92.4 94.9 99.2 106.3 111.3 113.2 116.3 122 124.7 128.1 130.9 134.4 140.4 145.8 152.4 157.3 160.8 162.4 163.8 164.5 163.1 164.7 165.1 165.4 165.7 167 168.1 169.1 169.1 167.4 165.5 164.3 164.6 165 166.1 168.4 169.9 171 171.1 170.5 169.6 167.5 165.7 162.9 160.3 157.7 155 152.4 149.3 146.1 143.5 141 139.5 138.1 137.2 136.7 136.2 135.8 135 134.3 133.3 131.8 129.9 127.1 125.3 123.2 119.8 115.2 108.9 104.4 99.3 93.2 90.3 90.2 92.3 92.1 94.1 96.6 98 99.8 101.3 102.4 103 100.1 96.8 93.4 89.2 86.9 83.6 79.2 72.1 77.3 80.6 82.1 82.9 84.9 88.2 90.5 91.4 91 88.3 87.7 89 92.1 92.5 95.1 98.1 100.6 101.7 106.2 109.9 113.2
298.5 295.8 290.8 289.1 287 285.8 285.4 285.2 283.5 282.9 281.7 279.8 279.1 278.4 278.2 276.7 272.7 268.1 264.9 261.8 259.3 257.2 254.8 252.4 248.8 245.3 242.1 239 235.5 223.7 229.4 226.9 225.3 222.3 220.7 220.3 218.7 218.9 219.4 218.3 214.9 209.2 203 197 192.5 186.3 179.3 169.5 158.3 149.8 143.3 131.5 122.4 113.7 107.1 102.3 98.8 93.7 84.3 72.3 71.8 72.2 72.5 72.9 69.1 74.1 74.4 74.3 74.2 74.1 73.9 73.7 73.8 74.3 74.4 74.2 76.7 79.9 81.1 82.1 83 87.5 89.6 86.5 86.4 86.9 90.9 92.1 94.8 98.5 106 112.6 117.8 119.6 122.9 125.6 129.8 133.6 137.7 141.4 146.3 152.3 157.7 162.2 164.9 166.2 166.7 167 168.9 170.5 170 169.2 168.8 169.5 171.5 171.8 171.3 170.2 168.3 167.7 168.1 169.2 170.3 171.5 171.8 172.4 172.3 171.2 168.9 166.4 163.4 160.5 157.6 155 152.6 150.2 146.6 143.8 141.6 139.7 138 136.4 135.5 135.6 135.4 134.7 133.8 133 132.4 131.3 128.9 125.8 123.8 121.5 118.3 114.2 104.6 98.3 93.5 94.9 97.1 99.2 98.3 97.8 98.1 99.5 101.1 102 103 102.4 101.7 98.2 95.6 92.6 89 85 79.8 75.2 81.2 82.8 83.5 86.4 87.1 90.4 93.7 93.9 94.6 93.8 90.7 91.7 93.8 95.4 98.8 100.1 102 105 107.1 112.1 115.1 119.1
298.9 295.3 291.3 287 286.2 284.6 285.1 285.5 285.9 285.6 284.6 282 279.7 279 277.1 273.6 269.9 266.2 262.5 259.2 257.8 256.7 254.2 250.8 245.8 241.7 238.2 233.6 230.4 222.3 219.1 221.4 219.7 218 216.9 216.7 217.8 216 214.9 214.3 210.2 204.2 197.8 189.4 182.1 173.7 166 155 146.7 137.8 130.1 123.2 115.2 108.9 103.3 99.4 93.2 86 77.9 73 72 72.4 72.6 72.9 69.1 73.8 74.6 74.6 74.5 74.4 74.3 74.2 74 74.5 74.2 74 79.5 79.3 77 76.6 78.4 82.6 87.6 86.2 87.3 89.3 91.9 94.1 96.6 103.5 110.7 116.6 121.4 124.1 127 128.3 132.1 136.4 141.3 146.4 149.6 156.1 161 164.3 168 169.2 170.1 171.6 174 173.6 173.2 171.9 170.8 172.9 174.6 175.1 173.3 172.2 170.8 171 171.6 172.9 173.3 172.7 172.2 171.9 171.2 169 166.5 163.5 160.5 157.6 155 152.6 150.3 147.9 145.1 142.3 140.4 138.7 137.1 135.4 133.5 134.7 134 133.3 132.4 130.8 130.5 129.3 126.5 122.9 120.9 117.6 107.9 100.1 101.8 106.5 108.4 106.7 105.6 103.8 102 100.5 101.1 102.3 102.7 102.9 102.5 101.1 99.5 96.2 93.5 90.1 86.1 80.8 75.8 83.3 84 84.7 87.2 89.3 91 92.8 94.8 96 95.7 94.8 93.4 94.7 97.3 99.5 102.3 104.5 106.1 109.6 112.5 117.6 120.9 124.2
299.2 295.7 290.7 285.7 281.4 280.7 282.7 284.1 285.2 285.5 284.9 282.3 279.5 276.8 273.7 270.4 267 263.6 260.3 256.8 254.8 253.3 251.4 247.3 242.9 237.6 231.6 227.4 223.8 219.4 203.3 211.9 213.8 212.2 212 212.2 213.2 213.5 209.6 207.3 204.6 197.8 190.5 183.2 172.1 165.1 154.2 143.2 134.1 127.3 122.6 117 110.2 104.3 100.1 93.2 88.2 83.3 76.7 74.4 72.1 72.3 72.4 72.5 69.6 74.8 74.8 74.7 74.7 74.6 74.6 74.5 74.4 74.2 73.9 77 79.9 75.8 75.4 75.4 76.3 80.4 81.2 83.4 86.3 90.7 93 95.3 101.4 108.2 114.6 120.4 126.1 128.7 130.6 131.5 134.3 138.4 143 150 153.7 159.5 163.4 166.1 168.9 170.7 172.4 173.9 175.2 174.8 173.6 173.3 174.3 173.8 176.6 178.8 175.9 173.8 173.4 173.9 173.4 173.4 172.9 171.9 171.1 169.9 168.4 165.9 163.4 160.5 157.8 155.6 153.3 151 148.6 146.6 144.6 141.2 139.6 137.9 136.3 134.7 132 131.1 132.6 131.8 131 128.7 127.3 125.9 122.1 117.3 110.5 110.9 114.9 116.1 114.8 112.8 111.4 109.3 107.5 105.1 103.9 102.9 103.8 103.6 103.8 103.2 101.4 99.7 97.3 94.3 91.8 89 82 79.1 85.3 85.8 86 88.3 91.2 93.2 94.6 95.4 96.3 96.7 96 96 96.1 98.2 100.8 103.2 105.8 109.8 111.4 114 118 120.3 125.2 129.6
298.4 293.1 287.1 281.5 276.7 276 278.5 280.3 282.5 283.4 282.9 280.6 277.9 274.7 270.9 267.6 264.2 260.8 257.3 254.9 251.3 250.1 247 242.6 237 231.3 225.6 220.9 217 213.3 203 195.8 204.6 205.7 205.7 207.4 208.3 207.9 207.4 200.9 197.2 192.7 184.8 176.8 165.1 153.6 144.7 134 125.2 119.3 115.4 109.8 104.3 99.8 94.9 89.8 84.4 78.3 75 71.7 72.1 72.8 72.9 73 69.8 72.6 74.7 74.6 74.5 74.4 74.4 74.3 74.3 74 76.2 76.1 75.4 75.4 75.4 75.4 75.8 78.9 81.4 85.2 88.7 91.6 94.5 98.4 103.5 109.7 117.4 123.3 126.7 128.7 131 133 136 139.3 144.7 152.3 155.6 160.9 163.8 165.8 167.8 169.1 170.6 172 172.3 172.5 171.8 171.1 173 173.7 176.9 179.8 177.4 176.1 175.2 174.9 174 172.7 172.1 170.3 169.1 167 165.3 162.7 160.4 158.2 156 153.9 151.7 149.3 147.3 145.2 143.6 141 139.5 137.7 136 134.1 132.6 130.8 129.6 129.7 128.5 124.8 121 116.1 115 117.1 120 121.7 120.9 119.2 116.9 114.6 112.9 110.6 108.5 107.1 106.1 105.6 104.8 104 103.2 101.6 99.5 97.5 95.2 92.2 89.9 87.1 79.5 87.1 87.9 88.3 89 92 94.6 96.2 97.8 98.4 97.9 97.8 97.4 98 98.9 101.3 103.6 106.6 109.9 113.7 116.6 120.3 123.2 127.3 130.9 135.5
294.9 289.4 283.4 277 273.7 272.6 274.6 276.7 279.6 281.5 281 279 275.8 272.1 268.2 264.7 261.3 258.6 255.5 252.9 248.7 245.1 242 236.8 230.9 224.5 218.3 212.8 207.7 204.8 199.3 187.9 199 197.9 198.6 199.9 201.9 202.4 200.7 197.5 191.8 187.1 178.4 168.2 155.2 148.3 134.2 127 119.1 113.2 107.2 102.5 99.2 93.1 87.5 84 80.9 75.6 72.7 72.3 72.3 72.7 73.2 73.6 70.3 69.2 74.5 74.4 74.3 74.3 74.2 74.2 74.4 74.5 76 75.7 75.4 75.4 75.4 75.4 77.6 82.8 85.4 87.2 90 93.6 99.3 105.8 111.5 115.1 120.9 124.9 128.8 129.7 131.7 133.7 136.6 140 144.9 151.9 156.5 161.1 162.4 163.6 164.6 166.5 168.1 167.9 168 168.4 167.6 167.6 168.9 170.1 174.1 178.7 179.1 177.8 176 173.9 172.9 172 170.3 168.6 166.5 164.2 162.4 159.5 157.5 155.5 153.5 151.2 149.7 147.1 146 144 142.7 141.1 138.5 137.7 135.8 133.7 132.4 129.9 127.2 125.5 121.5 116.2 120.2 122 123.8 124.4 124.8 124.1 122.1 119.8 117.9 116.1 114.3 111.7 109.4 107.5 106.9 106 105.4 103.7 101.8 100.1 98 95.4 93.1 90.9 88.1 85 87.1 89.6 90.3 90.6 92.1 95.6 97.8 99.4 99.5 99.1 98.7 98.6 99.7 100.2 102.5 106.1 108 111 114.5 118.3 122.3 125.9 129.7 135 137.5 143.7
289.7 285.5 279.8 275.1 271 266.6 271.1 273.6 276.7 279.2 279.1 276.9 273.5 269.5 265.6 261.6 258.7 255.7 252.8 249.9 246.9 239.7 234.8 230.3 223.9 216.6 209.2 203.8 199.4 195.9 192.1 184 190.2 190.9 191.7 193.7 194.9 194.7 194.1 190.7 184.5 178.9 172.6 162.2 147.6 140.2 130 122.4 115.2 106.9 101.1 98.4 91.9 85.8 82.4 80.6 76.6 72.7 72.3 72.4 72.7 72.9 73.4 73.9 73 69.2 74 74.1 74.2 74.1 74.1 74.2 74.5 76.9 76.2 76 75.6 75.4 75.4 76.9 81.6 86.3 87.4 88.5 91.7 97.2 104.7 109.8 118.4 122.8 123.6 127.2 130.4 131.8 132.9 134.8 137 140.4 145.1 149.9 154.7 157.7 159.4 160.2 159.7 160.3 161.2 162 162.7 163 164 163.7 164.6 165.8 170 175 178.2 177.1 174.4 171.9 170.7 170 168.6 166.2 163.9 161.6 159.5 157.5 155.2 152.4 150.3 148.1 146.9 145 143.5 142 141.1 140.6 137.5 136.6 134.2 132 129.8 126.6 123.8 120.1 122.2 126.1 128.1 127.6 127.6 126.7 126.8 125 122.9 120.7 119.3 117.6 115.8 112.8 110.3 108.3 107.1 105.8 104.4 102.5 100.6 99 97 94.3 91.9 89.6 87.7 83.2 89.6 91.3 91.6 93.2 95.8 99.1 100.7 100.4 100.2 99.9 99.5 100.3 101.7 102.5 105.2 109.5 112.9 116 119.9 124.2 129.1 133.6 138.1 142.9 146.5 155.7
284.4 280.1 276.1 271.9 268.6 262.6 267.7 270.8 273.3 275 274.7 273.5 269.9 266.1 261.5 257.5 254.2 251.7 248.1 244.6 241.1 235.6 229.3 223.5 216.2 208.3 201.4 196.5 192.3 189.3 186.8 180.2 182.9 185.6 187 188.3 190 189 186.3 184.2 179.3 166.7 164.4 152.1 142.1 131.7 126.4 119.5 111.2 101.9 97 91.9 86.1 79.9 76.1 75.9 74.2 73.4 73.2 73.3 73.1 73.1 73.7 73.7 73 69.2 73.7 73.9 74.2 74.5 74.1 74.3 74.8 76.7 76.6 77.2 76.7 77.7 79.2 81.9 86 88.3 88.9 90.4 93.8 99.3 106.8 113.5 121.4 125.9 128.7 129.6 129.9 132 133.8 135.5 136.8 140.3 142.6 146.3 149.7 152.8 154.1 154.9 155 154.7 155.7 156.7 157.3 157.9 158.5 159.2 160.9 163 166.7 170.5 173.4 173.3 170.5 168.4 166.8 165.5 165 163.1 160.8 159.4 157.6 155.5 153.7 151.2 148.4 145.4 143.3 142.2 140.9 139.2 139.1 137.9 137.2 134.7 131.5 128.9 125 123 125.9 129 131 131 131.7 131.3 130.4 129.3 127.6 125.8 124.7 123.3 121 118.5 115.9 113.7 111.3 108.8 106.9 105.4 103.5 102.2 100.5 98.7 96.9 95.1 92.8 91.2 89.9 84.4 91.4 92.5 92.7 95.3 98.8 101.5 102.7 102.6 102.3 100.7 100.6 102 103.7 105.2 108.9 112.6 118.2 122.3 126.3 131.9 137.2 142.5 148.4 155.2 164.5 174.6
279.3 275.8 271.8 267.6 265 259.1 263.8 265.6 268.1 268.7 268 265.7 262.4 258.9 255.7 252.7 249.4 246.1 242.7 237.9 232.9 229.4 223.5 215.5 206.8 200.9 195.5 190.9 186.8 183.7 181.6 173.9 178.1 180.4 182.1 183.3 184.4 184.5 183.9 181.3 176.5 168.5 156.5 143 136.2 128.7 121.6 113.6 102.6 95.3 89.7 88.4 84.9 80.3 75.6 73.5 73 72.5 72.8 73.1 73.5 73.9 74.3 73.8 73 69.4 74.1 74.3 74.4 74.5 74.5 74.4 77.3 76.9 76.9 78 77.9 78.2 80 84.7 88.1 89.5 90.3 92.4 94.9 99 107.2 118.4 124.9 128.3 131.5 132.9 132 131.6 132.2 133.3 135.3 136.7 138.7 142.1 145.2 147.6 148.8 148.7 149 149.1 150.4 151.3 152 154.3 155.1 155.5 157.4 160.6 164.8 168.2 168.9 168.5 167.1 165.5 163.6 161.2 160.5 159.4 158 156.7 155.3 153.2 151.6 149.9 147.1 144.3 141.5 139.2 137.7 137.3 136.7 135.1 132.2 130.4 127.8 127.1 128.9 132.2 132.8 135 135 134.8 134.3 133.6 132.4 131.3 128.8 127.5 126.6 124.6 121.2 118.8 115.8 113.4 111.5 109.6 107.2 105.8 104.4 102.7 101 99.3 97.6 95.9 93.9 91.7 89 86.6 86.7 91.3 93.5 96.8 99.8 102.4 104.4 104.8 103.1 102.4 102.5 103.6 105.3 108.3 112.8 117.5 121.1 126.8 132.9 139.4 148.4 158.2 163.3 172.3 187.7 195.5
275.6 271.9 267.3 263.4 259.4 254.3 258 259.2 258.4 258.7 257.1 255.5 253.3 250.5 247.9 245.5 242 239.3 236.2 231.3 227 222 215 207.9 201.8 197.1 191.5 185.7 182.6 180.2 177 171.2 171 173.9 176.6 178.7 179.3 178.1 176.1 173.7 169.8 162.8 154 144.4 135.4 120.3 115.4 101 93.4 90.5 87.3 85.9 83.7 84 80.5 73.8 72.9 72.6 72.7 73.3 73.6 74.3 74.3 73.6 73 69.6 74.6 74.7 74.8 74.9 74.9 74.6 77 77.4 77.1 78.3 79.3 80.1 85.1 87.3 89 90.2 91.7 94.2 96.7 100.4 111.1 121.8 128 130.2 133.5 133.2 131.9 131 130.9 131.4 132 132.7 133.7 134.6 137.3 140.2 141.4 141.6 142.9 144.6 145.9 146.6 148 149.6 150.9 152.5 155.8 159.1 163.2 165 165 164.5 163.7 162.2 160.3 158.5 156.7 155.7 154.8 153.7 152.6 150.9 149.5 148.8 146.5 144.1 141.3 138.8 136 134.1 133.1 131.1 128.1 129.1 131 133.7 136.1 138.2 138.9 138.5 138.4 137.2 136.7 135.6 134.4 132.9 130.7 128.7 127.8 123.8 121 117.6 115.7 113.7 111.7 109.8 108.1 106.6 104.9 103.2 101.5 99.3 97.4 95.4 93.8 91.8 90.3 90 88.1 89.8 94.5 97.1 99.5 102.2 104 104.7 103.7 103.5 104.3 105.9 107.8 111.3 116 121.2 127.6 133.4 139.6 148.6 162.5 177.2 188.8 197.8 203.7 211.2
273.1 267.7 262.5 259 255.8 248.2 250.2 249 248.1 246.6 246.5 245.5 242.2 240.6 239.2 237.1 233.4 230.2 226.8 223.4 218.6 213.5 209.3 203.9 198.6 194.2 188.2 183 179.1 174.9 170.1 166.9 154.7 162 166.1 172 172.5 171 168.8 164.2 160.3 155.5 148.5 139.1 124.1 108.1 104.9 89.7 89.6 88.7 86.8 83.8 81.9 82.2 77.8 73.3 72.9 72.9 72.9 73.3 73.8 74.4 74.6 74 73.3 69.3 74.5 75 74.9 74.8 74.7 75.6 77.8 78.7 78.2 79.7 81.9 83 88.1 88.8 89.9 91.7 93.9 96.1 96.7 102.4 115.1 124.5 130.3 133.4 133.8 132.4 131 129.4 128.3 128 127.9 128 128.1 127.9 130.1 132.3 134.4 136.1 138 139.6 141.3 142.4 144.3 146.1 148.6 151.8 155 160 161.8 161.5 161.6 162.1 161.4 160.4 157.9 155.6 153.4 152.2 151.6 150.5 149.5 148.5 148 147.4 145.1 142.8 140.1 137.1 134.7 133.9 131.9 131.4 131 133.3 136.3 139.2 141 142.3 142.3 142.1 140.6 140 139.1 137.1 135.8 133.7 132.3 129.1 126.9 124.3 121.5 119.1 117.4 115 112.6 110.3 108.4 107.1 105.4 103.7 101.3 98.9 97 95 93.4 92 91.7 91.4 89.4 87.1 94.8 96.5 98.4 101.4 103.9 104 103.5 104.8 106.5 108.5 110.9 114.8 119.8 126 133.1 140.5 149.3 160.1 174.1 193.3 203.4 210.7 215.1 224.2
270.5 264.9 259.2 254.3 248.7 243.8 240.4 239.6 237.6 236.6 235.3 235 234.1 231.9 229.6 228.8 226 222.3 218.7 215 211.3 206.8 203.4 199.2 195.3 191.2 184.9 180.6 176.5 171.4 167.9 165.2 153.4 151.4 154.2 161.9 164 162.7 159.6 156.6 152.8 146.3 140.4 130.1 115 102.7 89.3 85.9 83.9 86.8 87.2 83.7 82.3 82.8 76.7 73.7 73.2 72.5 72.7 73.4 74.2 74.4 74.6 74.5 73.7 69.2 74.1 74.5 74.7 74.7 74.7 77.1 78.5 79.5 80 82.1 84 87.4 89.8 90.4 91.4 94.4 96.8 96.9 97.3 106.9 116.8 123.7 131.2 133.8 132.7 130.8 129 127.3 125.5 125 124.6 124.3 124.2 124.3 125.5 127.7 128.9 130.4 132.9 134.2 135.6 138 140.9 143.1 146.7 150.8 155.8 160.4 161.1 159.6 158.8 159.5 159.9 158.5 156.1 153.6 150.9 149 148.6 147.6 146.4 145.9 145.4 145.1 143.1 140.5 137.7 135.9 136 136.1 136 134.7 135.1 138.1 141.5 143.4 145.3 145.5 145.7 145.7 144 142.8 141.4 138.9 136.6 135 132.9 131 129.1 126.4 124.3 121 118.8 116.3 113.9 112 109.6 107.7 105.9 103.4 100.8 98.9 96.9 95.1 93.7 93.2 93 92.8 92.2 87.3 92.8 94.9 97.2 99.5 101.6 103.5 103.4 105 107 110 113.8 118.1 123.8 132.1 139.9 149.9 162.7 178.6 193.7 204.8 212.9 218.3 224.9 234.9
264.1 258.6 254.8 247.7 243.8 239.1 232.8 231.6 229.7 228.2 227.8 226.7 225.6 223.6 222.4 220.3 216 212.7 209.9 207 204.1 201.7 198 194.3 190.2 187 181.5 177.4 173.8 168.9 168.7 166.4 161.6 156.8 150 149.5 156.8 155.4 152.3 148.5 143.4 137 129.2 120.2 106.5 93.2 86.6 82.1 79.8 80.7 85.1 84.6 81.7 81.5 76.1 73.9 73.4 73.1 73.1 73.6 74.4 74.6 74.8 74.9 74.1 69.7 73.4 74 74.2 74.4 74.6 78.8 80.6 81.4 83.5 84.5 86.2 90.2 92.1 92.3 93.3 96.4 99.7 101 101.8 108.1 117.3 123.6 130.1 131.6 130.6 128.1 126.5 125.3 124.2 123.6 122.8 122 121.2 121 121.9 123.4 124.1 125.2 126.2 127.4 129.6 133.2 135.9 140.3 144.4 150.5 157 161.3 159.4 158 156.5 157.5 157.9 156.7 154.2 151.6 148.3 145.9 144.5 144.5 143.4 143.2 143.4 144.2 142.5 139.9 139.8 139.2 139.2 139.4 138.6 137.7 138.8 141.3 145.4 147.2 149.7 150.4 150.1 149.6 147.3 144.9 143.3 140.4 138.9 137.2 135.6 133.9 131.6 129.3 127 123.1 120.2 117.9 115.8 113.6 111 108.8 105.9 103.5 101.3 99.1 97.6 96.3 95.2 94.4 94.3 94.3 94.2 89.7 92 94.7 95.9 97.7 99.8 101.9 104 105.5 109 112.2 116 121.1 127.1 136.1 148.1 163.5 177.9 197.8 206.3 213.7 218.3 222.3 233.8 249.4
257.1 252.4 248.1 242.6 236.1 231.5 227.9 225.6 224.9 223.4 221.5 219.3 219 216.7 215 211.7 208.2 205.6 203.6 201.6 199.3 197.1 195 191.8 187.6 184.3 178.9 176.3 174.8 172.1 169.7 165.7 160.2 153.7 149.8 138.6 146.3 147 145.5 139.8 135 129.7 121.3 110.7 95.5 86.5 81.5 79.5 77.6 76 78.4 78 77.1 78.5 75.6 73 72.6 72.8 73.8 74.5 75 75 74.9 74.5 74.6 69.3 73 73.4 73.8 74.2 75.4 81.4 84.7 84.6 83.5 86.1 89.1 92.1 93.9 95.2 96.2 99.6 102.8 105.8 106.9 108.6 116.2 122.5 127.4 128.2 127.4 125.4 124 122.6 122.4 122.5 122.3 121.3 120.6 120.1 119.7 118.6 119.2 119.4 121 120.8 123.5 126.4 131.2 136 141.6 148.4 153.7 157.5 157.3 155.7 154.9 155.9 155.7 155.1 152.3 149.1 145.7 143.3 141.9 141.4 141.1 141.5 142.1 143.4 143.2 143.3 143 142.9 142.8 142.7 142.2 142 144.2 147 150.3 153.9 156.1 155.8 155.3 153.2 150.1 147 145.5 144.4 142.9 140.7 139.1 136.5 134.2 132 129.5 126.1 123 119.9 117.6 113.4 112.5 111.3 107.4 105.1 102.4 100.7 99.3 97.9 97.2 96.7 96.6 95.6 94.1 89.4 91 94.1 95.5 97.1 98.8 101.3 104.6 106.4 109.7 113.4 118 124 130.4 140.2 153.5 171.4 192.1 208.9 211.9 217.2 218.2 221.2 235.5 254.9
252.6 248 242.2 237.2 232.6 229.4 226.7 221.9 220.4 218.6 215.7 213.4 211.4 208.4 207.7 205.9 203.2 201 199.4 197.1 196.3 194.6 193.8 191.7 189.1 184.6 178.5 180.8 177.1 173.2 169.2 164 158.9 151.7 145 139.4 128.1 135.3 136 132 126.8 121.3 113.7 98.8 91.5 86.8 79.5 77.6 76.2 74.9 74.5 74.8 75 75.9 74.2 73.1 72.6 73.6 73.8 73.8 74.3 74.7 74.8 74.9 74.9 69.3 72.8 73.5 74.1 74.5 77.8 81.9 84.1 87.1 87.5 89.9 92.4 94.3 96 97.4 99.1 102 105.3 109.5 111.1 111.5 114.7 118.6 123.8 124.5 125.1 123.5 121 118.7 118.7 119.1 119.8 120.5 120.6 120.1 120 118.1 115.4 114.1 114.9 115.4 117.2 120.2 124.3 129.7 135.3 142.8 146.7 150.7 153.3 153.2 154.4 155.8 155.4 154.4 150 146.4 143.5 141.1 139.5 139 139.2 140.1 141.5 142.2 144.1 144.2 144.6 145 145.8 145.8 145.6 146.6 149.7 153.6 156.9 160.7 163.1 162.1 160.3 156.8 153.4 152.3 150.7 149 146.9 144.3 142.6 139.1 136.8 134.8 132.8 130.4 128.2 124.3 119.3 114.6 113.3 111.8 108.9 106.7 104.2 103.5 102.3 101.2 100.2 99.2 97.9 96.7 93 89.3 94 95.1 95.2 96.9 99.5 101.6 104.7 107.6 110.5 114.6 119.4 125 132.4 143.1 154.2 175.5 198.5 207.5 208.6 211.9 212.9 216.6 228.6 244.3
246.7 242.7 237.6 232.6 228.1 226.7 224.5 220.3 215.7 213.6 211.2 208.4 206.4 204.6 203.1 201.5 198.8 197 196 192.1 191.5 190.6 191.3 189.1 186.3 183.1 185.1 182.4 178.4 173.6 169.1 164.9 159.7 149.2 141.3 135.7 130.9 119 124.1 122.1 118.7 112.5 104.4 93.7 90.6 86.9 78.2 76.3 74.9 74.5 74.3 74.4 74.1 74.2 73.2 72.7 73.3 73.9 74.1 74.1 74.1 74.1 74.4 74.5 74.6 69.5 72.7 73.4 74 74.8 79.6 82.6 85.2 87.6 89.6 91 93.4 95.9 97.5 99.5 101.7 104.8 109.1 111.9 114.3 114.9 116.7 119.3 123.1 124.7 124.8 122.6 120.4 117.7 115.6 115.4 116 117.1 117.3 117.9 118.2 118.9 117.1 113.8 109.9 112.1 114.3 116.3 118.7 123.2 127.8 133.8 138.7 142.6 147.9 149.7 153.4 156.2 156.3 153.9 150 145.3 142.4 139.5 137.6 136.9 137.2 137.6 139.5 141.4 144.2 144.8 145.1 146.4 147.1 147.5 148.2 150.9 154.6 158 162 165.9 167.3 166.8 164.9 162.9 160.5 157.3 154.7 152.8 150.5 148.1 145.7 143.3 141.4 139.5 137.7 134.7 131.3 127.5 122.6 117.7 114.6 112.7 110.5 108.4 107 106.6 105.6 104.2 102.9 101.5 99.3 97 94.3 92.3 93.7 96.4 96.4 97.8 99.9 102 104.4 108.3 111.2 115.9 120.6 127 133.8 144.9 157.2 179.3 202.3 203 202.2 204.6 206.4 210.8 219.2 227.1
239.7 237.5 233.1 230 226.6 223.3 219.7 214.7 213.1 211.5 209.1 207 205.1 203.8 201.5 202.3 199.6 198.1 196.6 194.4 192.6 191.1 190.5 189.7 189.2 189.2 185.6 183.8 179.6 174.6 168.9 161.9 155.1 145.8 140.1 134.3 127.4 115.9 112.5 111.7 109.3 104.6 96.3 92 88.8 81.8 76.2 75.2 74.7 74.4 74.1 73.4 73 72.5 72.5 73.1 73.8 74.2 74.4 74.3 74.3 74.3 74.3 74.4 74.6 71.7 69.6 73.8 74.3 75.3 80.9 84.3 86.9 88.7 90.5 92.3 94.9 96.9 98.9 100.6 104.4 107.5 111.9 115.3 117.7 119.1 120.4 122.3 128.1 125.6 124.4 122.8 120.8 118.4 115.8 114.4 114.1 114.1 114.8 115.5 115.4 115.8 116 111.7 108.8 108.8 110.9 112 113.6 116.5 121.5 126.6 130.9 135.6 139.8 145.5 149.4 155.5 155.5 152.5 149 144.8 141 138 135.7 135.8 136 136.7 138.4 140.9 144 145.7 146.7 146.6 147 147.9 149.8 152.5 156.3 160.4 163.9 170.8 170.9 170.1 169.7 167.3 164.3 160.8 157.4 155.1 152.7 150 147.6 146.2 144.1 141.8 139.1 136.1 132.6 129.1 125.8 121.3 118.4 116.5 114.6 111.8 110.5 109.5 108 106.6 105.2 103.8 102.2 99.6 94.4 95.9 94.9 97.8 98.4 98.7 100.2 102.5 104.5 107.5 110.9 115.6 121.3 128.2 135.6 146.4 161.5 182.4 201.8 199.2 195.2 196.4 199.6 204 209.3 213.9
232.9 231.2 228.6 225.2 220.5 218.1 215.8 213.4 210.5 208.8 207.4 206.4 203.5 201.3 202.6 202.6 201.8 199.5 196.9 194.6 192.5 191.1 190.9 191.1 191.5 190.4 187.9 184.7 180.5 174.5 165.5 157.5 152 143.7 138.8 131.3 123.6 119.1 113.8 105.8 97.8 97.2 94 90.7 85.7 78.9 76 74.7 74.4 74.2 74 72.5 72.8 73.3 73.1 72.9 73.6 74.6 74.6 74.6 74.6 74.3 74.4 74.5 74.6 74.8 69.4 74.3 74.8 76 83 86.7 87.5 89 90.8 94 97 99.3 100 101.7 105.7 110.6 114.3 117.1 119.2 122.6 125.1 126.7 129 126.9 123.8 121.7 120.1 118.5 116.4 115.7 115 113.5 112.5 113 112.6 112.3 109.7 107.5 105.9 106.7 108.3 109.3 108.8 111 114.8 119.8 124.5 129 133.6 138.7 143.1 147.5 151.4 150.1 147.7 144.5 140.4 137.3 133.7 135.5 136 136.8 138.5 140.9 143.2 145.4 145.5 145.9 146.1 146.9 148.6 152.6 156.6 160.3 165.8 171.9 172.2 171 169.5 167.3 164.4 161.2 158 155.5 153 150.4 149.6 146.9 144.2 141.9 139.4 136.1 132.1 128.6 125.2 122.3 120.8 118.9 116.9 115.4 113.4 112.1 110.5 109 107.6 105.9 103.2 100.1 95.8 96.4 95.3 97 99.4 99.9 100.9 103 105 107.5 110.6 115.8 121.8 128.4 136.7 148.4 163.7 186.8 198.9 195.1 190.1 190.5 192.1 195.9 199.3 202.3
225.9 223.1 222.2 220.1 217.1 215.3 212.4 210.8 209.2 205.3 205.3 204.5 200.4 198.1 198.5 198.4 197.5 197.6 196.2 193.9 192.1 190.8 190.5 191.3 191.6 191.4 189 184.5 179.4 172.7 163.3 157.1 150.7 142.5 136.6 128.4 122.4 115.4 108.4 103.5 97.2 91.8 90.1 86.2 83.5 79.2 75.5 74.5 74 73.9 74 73.3 72.8 73.8 73.5 73.3 73.4 74.5 74.9 74.9 74.7 74.5 74.6 74.7 74.8 74.9 69.3 73.5 74.7 79.2 85.2 87.5 88.3 89.7 92 95.2 98.8 100.9 102.6 103.7 107.9 111.8 115.5 120 122.6 125.3 127.9 128.5 127.9 125.8 122.8 120.3 119.4 117.8 117.2 116.8 116.8 115.6 113.7 110.3 106.2 105.9 104.7 105.8 106.3 105.9 106.9 108.7 108.3 108.7 110 115 119.6 123 127.1 132.4 136.5 140.1 142.9 144.7 144.9 143.4 141.2 137.9 137.1 137.7 137.4 137.8 139.1 140.7 142 142.9 143.5 144 144.6 145.6 147.3 151.7 156.2 159.4 166.8 172.2 171.5 169.7 167.7 165 162 159 155.8 153 151.3 149.3 147.2 144.5 141.9 139.6 137.6 134.5 131.1 127.8 125.2 123.4 122 120.5 118.7 117.1 115.4 113.5 111.8 110 109.3 106.7 103.2 100.2 97.4 97.8 96.3 100.3 100.5 101.3 101.7 102.9 105.4 107.8 110.9 115.8 122.3 130 137.5 147.5 164.5 185.5 194.8 190.3 185 183.9 185.5 188.9 191.3 196.7
220 217.8 215.9 214.1 211.8 209.3 205.8 205.7 203 198.2 197.8 196.7 195.6 191.4 189.2 190.7 191.8 193.4 194.1 192.5 190.9 190 190.2 190.5 190.2 189.6 187.2 181.6 175.7 169.7 162.2 155.1 147.4 140 134.1 127.6 121.7 114.4 103.3 98 91.6 86.8 86.3 84.2 80.1 77.3 74.6 74 74.1 74.3 74.3 74 73.3 73.8 74.3 73.9 74.3 74.4 75.1 75.1 74.5 74.6 74.7 74.8 74.9 74.9 70.1 69.4 74.6 79.9 86 88 89.1 91 94 97.1 100 102.6 104.3 106.7 112.2 114.6 118.4 123.9 126.8 127.5 127.9 126.6 124.6 122 119.6 118.7 117.4 115.7 116.1 117.4 117.3 113.9 110.6 103.9 102.7 106.1 112.5 114.6 108.8 107.9 107.5 106.8 107.4 109 109.9 112.3 115.4 118.3 122.1 126.6 130.8 134.1 136.6 139 140.5 140.9 141 132.9 140.8 140.1 139.6 139.7 140.5 141.5 142.1 141.6 141.5 141.7 142.3 143 145.3 149.8 154.2 157.9 165.2 170 169.1 167.4 165.6 162.6 159.6 156.6 153.7 151.3 149.1 146.8 144.7 142.1 139.7 137.3 135.3 133 130.1 126.9 124.7 123.9 122.7 121.2 120.2 118.6 116 113.5 112.3 110.7 108.6 105.4 102.1 98.8 99.6 97.4 99.7 101.6 103.3 103.6 103.7 103.8 106 108.2 111.5 116 123.1 130.8 137.8 147.6 161.5 181.8 187.1 184.9 180.6 178.9 179.2 183 188.3 190.5
211 209.8 208.3 206.1 203.5 199.6 195.3 196.4 193.8 188.9 187.2 187.5 186.2 183.7 180.7 180.1 182.3 183.3 185.1 186.8 188 187.4 187.3 186.9 185.1 183.6 180.9 176.6 172.4 167.7 160.2 154 145 139.5 134.8 128 118 107.1 99.9 95.7 91.3 86.2 82.4 80.5 77 75.2 74.4 74.1 74.4 74.7 74.2 73.9 73.8 74.4 74.9 77.9 78.1 78.5 77.5 74.8 74.6 74.7 74.7 74.7 74.7 74.6 70.7 69.6 74.6 81.2 86.9 88.6 89.7 92.6 96 99 100.9 103.1 105.3 109.4 114.7 117.4 121.6 127.1 127.8 126.4 124.6 122.1 119.5 117 116.5 115.8 114.3 113.9 114.3 114.5 114.5 110.1 102.8 104.2 108.9 114.7 117.2 118.1 116.4 109.7 109.8 110 109.7 110.2 109.1 110.5 112.5 114.7 118.3 123.4 126.9 129.9 132.4 134.6 136.4 137 137.1 137.4 140.5 140.3 140.9 141.9 142.6 142.8 141.4 140.6 140.3 140.4 140.1 141 143.2 147.5 151.7 155.3 161.7 167.8 166.3 164.3 162.7 160.7 158.1 155.1 153.2 150.7 148.3 146 143.5 136.3 137.6 135.4 133.1 130.8 127.9 124.4 123.3 122.9 122.4 120.5 119.6 118.2 115.9 113.3 111.8 109.1 105.5 103.8 101.9 101.8 100.4 99.5 102.1 104.5 105.8 105.9 106.1 106.4 106.9 108.3 112.7 117 123.1 130.5 136.9 145.5 157 171.8 181 181.6 178 174.1 174.8 177.4 181.5 181.1
200.8 200.4 199.5 196.5 192.8 190.1 186.6 185.6 181.7 176.7 176.7 178 178.1 174.1 173.2 167.2 162.8 166.4 174 178.8 181.3 183.3 183.8 183.9 183.1 181 178.6 176.2 172.4 167.3 160.3 153.7 143.7 138.2 132.8 125.5 114 101.4 96.5 92.9 89.9 83.9 81 78.4 76.9 75.5 74.5 74.2 74.5 74.2 73.9 73.9 74.1 77 78.8 84.2 85.9 85.1 83.6 76.6 74.5 74.5 74.5 74.4 74.6 75 71 69.7 74.5 81.3 87.7 89.2 91.2 94.2 97.3 99.8 101.5 103.6 106.4 111.1 116.7 118.8 123.3 127.2 124.9 121.6 118.4 116.5 114.3 112.4 112.4 112.3 111 111.7 113.1 112.8 111.2 105.3 101.9 112.7 113 114.7 117.1 119.3 119.4 114.9 113.2 113.7 112.5 112.3 112.8 112.7 113.1 112.1 116.7 121.6 125.4 127.6 129.9 131.7 132.9 133.5 130.2 136.8 139.1 139.6 141.7 142.6 142.7 141.9 140.7 139.5 139.4 139.7 139.8 139.5 142.3 146.1 149.6 152.4 158.1 165.1 164 161.8 159.7 157.5 155.6 153.9 152.3 150.6 148.3 145.9 143.2 139.9 136.4 132.4 129.8 128.4 125.5 122.8 121.2 121.4 121 119.4 117.9 116.7 114.3 112.5 109.3 106.9 104.8 105.8 105.1 103.3 99.5 101.9 104.5 106 107.4 107 107.9 108.4 109.3 110.4 113.3 117.6 122.8 129.9 136.1 144.3 153.9 164 175 179.1 175.8 169.7 169.8 172 175.3 185.7
190 190.3 187.5 185.5 182.4 180.2 175.7 173.3 170.6 167.3 166.4 166 164 165.2 164.6 165 161.8 146.2 157.8 169.7 173.9 175.1 177.8 177.9 178 175.9 174.3 171.5 169.4 163.6 156.6 151 142 133.7 127.2 117.9 105.1 97 92.2 87.6 83.6 80.2 78.5 76.9 76.6 76.5 75 75.5 77.4 77.8 76.7 80 81.9 84.4 84.6 86.2 86.3 85.4 83.5 78.8 74.3 74.5 74.8 75.2 75.6 75.6 74.2 69.8 74 80.6 89.1 89.8 92.2 95.7 98.8 99.7 102.2 104.9 107.9 114 117.9 120.3 122.3 122.1 118.9 115.8 112.7 110.4 104.6 102.1 103.3 103.5 104.7 108.2 111.8 112.2 107.4 100 109.2 116.2 113.7 114.7 116.4 119.4 121.7 117.5 114.9 117 117.6 117.4 116.7 116.8 116.3 117.1 115.7 117.6 124.1 126 127.8 128.8 129.9 126.1 131.6 137.1 137.5 138.3 140.2 141.9 141.6 140.9 139.7 138.6 138.7 139.4 139.9 140.3 142.2 145.1 148.4 151.3 155.9 161.3 160.7 159.5 156.4 155.2 153.9 151.8 149.9 148.3 146.3 143.9 141.5 139.1 136.5 133 129.6 126.1 123.4 122.3 121.1 118 117.2 116.3 114.4 113.2 111.5 109.4 108.4 109.4 110.2 108.4 105.7 102.6 102.8 104.9 107.2 108.7 109.6 110.5 109.9 110.6 111.5 112.2 112.6 115.5 122.1 128 135.3 142.5 150.2 160 167.8 171.4 171.4 168.5 165.4 167.8 174.5 181.1
180 175.7 173.3 172 168.4 166.7 165.3 162.5 159.2 159.8 157.9 154.8 155 153.8 153.4 151.3 147.7 140.9 145.9 153.8 159.1 165.2 170.8 171.5 171 170.6 170 168 163.2 159.4 154.1 147.2 136.5 125.8 113.6 104.6 95.3 90.8 86.1 82 79.5 78.6 77.7 76.4 76.1 75.7 76.4 78.5 79.1 78.5 84.1 87.4 88.4 87.6 85.9 85.3 82.6 81.4 80 78.2 76.2 74.7 75 75.3 75.6 75.9 75.2 69.8 69.8 81.8 88.9 89.8 92.1 95.3 98.6 100.6 103.1 106 109.4 114.8 117.3 118.7 119 117.2 113.2 110 106.1 99.4 91.6 92.1 92 93.8 95.2 96.5 100.4 103.3 99.2 103.8 114.5 116.4 115.2 115.7 117.7 121.7 123 118.7 119 121.8 123.4 123.1 121.9 120.1 119.9 121.1 119.7 117.6 121.1 124.8 126.7 126.9 125.8 126 132.9 136.7 135 136.7 138.4 139.9 140 139.8 138.8 137.9 137.9 138.6 139.4 141.1 142.8 144.9 147.6 150.6 155.9 158.9 158.6 157.2 155.9 153.8 152.3 150.2 148 145.8 143.6 141.4 139.2 136.8 133.1 130.9 128.5 126.1 122.8 121 118.4 115.7 115 115 114 113.2 113.2 114.2 113.2 112.3 110.3 107.8 105 105.3 106.7 108 110.2 112.5 113.5 114.2 113.7 113 113.3 113.8 114.2 114.5 120.2 125.8 133.1 139.4 145.5 152.3 158.9 164.6 166 163.4 158.4 165.6 170.6 177.4
167.3 164.8 162.3 161.8 159.4 158.8 156.5 154.5 153.4 153.6 153 151.4 150.2 148.9 146.1 137.5 129.4 126.8 132.6 139.4 145.5 149.4 161 165.8 169.5 167 164.5 161.5 157.7 152.3 146 138.6 126.1 115.1 103.2 96.6 91 85 82.5 80.5 78.4 77.7 76.8 76.2 76.3 74.8 76.5 81.2 77.9 73.9 83.8 88.2 88.1 87.1 85.4 84.8 83.7 82.4 82.9 81.4 78 74.8 74.8 75.1 75.6 76.1 75.6 74.5 69.8 80.9 87.7 88.9 91.1 95 98.3 101.2 104 106.9 110.1 112.5 113.7 114.5 114.2 112 108.3 103.6 96.3 90.8 96.8 97.7 96.6 97.2 99.3 100.4 99.7 97.6 104.3 111.5 116.1 117.6 117.2 118.4 120.3 124 124.5 121.5 125.1 127.7 128.8 129.4 126.5 124.1 123.6 124.4 124 125.3 120.8 117.4 119 123.2 122.1 125.2 129.1 131.1 133 135.4 137.2 138.5 138.7 139 138 138.1 138.1 138.4 139.7 141.4 143.2 145.3 147.9 150.9 155.1 156.9 155.4 154 152.6 151.3 149.8 147.6 145.3 142.5 140.4 138.3 136 133.7 131 126.8 124 121.2 119.5 119.7 119 118.8 119.1 118.7 116.7 115.7 115.6 115.2 113.8 111.2 108 106.4 107.9 110 111.4 113.7 115.6 116.2 116.6 117.3 117.5 117 116.4 116 116.2 116.6 117.3 121.5 129.1 135.6 141.6 147.3 153.3 158.4 161.6 156.2 155.7 162.2 169.8 179.2
160.5 159.4 157.7 157.2 154.6 152.9 151.5 149.4 150 149.4 148.9 148.2 146.9 143.9 131.3 126.9 135.5 135.9 121 122.4 130.7 139.2 146.6 151.8 156.3 156.2 154.6 153.6 148.1 141.9 133.6 126.6 112.2 102.3 96.1 92.2 85.7 82.5 81.4 80.6 79 77.8 76.6 75.7 75.7 78.6 79.3 82.2 81.6 76.1 73.9 80.9 87.3 86.4 85.9 86.5 85.2 84.4 85.8 82.7 78.5 77.1 75.5 76.1 76.5 76.4 76.4 74.8 69.8 80.3 86.9 88.5 91.5 95.1 98.2 101.1 104 107 108.6 108.7 108.9 109.5 108.9 106.5 102.7 95.2 89.8 95 103.4 104.4 103.4 102.8 102.7 104.6 104.1 100.2 110.4 116.9 119 119.4 119.6 121 124.1 126.6 126.6 126.6 128.9 131.8 132.5 132.7 130.3 128.9 128.2 127.4 125.4 126.1 123.3 122.3 121 118.2 119.8 122 125.1 127.9 129.9 132.5 134.3 135.3 136.5 137.1 137.2 138.2 138.7 139.5 141.7 143.8 145 146.9 149.2 153.2 155.7 154.4 152.5 150.8 149.4 148 146.5 145.1 142.4 139.3 137 134.7 131.4 128.1 124.4 124.2 123.1 123.8 124.1 123.8 122.6 120.9 120 118.7 117.5 115.7 114.3 113.3 110.7 109.4 110.4 110.1 112.7 114.8 117.2 119.5 119.9 118.9 119.7 121.8 122.4 122 120.7 119.2 118.8 119.1 119.5 120.6 125 130.8 136.9 142.7 147.8 152.5 149.1 150.4 158.5 165 171.7 180.7
159.5 156.3 153.3 148.4 147.2 147 146.6 142.9 141.6 137.7 135.4 133.4 133 141.1 147.9 146 143.4 141.2 136.5 127.3 117.8 120.6 127.7 134.8 139 138.8 140.7 139.5 134.1 127 116.3 108.5 100.1 95.6 90.8 87.7 85.6 83.2 81.8 82.5 81.3 78.8 76 75.6 76.6 79.6 79.8 85.8 90 86.9 83.5 82.1 86 87.4 86.8 86.4 86.7 86.4 84.1 81.2 79.2 78 76.6 76.9 76.5 76.2 76.4 76.1 69.8 77.7 87.5 89.6 91.1 94.5 97.7 100.7 103.5 105.2 105.7 106 106.3 105.9 104.1 100.6 95 89.1 92.6 98.7 105.8 104.5 104.4 105.2 105.1 106.6 108 105.1 110.1 120.1 121.1 121.1 123 126.2 128.1 130.9 130.8 132.2 131.8 133.4 133.8 133.4 132.7 131.8 131 129 126.8 127 126.2 126 124.6 122.2 119.5 120.2 122 125.2 126.6 129.2 131 131.8 133.5 134.6 137.3 138.6 139.7 141.2 143.2 145.1 146.6 148.1 151.3 154.6 154.8 153.3 150.3 148.6 147.1 145.9 144.1 142.1 140.7 136.7 132.3 128.6 128.9 128.5 128.6 127.7 126.2 126.8 126.4 125.3 123.7 121.7 119.3 118.2 116.6 115 113.4 113.1 113.5 113.6 113.6 115.9 118.8 120.2 122 122.6 123.2 122.8 124.5 126.8 127 127.4 125.5 122.9 122.4 121.8 122 122.3 122.3 126.4 131.5 135.8 138.4 139.8 145.3 152.9 160.3 166.3 174.2 185.5
160 158.6 157.7 156.2 156.9 155.3 153.6 152.4 151.3 150.2 148.5 149 149.6 150.8 150.2 148.4 146.1 141.4 138.6 130.8 124.4 117.7 111.9 116 124.2 125.6 127 125 120.9 113.9 104.3 100.6 95.7 93.2 89.1 87.4 84.9 83.4 82.6 82.7 79.5 76.3 77.1 76.6 76.9 78.7 78.7 86.6 88.9 90.2 89 85.4 83 85.1 87.4 87.7 88.1 87.8 86.5 83.6 80.2 78.2 76.8 76.3 75.9 76.2 76.5 76.5 69.8 75.6 87.9 89.5 90.9 94 97.2 99.7 101.4 103.1 104.8 103.9 103.9 101.5 99.1 95.1 89.1 89.6 96.8 100.2 103.4 104.3 105.7 107.3 107.6 107.4 109.3 110 107.8 119.2 122.8 122.7 125.7 130 131.4 133.3 134.7 133.9 134.2 134.5 134.4 134.3 134.2 132.8 132.1 131.4 131 130.6 129.6 128.9 127.4 125.4 124 124.3 123.9 122.4 123.3 126.7 128.4 128.6 132.3 135 137.2 138.7 140.2 141.6 143.6 145.7 147.2 149.7 153.7 154.9 154.8 153.6 152 149.6 146.6 146 143.6 141.3 139.6 136.6 133 132.6 133.4 132.6 130.8 129.8 129.9 129.1 127.4 125.6 123.8 121.5 118 116.8 115.3 114.8 115.6 116 116.3 117.6 119.7 122.8 124.5 124.5 125.7 127.3 127.5 128.7 130.4 131.4 131 130.4 129.1 127.9 127.3 125.9 125.6 125.5 125.6 125.5 127 133.9 140.3 144.8 150.4 155.7 162.1 169.3 179.9 196.6
166.4 165.3 164.1 163.2 161.5 159.6 157.5 155.6 154.5 153.9 152.4 152.6 153.1 152.6 151.8 151.3 150.7 147.9 144.7 137.1 129.6 122.5 117.2 108.5 109.4 113.6 112.7 111.6 105.8 100.8 97.3 96.5 93 91.4 88.7 85.9 83 82.2 83.6 81.1 78.1 78.9 78.5 78.5 78.9 82.9 88.9 91.4 92 92.4 90.3 86.3 83.3 85.8 87.1 89 89.5 89 87.6 85.6 82.7 79.6 76.5 75.7 75.9 76.2 76.5 76.2 69.4 74.7 85.6 87.9 89.7 92.7 95.7 97 99 102.2 104.1 102.6 99.9 94.3 87.3 89.3 95.5 100.4 103.7 104.1 103.8 104.7 106.7 109.6 111.2 111.7 110.3 116.7 108.1 112.9 123.5 125.1 128.6 132 134.6 135.4 135.6 134.5 134.4 136.1 136.9 136.8 135.5 134.9 134 133 133.4 133.6 133.1 131 129.5 127.4 125.1 125.1 125.5 125.1 123.2 125.4 127 128.6 133.3 136.6 138.1 139.1 140.6 141.2 143.2 145.1 147 149.4 152.5 153.8 155.3 154.1 152.9 151.6 150 147.8 144.4 142.4 139.8 138.5 137.6 138 137.3 135.6 133.8 132.5 132.4 130.4 128 126.1 124 120.8 119.2 119.2 118.6 118.4 119 119.7 120.8 123 125.3 127.7 130.1 130.5 131.7 133.5 134.3 135.5 137 136.9 136.8 136 134.9 133.3 132.8 131.9 130.3 129.6 129.5 130.4 130.5 129.1 134.9 143.5 153.2 155.7 164.2 171.5 183.1 195.9
176.9 175.1 174.4 170.8 166.9 164.4 161.5 159 157.5 156.7 156.2 156.2 156.3 155.8 154.7 153.5 152 150 147.8 144.3 136.9 129.3 121.4 113.9 107.1 103.9 102.1 97.9 96.6 96.5 96 92.4 91.1 89.9 87.8 86.8 84.9 81.9 83.6 79.7 79.6 82.9 84 81.7 82.1 88.1 93.6 95.6 95.2 93.3 90.5 88.7 88.1 88.3 88.4 89.5 90.8 91.3 88.6 86.4 85 80.1 77.3 75.5 75.7 76 76.3 72.9 69.8 78 84.7 86.2 88.7 91.3 93.6 94 95.7 97.9 98.1 97.6 93.4 85.3 92.8 97 99.5 103.7 106.5 106.6 106.3 105.6 108.5 114.1 116.4 117 114.8 117.4 115.9 109.9 119.5 126.2 129.8 133 135 135.3 135.1 134.5 135.3 136.7 138.2 139.1 137.9 137.7 137.5 136.7 136.2 136.1 134.9 132.3 130.4 128.8 126.7 126.5 127 127.8 127.4 127.6 127.7 128.1 132.6 137.4 139.4 140.1 140.9 141 142.8 144.5 146.5 148.6 150.7 153.4 155.5 155.8 154.8 153.4 151.6 148.9 146.4 144.6 142.3 142.2 142.2 141.4 141 138.5 137.5 134.3 132.4 129.4 127.2 124.7 122.9 122.4 121.8 121.9 121.8 122.1 122.9 124.3 126.1 128 131.8 134 136.1 136.5 138.4 140.5 141.1 143.5 143.8 144.5 144.8 144.2 141.9 139.9 140.4 137.7 135.3 134 134.5 136.3 136.1 136.5 134.3 135.1 143.6 152.8 161.2 170.8 175.2 183.5
186.7 185 183.6 179.5 175.8 171.6 169.3 165.2 162.4 161.1 160.3 160.3 160.3 159.7 158.4 156.3 154.5 152.6 150.7 147.4 143.1 135.8 128.1 119.7 111.1 104.7 103.1 101 98.2 96.8 94.1 93 91.4 90.5 88 88.4 85.4 81.4 79.6 79.6 80.8 85.5 87.2 82.6 86.3 93.3 98.1 98.3 97.1 93.5 90.6 88.3 88.6 89.2 91.5 93.5 95 94.7 90.6 87.5 84.5 80.6 78.2 75.6 75.5 75.5 75.6 69.7 72.7 76.2 81.2 84.1 87.7 90 90.9 91.8 91.8 88.6 87.9 85.1 83.7 93.7 96.7 99.5 102.3 106.5 108.5 109 109.6 107.8 111.8 118 117.9 112.3 112.3 117.1 117.8 114.7 122.5 125.4 129.5 133 134.3 134.6 134.5 135.2 136.1 137.3 139.1 140.8 140.4 140.3 140.1 139.4 137.9 136.6 135 133.5 131.8 130.5 128.2 128.2 129.6 129.4 130.2 130.3 130.5 130.8 128.8 133.9 138.3 139.2 140.1 141.1 142.3 143.7 145.1 147.6 150.8 154.3 155.8 156 156.2 155.3 152.7 151.5 149.8 147.9 147.8 147 145.4 144.7 144.4 142.4 141.1 137.1 134.1 130.8 127.5 124.1 125 124.8 125 125.7 126.4 126.8 128.1 129.6 131.2 133.2 135.1 139.8 142.3 143.9 145.8 147.1 148 149.9 151 152.9 152.7 152.4 151.2 147.6 145.4 143.8 139.9 138.3 139.4 142.2 143 143.6 140.4 137.3 154.5 159.9 165.2 169 177.8 186.7
193.3 190.3 187.7 187.4 185.9 182.8 178.9 176 171.7 169.1 166.9 165.9 165.7 164.4 162.8 160.7 158.3 156.7 154.8 149.4 144.4 135.9 128.4 121.9 113.6 106.1 100.4 99.6 98.2 96.7 96.1 95.2 92.7 90 88.3 90.3 88.3 85.4 85.6 85.2 84.4 86.4 87.6 87.8 94.3 99.6 100.1 99.7 98.5 94.5 90.8 89.6 90.8 92.7 96.4 96.1 96.3 94.5 91.2 89.2 86.7 82.8 79.4 75.9 75.4 75.4 69.5 69.8 74.1 77.2 79.7 75.8 84.4 87.6 89 89.4 80.9 87.4 88.7 87.5 94.7 96.9 100.2 102.4 105.6 108.8 110.3 111.7 112.5 109.9 111.1 118.5 117.5 113.3 117.6 119.7 118.9 115.9 124.9 128.8 129.8 131.1 133.5 134.5 135 135.8 136.8 138.5 141.1 142.5 142.8 142.4 141.9 141.3 139.5 138 137.8 135.6 134.4 133.8 133.5 133.6 133.3 132.5 133.8 133.3 132.9 132.8 132.9 130.3 133.7 138.6 140.8 142.4 143.1 144 145.5 147.7 150.3 153.2 155.8 156.3 156.4 156.4 155.5 154 154.6 154.3 152.3 150.1 148.9 148.7 147.8 145.9 144.4 141.3 136.2 131.4 128.6 126.9 128.5 128.2 129.1 130 131 131.5 133.4 135.2 138.1 141.7 145.3 147 149.7 150.2 153.8 156.5 157.2 159.1 162.1 162 162 159.5 159.1 156.4 152.9 148.4 144.8 143.4 144.6 147.3 149.7 151.3 152.7 137.2 157.6 162.8 167.9 173.9 180.8 187.1
195.9 195.9 194.5 194.5 194.5 192.7 192.4 191.8 187.4 182.3 176.6 172.4 171.4 169.3 167.3 165.4 163.6 162.5 158.8 152.1 144.6 136.3 128 120.9 114.8 107.7 100.8 99.8 99.9 98.8 98 96.4 97.4 96.5 93.1 93.5 90.7 86.2 83.9 89.1 90.5 92.2 95.3 94.5 102.2 104 102.7 101.6 99.9 95.9 91.9 92.3 94.6 98 98.8 97.8 96.7 96.9 95.6 92.8 88.3 84.9 81.3 76 75 74.2 70.2 73.7 74.2 79 81.5 79.6 78.3 78.6 77.8 81.3 88 91.6 93.1 95.3 97 99.5 102.5 106.3 110.3 112.7 114.3 115.3 115.6 114.1 113.2 116.1 117.9 119.5 122.7 124.3 122.6 122 120.9 128.2 130.9 133 133.7 135.7 136.2 136.8 138.6 140.8 143 143.9 144.4 144.3 143.7 143.1 141.2 140.5 139.2 138 138.8 138.1 137.8 139.1 139 136.9 137.4 137 136.8 135.6 137 136.5 132.1 137.6 141.3 143.7 143.7 144.4 146.1 148.5 150.9 153.1 155.6 156.4 156.5 156.6 157 159.3 158.8 156.5 153.7 151.6 149.8 147.8 147.6 145.9 144.4 142 136 129.6 130.2 130.3 130.7 133.6 134 134.1 136.6 137.6 140.1 143.9 146 149.8 153.5 155.4 158.5 159.6 161.4 165 166.5 169.7 171.6 172 171.8 171.5 167.9 162 158.9 154.7 150.9 149.3 149.7 153.6 157 157.3 157.6 141.7 156.1 164.3 169.5 175.5 182.2 185.9
203 203.4 203 202.6 204.8 206.4 208.1 208.3 206.4 200.3 192.6 185.9 180.8 177.2 174.3 170.3 166.9 163.5 158.9 150.8 144.3 136.8 128 121.1 113.8 107.6 101 100.4 102.5 104.1 101.7 103 104 96.6 94.1 91.5 92.1 90.7 90.4 94.5 97.6 101.7 101.2 101.9 105.2 106.8 105.9 104 100.6 95.7 94.5 98 100.9 101.1 101.1 100.2 101 101.1 100.1 94.6 90.9 87.7 81.8 76.2 74.7 70.7 70.2 74.2 76.4 78.5 82.1 86.8 85.9 84.6 85.1 87.1 90.6 92.9 94.6 98.5 101.9 104.2 109.2 112.4 115.4 117.4 118.3 118.7 117.3 115.5 113.7 115.3 118.6 119 122.9 124.6 125.2 125.6 126.5 123.1 129.3 131.6 133 135.7 137.5 138.2 140.1 142.7 144.3 145.2 145.9 146.3 145.6 145.2 144.9 145.2 143.9 143.9 143.1 142.5 144 144.1 142.9 143.5 143.3 141.6 140.5 140 140.3 140.7 135.1 133.5 137.4 143.8 144.4 144.7 147.2 149.5 151.7 153.6 155.3 156.5 157.4 158.3 159.6 158.7 156.6 153.9 152 150.7 147.7 145.6 143.5 142.9 140.5 138.5 132.5 134.6 137.3 137 137.3 139.4 140.9 140.6 141.8 145.7 147.5 151.9 155 157.6 161.5 164.4 167.3 169 171.1 174 176.7 178.2 180.6 180.7 181.4 183.4 176.3 169.9 164.4 161.1 159.2 155.7 155.1 158.1 161.4 162.2 161.4 152.1 144.9 165.1 171.1 177.1 181.8 185.3
210.5 209.6 210.9 214.6 218.8 220.5 221.3 220.7 218.1 213 204.9 198.2 193.4 186.2 180.9 176.3 172.4 166.1 160.3 151.7 143.5 136.5 126.8 119 112 105.4 101.2 100.5 103.9 108.3 110.6 105.3 100.2 94.4 92.2 92 95.1 98.3 101 103.2 105.7 107.5 106.3 107.5 109.1 109.5 107.3 106.8 101.6 96.7 96.9 100.7 103.2 103.6 103.9 105.2 107.2 106.3 103 97.6 93.8 88.6 81.6 76.3 74.5 70.4 73.5 74.7 76.6 78.8 81.2 83.6 85.8 86.9 87.1 89 91.6 93.6 96.2 100.4 105.5 110.1 114.3 117 119.3 122.4 122.7 120.3 117.9 115.9 114.3 116.2 118.2 120.2 123.9 125.7 127.2 129.2 130.6 129.5 128.9 129.3 135.8 137.7 139.2 140.5 142.3 144.2 145.3 146.3 147.4 147.9 148.1 149.2 149.5 149.5 149.3 149.8 148.8 146.9 148.1 147.9 147.9 147.4 146.5 146.9 145 143.2 143 140.7 135.6 136.6 134.6 138.8 144.1 145.4 148.4 150.6 152.6 154.3 156 159 159.3 159.9 159.6 157 154.4 151.7 148.9 146.7 143.4 142.4 140.9 139.7 138.6 137.5 138 140.5 143.4 142.9 142.8 146.1 148.1 147.5 149.1 152.7 155.1 159.3 163.1 166.4 170.3 173.3 175.7 177.1 181.6 183.4 187.2 189.6 190.4 192.1 195.1 195.2 184.3 176.6 171.2 166.8 164.5 160.7 161.7 163.4 165.3 165.2 164 162.1 146 153.6 170.5 175.7 180.8 183.9
216.2 216.9 220.3 224.9 228.7 231.9 232.9 234 228.8 222.2 215.1 210.2 205.2 198.5 185.5 180.4 175.1 166 159 148.7 142.2 136.7 125.1 117.5 108.4 102.7 101.3 100.7 105.1 108.5 108.2 100.3 93.9 91.6 91.8 93.8 97.8 102.6 104.5 105.8 106.7 108.4 109.8 110.3 110.5 110.5 108.9 107.9 102.6 98.3 97.9 101.4 104.2 107.3 109.4 111.2 111.2 108.2 103.1 98.1 94.4 89.3 81.6 76.3 74.3 70.5 74.7 76 76.8 79.5 81.8 85.2 85.8 87.9 89.5 91 93.3 97.7 100.3 103.4 108.3 114 118.2 120.5 121.9 124.4 123.7 121.2 118.7 116.3 116 118.4 121.2 123.2 126.3 129.3 131 133.2 133.9 133.7 133 128.8 137.1 139.5 139.8 142 143.7 145.5 146.2 146.9 148 149.8 151.3 152.2 153.5 153.3 154.3 154.8 154.3 153.1 151.6 151.2 150.4 150 148.2 148.5 147.4 144.5 142.2 138.6 139.9 139.7 136.8 138 145.5 146.9 149.8 151.3 153.4 155.8 159.1 161.9 161.9 160.9 158.2 155.5 152.8 150.5 148.4 147.3 146.5 145.4 143.5 143.6 143.5 144.8 146.6 144.5 147.4 149.6 148.9 152.4 153.1 153.4 156.2 159.7 162.9 167.1 171.5 175.9 179.9 183.1 183.7 187.8 189.8 192.7 196.6 199.9 201.8 205.7 210 204.1 192.8 182.5 176.1 171.1 168.8 168.4 169.7 169.5 169.8 168.9 167.3 165.7 163.3 149.2 162.6 172.8 179.1 181.7
221.2 224.5 227.8 231.9 234.5 237.8 240.7 241.9 238.8 233.1 225.9 218.1 211.2 202.6 193.7 182.5 174.6 165.2 154.4 146.2 139.7 130.6 120.7 112.9 106.3 101.5 100.6 100.4 102 106.2 102.1 94.9 91.3 89.3 89 94.1 98.4 101.8 103.5 104.2 105.4 108.3 110 111.1 111.1 111.6 110.3 109.6 103 100.2 100 103.2 107.6 111.7 113.9 114.1 114.2 110.4 105.4 100 94.3 88.5 82.3 77.5 70.5 70.6 75.5 76.8 78.2 80.2 82.3 85 87.3 88.6 90.9 92.9 95.7 100.4 103.2 108.1 111.8 117.5 120.9 122.8 123.7 124 122.6 121.7 119.9 117.3 118.2 120.9 123.8 126.8 128.7 132.3 134.9 136.1 136.4 136.6 134.8 130.8 138.9 140.4 140.3 141.9 144.4 145.9 147.5 149.2 150.8 152.4 154.1 156.1 157.3 158.2 159.4 159.9 158.7 157.2 155.6 154.2 153.2 152.5 151.5 150.4 148.6 145.7 142.9 141.3 143.4 143.5 140.4 138.8 147.6 149.7 151.4 153.9 156.8 160.6 165.6 167.5 164.9 161.2 157.1 155 153.5 151.6 150.1 149.8 149.1 147.9 148.1 149.3 151.1 153.4 154.4 150.3 154.1 156.4 155.8 158.3 159.3 160.6 165.2 167.7 171.4 176.9 182.1 186.2 189.1 191.9 196 198.1 200.5 202.4 206.8 209.3 212.3 216.6 218.2 212 199.3 189.1 183.9 179.3 176.2 175 177 176.4 174 172.8 170.7 169.4 167 161.9 150.3 169.2 176.1 179.9
225.1 227.7 230.7 232.3 235.4 238.5 241.3 243.4 240.9 235.8 230 221.4 213.9 206.5 197.6 187.3 176.8 164.2 153.5 144.8 136.2 125.5 115.9 108.7 103.3 100.9 100 100 100.7 98.6 95.3 92.1 89.9 87.9 88.4 92.9 96 98.1 100.1 102.3 103.9 104.5 107.5 110 111.3 111.9 114 109.2 105.1 103.2 103.7 107.5 113.1 117 118.4 118 115.2 112.1 106.6 99.3 93.7 88.3 80.7 76 70.4 71.9 74.6 77.1 78.7 80.3 82.2 86.7 89 90 91.3 93.4 97.5 102.5 106.2 109.9 113.6 118.1 121.5 122.6 122.9 123.1 122 121.1 120.6 119 119.3 122.3 126.2 129.5 132.9 136.4 137.9 138.4 138.4 137.4 133.8 136.1 139.4 141 141.5 143.1 146.5 148.7 150.4 152.2 153.8 155.6 158 160.9 162 162.9 163.4 163.4 162.1 160.9 159.3 158.2 157.8 156.7 153.9 150.5 148.6 146.8 144.7 145.3 146.5 146.7 144.2 139 145.5 151.8 154.5 158.3 161.2 167.4 173.2 172.7 168.4 164.1 159.4 157.5 156 154.2 152.8 151.7 151.6 151.3 154.2 156.4 158.3 159.6 159.9 156.1 161 161.7 160.2 163.3 167.7 167 172.3 176.3 181.7 187.1 191.9 195.2 198.5 202.5 205.8 209.5 212.3 214.4 217 221.2 224.9 229.1 230.4 220.8 208.1 196.6 190.2 186.1 183.1 182.4 180.2 179.6 178.2 175.9 174.6 173.1 171.5 168 155.9 170.4 176.2 178.5
225.6 228.1 229.1 231.2 234.6 237.1 240.1 240.4 239.3 234.5 229 221.5 215.6 210.1 203.3 191 178.3 165.3 152.7 142.8 132.5 121.1 111.2 105.9 100.7 100.1 99.5 98.7 96.9 95.3 84.8 89.3 89.2 88.2 87.9 90.4 92.6 93.9 94.3 97.2 100 101.7 105.6 109.2 111.5 113.8 116.8 111.5 107 104.8 107.3 111.6 116.4 119.4 120.3 117.5 116.1 113 108.4 101.3 93.1 86.8 79.4 72.5 70.4 75.3 76.1 77.8 79.2 81.1 82.8 88.2 90.1 90.6 92.3 94.8 98.2 102.9 106.9 110.9 113.8 117.5 119.7 120.4 121 121.7 122.3 122.1 120.6 119.1 120.9 124.9 128.7 132.2 136 138.5 139.7 139.9 138.8 137.7 136.3 137.3 139.7 141.5 143.4 146.1 149.6 151.6 153.3 155.1 157.2 159.7 162.2 165.4 166.8 166.4 166.5 165.7 164.1 163.3 162.5 161.6 161 159.6 156.2 150.9 150.2 149.5 148.5 149.1 149.3 149.5 146.3 138.8 144.5 154.7 157.8 161.6 165.9 172.8 178.2 177.1 174.1 169.2 164.9 161.4 159.9 157.7 156.1 155.3 153 156.3 158.4 162.1 164.4 165.1 164.7 159.8 166.2 167.4 167.4 171.9 175 177.7 181 186.2 192.2 197.2 201.5 204.4 208 211.7 216.9 223.7 225.4 227 229.2 233.1 242.5 249.6 240.5 230.7 216.6 204.6 196.6 191.9 190.3 188.7 185.2 183 180.6 178 175 174.2 172.2 171.5 164.2 164 173.9 176.5
224.1 225.8 226.8 228.9 230.7 232.9 235.5 236.3 235.5 231.9 228.2 223.2 218.3 213.7 206.9 192.2 178.1 164.5 151.3 139.8 130.4 119.1 107.6 103.2 99.7 98 95.5 90.5 89.8 84.8 81.8 89.3 90 88.9 87.7 88.2 89.5 88.6 89.5 92 93.9 97.2 105.1 109 112.9 114.9 114.9 113.5 111.3 109 110.7 114.2 118.1 119.4 119.5 117.4 115.2 111.9 107.2 99.7 92 85.1 77.9 70.3 74.7 75.8 76.1 78.2 79.8 80.6 84.5 88.7 90.5 92.3 95.2 100 96.4 101 105.3 109 112.6 115.2 116.5 117.6 119.4 121.8 121.5 120.9 120 119.5 123.4 127.6 131.4 135.4 138.1 140.6 141.2 140.2 140.3 139.3 138.7 139.2 142 143.6 145.9 148.8 151.8 154.1 156.9 158.9 162.1 164.9 167.6 169.2 169.5 169.5 169.5 169.7 168.6 167.4 165.7 163.9 162.1 160.3 157 154.9 153.1 151.6 150.3 150.4 150.6 151.3 147.2 139.7 146.8 157 160.8 164.8 170.2 176.4 181.5 182.3 180.3 175.9 171.3 166.8 163.7 161 160.2 159.7 158.1 162.2 165.6 169.2 170.6 171.3 170.6 168 173.1 174.7 172.8 179.3 183.1 187.3 191.1 196.2 201.5 206.6 210.2 213.1 217.6 224.5 232.1 238.7 239.5 240.4 241.2 251.7 257.8 256.9 245.1 233.9 224.4 213.2 205.3 199.3 195.6 192.6 189.5 186.2 182.6 179.7 175 163.7 163.3 161.7 162.8 165 174 175
222.1 223 223.9 225.2 226.4 227.5 229.6 228.7 228.9 227.1 224.1 222.6 220.3 217.1 209.2 192.2 178.3 164.4 151.5 138.2 125.8 114.3 104.1 99.4 98 96.4 95.4 82.9 80.1 78.1 84.8 87.8 87.1 86 85.9 86 85.2 82.5 84.6 87.9 88.4 95.3 104.2 108.2 111.9 114.8 115.6 117 116.1 111.9 112.4 115.6 117.1 117 117.1 115 112.2 108.9 104.1 99 90.8 83.2 73.5 70.8 75.4 76.1 77.3 79 80.5 80.6 83.7 88.4 90.5 92.8 95.8 100.5 99.9 98.8 103.7 107.3 108.2 111.6 113.2 115.1 117.7 120 120.3 119.6 120.8 121.5 125.3 129.9 134.7 138.9 140.9 141.2 141 141.1 141.5 141.5 140.5 141.1 143.5 145.6 148.3 151.5 154.7 157.9 161 163.9 165.1 168.9 170.6 171 171.1 171.9 172.7 172.7 171.9 170.2 168.1 165.9 163.6 161.1 158.9 156.7 154.6 152.8 151.8 151.8 152.5 152.7 147.1 142.4 153.2 158.7 162.9 167.9 173.4 179 186.3 188.8 187.7 183.2 175.7 174 169.5 167 165.5 164.7 164.1 169.3 172.8 174.8 176.2 177.3 176 174.8 180.6 182.8 185.3 188.3 192.2 196.6 200.7 204.9 210.3 214.5 217.9 223.1 228.9 241.6 248.1 249.4 249 249.4 253.1 257 256.1 253.5 238.2 230.8 224.6 217.6 210.7 205.4 200.2 196.1 192.6 189.6 183.9 179.1 169.2 172.8 174 167.3 165.2 172.6 175 175.3
