ncols 200
nrows 82
xllcorner 320000
yllcorner 251650
cellsize 50
482 480.7 471.5 460.8 446.3 430.6 419.9 410.6 405.6 390.1 398.8 392 384.8 378.6 369.2 364.5 361 357.7 351.3 344.3 334.9 325.8 317.4 310.4 311.6 303.9 298.5 295.7 292.8 294.5 297.4 297.1 292.6 287.8 282.7 278.3 275.1 272.8 271.9 270.8 269.9 269.2 271.8 275.5 280.5 288.1 296.7 305.9 304.8 301 301.2 294.2 283.5 276.8 271.5 267 264.1 258.6 255.2 255.1 255.3 255.6 255.8 255.3 256.8 256.6 256.3 256.7 256.5 254.4 255.1 257.5 260.9 259.4 259.9 264 268.4 271.7 275.1 277.7 282.8 290.3 298 309.1 324.9 339.8 354.2 368.5 376.1 382.1 388.8 392.9 396.3 396.7 393.8 395.9 395.6 394.2 391.9 389.8 387.7 386.6 386.7 386.3 387.5 388.2 386.9 385.5 382.8 381.4 379.9 377.3 375.5 373.6 370.9 368.1 365.2 361 357.6 354.4 350.9 348 343.7 337.8 334.1 330.9 327.5 324 320.7 318 315.1 312.1 308.6 304.8 302.7 299.2 295.8 293.3 289.7 286.7 285.2 284.2 282.2 280.2 277.8 270.9 260.7 249 247.4 254.3 252.8 249 245.5 241.5 237.2 233.4 227.9 222.9 216.8 211.7 211.4 207.1 204.5 194.9 185.3 180.5 175.1 169.7 167 164.4 162.8 163.7 171.2 176.5 185.2 199.5 209.7 215.5 217.5 218.1 219.1 220 218.3 216.5 214.9 214 209.9 204.1 204.2 204.2 202.7 201.3 200.2 199.4 194.4 193.6 191.7 188.1 183.9 180.3
487.6 485.6 480.2 476.1 465.5 454.2 441.8 432.2 425.2 413.4 417 410.7 405.6 397.5 387.1 376.6 369.5 363.2 355.7 347.1 338.2 328.3 319.5 320.8 314.9 308.4 303.4 302 303.3 302.8 306.5 302.5 300.1 294.6 288.4 282.1 277.3 272.9 269.9 269.7 269.5 271.9 275.8 280.7 291.5 307.9 316.2 313.6 302.3 296.4 292.9 286.7 279.9 275.8 272.3 268.7 263.6 259.6 257 254.2 252.5 252.1 252.5 251.6 252.4 252.3 252.4 252.8 252.4 251.2 251.9 253.7 255.1 253.8 256.1 264.9 269 271.7 275.1 282.9 290.3 301 311.7 322.4 336.3 351.8 361.2 369 376.2 381.2 385.7 389.2 390.3 390.8 387.9 391.2 390.5 388.3 386 382.7 380.7 380.1 380.3 379.2 381.4 381.9 380.6 378 376.5 374.4 372 370.1 369 367.3 364.9 361.8 358.3 354.1 352 347.6 345 343 339.8 334.3 329.4 325.7 323.1 319.4 316.1 314 310.4 306.5 304 302 299.1 296 294.4 292.8 289.3 285.6 281.8 277.8 276.7 276.3 273.6 269.6 261.7 254.8 243.4 241.3 245.7 242.7 239.6 235.3 230.2 226.8 221.3 215.1 211 207.1 203.6 201.9 200.7 193.2 181.3 176.8 171.3 166.5 167.2 164.6 165.6 171.1 175 184.7 197 207.1 215.2 219.8 218.8 220.8 221.2 220.5 219.5 218.2 216.8 215.2 212.5 212.3 211.7 210.1 207.8 205.6 203.4 200.9 197.4 194.1 191.3 186.4 181.6 177.7
489.7 485.4 480.6 479.9 475.7 471.8 460.9 452.9 446.5 437.2 436 428.8 418.5 407.6 395.5 384.6 374 364.9 354.1 345.3 338.7 330.9 328.6 324.5 317.9 313.3 309.8 309.6 309.8 311.2 310.4 306.9 304.2 301.1 294.6 286.9 280.3 274.8 270.6 268.2 268.7 275.3 282.6 295 313.4 319.9 304.6 302 296.6 290.4 282.9 278.7 277.4 273.9 270.6 266.9 262.1 257.9 254.6 252.5 249.9 248.7 250.7 249.3 248.3 248.3 248.4 249 249 248 248.5 249.4 251.7 257.3 260.2 265 270.5 275.2 280.6 288.2 301.4 314.6 325.5 339.5 345.6 352.8 358.9 365.2 371 375.5 379.5 383.5 382.2 381 380.9 384.4 383 380.8 378.1 375.6 372.4 372.2 371.2 370.9 373 373.1 371.8 370.4 369.8 367.9 365.2 362.8 361.6 360.1 357.4 354.1 350.8 348.5 345.9 341.5 338.1 336.8 333.3 329.1 325.2 320.8 317.5 314.5 311.4 308.6 306.3 302.8 301.4 299 296.1 293.5 292.1 290.5 288.1 283.1 278.7 275.2 270 269.5 269.6 267.7 261 254.3 245.9 235.7 227.8 233.3 231.9 229.1 224.6 219.9 215.2 210 205.8 202.9 198.4 195.4 196.6 188.5 178.4 173.3 168.4 163.1 163.8 164.9 169.9 174.7 180.4 193.7 205.4 214.2 219.4 222 222.8 224.2 223.2 222.3 221.6 220.5 219.4 219.1 217.6 216.3 215 214.5 211.7 208.4 204.9 201.4 197.7 194 189.9 185 180.2 175.9
491.8 486.7 482 478.2 478.2 477 471.3 464.3 451.1 453.5 446.1 437.7 421.8 410.4 394.2 383.5 374.4 361.1 356.8 350.9 344.9 341 334.8 329.5 324 320.8 318.5 318.1 318.3 316.4 314.9 313.2 310.9 309.5 303.2 294.5 285.5 277.3 270.7 267.4 268 275.9 296.4 311 317.9 308.7 301.4 300.4 296.1 289.1 284 279.3 277 273.9 268.8 265.1 261.6 259.6 258.4 255.7 252.1 248.6 245.1 246.6 245.2 244.3 244 245.1 245.1 245.9 248.7 250.9 255 260.5 265.6 270.2 275.3 280.3 289 300.2 314 327.4 338.7 345.9 351.3 354.3 359.1 361.7 369.9 372.2 375.3 375.3 374 373.4 373.6 377.5 376.1 374.4 370.4 367.3 364.9 362.8 362.5 361.3 364.5 364.4 365 363.4 361.4 359.6 358.5 356.7 353.5 352 350.2 346.4 343.5 341.3 339 336.4 331.5 330.2 326.6 323.6 320.4 316.2 311.9 309.4 306.6 304.7 303.2 299.8 298.2 296.3 293.5 291.7 289.1 287.7 285.2 281.8 278.6 273.3 266.8 257.7 258.4 258.8 255.9 250 243.8 236.6 231.6 227 220.5 220 216.8 211.3 207.8 203.3 198.8 196.9 195.2 189.9 190.5 184.4 175.6 170.1 165.4 163.6 165.6 171 175 178.3 186.2 198.1 210.5 218.5 223.4 225.8 227.1 226.5 225.2 224.4 223.6 223.2 222.8 221.2 221.1 220 216.3 214.5 212.8 210 205.9 202.2 197 192.3 188.9 184.1 179.7 175.3
494 489.9 484.3 479.5 475.7 473.6 470.6 462.2 466 458.8 450.3 438.5 417.6 399.4 385.9 378.2 369.5 369.4 366 361.1 355.5 349.4 343 338.1 332.6 331.4 329.8 327.8 328.4 326.8 325.8 323.4 322 320 314.1 305 294.3 283 271.8 266.1 264.2 273.9 293.4 299.5 301.9 295 292.4 298.1 296.8 289.7 284.3 280.1 278.1 274.5 269.9 267.4 264.8 263.7 261.6 258.1 254.5 250.9 246.6 242.8 241.7 241.7 241.6 241.8 244.1 246.3 250.9 253.7 260.2 264.8 271.9 277 282.9 292.3 303.2 314.7 326.6 334.9 341.9 345.7 350.3 353.2 357.4 360.5 365.7 370 369.8 368.9 367.9 366.6 369.6 371.2 370.1 368.7 363.6 357.6 354.4 349.9 349.6 343.1 346.2 354.3 356.3 354.9 353.4 351.7 350.6 347.6 345.3 344.8 343.9 340.5 338.2 334.8 332.2 329.6 326.1 323.1 320.6 319 316.2 312.4 308.1 304.9 302.1 300.5 298.9 296.6 295 293.6 291.3 288.9 286 284 282 278.7 276.8 273.6 267.2 259.4 252.6 246.7 246.5 244.5 239.4 236.3 232.4 231.1 230.3 220.2 221 211.3 197.1 191.9 187.8 186.9 188.4 183.5 181.6 180.4 172.2 167.7 164.1 163.9 169.1 176 177.8 181.3 190.8 204.3 214.6 222.9 228.6 230.8 230 228.9 227.5 226.4 225.8 224.9 223.2 220.5 220.8 218.4 215.5 213.4 211.5 209 204.9 200.8 196.4 192.1 187.1 181.9 177.3 174.2
495.7 492.1 487 479.9 477.8 476 474.1 472.3 470.3 463.3 452.1 432.8 410 397.4 388.4 384.5 382.6 379.5 375.2 370 362.6 357 351.6 346.5 342.6 342.3 340.9 339.6 340 337.6 337.3 336.1 334.8 332.7 326.6 315.6 305.5 289.8 272.8 266.9 263.6 264 273.8 279.1 281.4 278.4 279.1 288.8 294 289.9 283.3 278.7 277.3 274.3 271.3 268.5 265.6 263.5 261.6 259 255.8 251.7 247.8 243.9 240.3 239 239.3 242.5 246.2 250.2 254.6 259.4 267.3 274.3 281 286 294.3 306.4 317.6 326 332.7 337.7 339.7 341.8 345.3 347.4 349.9 351.2 355.9 361.1 360.6 361 361.9 361.1 364.9 366.5 365 362.4 356.3 348.8 343.2 339.6 337.2 326.8 327.4 346 349.4 348.3 346.4 344.7 342.6 339.9 337.1 335.5 334.9 333.2 329.3 328.2 326 323.9 321.2 318.2 315.6 314.8 312.4 309.2 305.8 302.3 298.8 296 294.2 292.5 291.4 290.9 288.6 286.1 283.3 280.6 278.4 275.5 273.5 268.7 265.3 260.2 253.7 246.3 237.2 238.2 235.1 232.5 229.5 226.6 225.2 223.7 230.4 212.8 211.3 206.7 190.3 183 180.5 180.2 178.7 178.9 172.9 164.3 164.5 168.9 174.1 177.8 179 185.1 194.6 206.3 217.3 225.9 230.7 232.7 231.9 229.7 227.1 226.3 225.4 224 220.8 218.8 218.1 216.3 215.6 211.8 208.8 203.8 202.3 199.5 195.8 192 186.7 179.3 178.5 179.9
495.8 492.2 489.2 484.8 481.3 478.5 477.8 476.1 473.4 468.9 458.9 439.6 410.4 418.5 412.6 408.9 403.7 398.3 390.6 385.7 379.3 373.4 366.3 362.6 358.2 356 356.1 354.5 354 355 354.4 353.1 349.6 344.9 337 325.8 313 296.4 280.1 269.9 264.3 262.2 261.6 263.9 267.5 268.3 273.7 278.5 286.2 285.6 280 276.6 275.5 274.2 271.8 269.2 266 262.4 258.7 256.2 255 251.6 247.5 242.6 240.5 237.7 239.5 244 248.2 254.2 261.7 269.5 277.2 284.5 291.4 299.8 309.6 319.2 328.6 332.2 336.8 339.6 337.5 332.5 336.1 339.6 340.4 340.5 343.5 347.3 350.1 353.1 355 357.4 360.4 361.8 360.4 357.8 353 344.1 332.4 328.9 323.4 312.6 322.3 340.4 341.5 340.6 339.4 337 334.6 331.8 328.8 326.9 325.4 323.3 322.1 321.6 321.1 319.5 317.3 312.9 309.9 307.9 305.8 304.9 302.2 299.2 294.3 291.2 290.3 289.5 289 287.9 286.2 283.7 281.7 278.5 274.1 272 268.4 264.2 261.9 257.8 251.5 245.6 239.6 230.4 227.6 227.8 226.5 224.1 221.7 217.6 214.1 208.7 205.9 202.4 195.4 183.4 179 178.4 182.8 186.6 175.3 166.3 173.4 178.1 174.5 178.5 182 187.6 195.7 207.7 217.8 224.9 231 231.6 230.1 227.6 225.7 225.1 224 221.5 218.9 217 215.4 214.7 212.8 211.4 207.3 203.5 200.9 197.8 194.3 189 183.1 181.6 183.8 185.3
496 494.2 493.2 490.9 487.5 484.1 481.2 480.1 478.1 473.7 464.8 452.3 443.6 441.3 439 432.8 424.4 419.5 410.4 404.4 398.8 394.8 387.7 383.7 380.6 376.8 373.5 370.2 370.6 368.8 367.7 364.2 359.9 353.4 344.8 330.8 316.8 300.1 283.2 271.2 265.7 261.7 259.4 258.9 260 263.8 268.3 272 276.5 278.9 276.6 273.6 273.5 273.5 271.4 267.7 263.2 258.9 255.3 251.6 251.4 250.8 247.2 242.2 237.5 234.9 240.7 245.1 252 261.8 271.3 279.5 287.6 295.6 304.7 313.9 324.3 331.9 339.1 340.6 336.1 328.6 321.9 320.8 323.7 327.2 330.3 331.7 332.9 337.3 342.9 345.1 348.1 352.5 355.8 355.6 354.7 352.6 346.5 339.5 330.6 320.6 306.7 301.7 321.1 333.7 334.7 332.8 331.6 329.4 326.3 323.3 320.7 318.7 318 315.4 314.4 314.9 315.1 313.8 311.9 307.7 304.1 303 301.7 299.2 296.1 294 290.2 288 287.4 287.9 287 285.7 283.6 281.4 279.2 275.9 271.4 266.8 263.1 260.3 256.2 253 248.8 243.4 237.2 230.2 224 221.1 220.8 219.4 217.4 215 209.5 203.7 195.2 188 184.7 181.1 179.2 183.6 186 175.4 168.2 168.3 186.1 183.3 180.2 178.7 185.6 192.4 205.3 214.8 220.7 226.4 231.6 231.6 229.7 227.7 226 225.1 221.4 218.8 218.4 216.9 215.8 212.8 212.3 208.9 205.5 202.1 199.6 196.1 191.1 187.3 185.5 190 191.2 192.4
495.5 496.6 498.1 496.1 493.7 490.7 487.6 483.6 480.5 476.4 466.7 465 461.7 463.1 457.7 449.5 439.1 431.6 424.6 419.8 414.1 409.9 405.8 400.4 395.6 391 386.1 383.5 380.2 376.2 375.1 371.5 367.3 360.5 350.1 333.2 315.6 297.4 283.1 274.5 267.5 264.1 259.8 256.6 256.8 258.2 261.4 265.2 269.3 271.8 270.4 269.7 268.5 269.3 266.1 262.1 257.7 253.8 251.1 246.5 245.6 246.5 246 242.9 237.7 234.3 240.7 250.6 263.7 271.9 279.6 288.8 298.3 308 317.1 329 339 347.3 349 338.9 327 317.1 310.6 309.8 311.5 314.9 317.7 320.7 323.3 329.8 335.9 338.8 341.7 349.6 351.1 349.2 347.3 344.9 339.2 333.1 326.9 318.2 306.1 295.4 309.9 323.6 326 325 322.7 320.8 319.2 316.2 314.5 311.7 310.1 308.7 306.6 309.1 309.1 307.4 305.2 303.2 299.8 297 295.2 293.1 289.4 287.7 285.5 284.9 284.2 286 284.8 282.7 280.5 278.3 274.9 271.2 267.2 263.4 259.1 256.1 253.2 247.5 243.3 240 236.5 229.8 222.7 214.6 214 214.5 213.4 212.2 204.2 195.4 188.1 184.6 181.3 179 183.3 186.4 173.4 168.3 168 175.8 183 186.1 185.2 181.1 190.3 201.2 212.3 219.4 222.2 227.3 231.6 231.1 230.3 229.4 227.8 226.5 223.1 219.8 218.5 217.4 215.8 211.7 211.3 207.5 204.2 202.1 199.4 196.6 193 189 193 195.7 194.1 194.2
497 501.3 501.6 500.3 497.7 494 490.7 485.9 482.1 479.7 478.3 477.3 477.2 477 470.8 459.7 450 441.5 435.9 430.5 425.6 420.3 415.2 410 403.9 398.3 394.1 390.9 387.9 384.1 379.7 375.6 370.6 362.8 350.6 335.7 315.6 301.8 286.4 277.7 270.2 263.9 260.3 256.5 254.3 253.6 255.1 259.7 264.3 266.4 266 265.2 263.9 262.1 258.7 255.3 252.2 249.5 246.1 242.8 241.6 240.7 240.1 238.7 235.8 235.1 241.2 255.2 275.9 282.5 288.1 298.9 309.5 320.6 332.7 344.1 347.3 348.6 340.5 326.4 316.4 308.6 302.1 300 302.1 305.1 308.4 311.6 315.2 324 328.4 330.6 335.4 341.8 343.3 341.2 339 334.9 328.9 324.4 321.3 313.6 307.1 291.9 297.9 314.4 316.7 316.7 314.2 314 312.3 309.7 307.9 305.1 302.2 300.7 300.6 302.5 304.4 303.1 299.9 296.2 292.5 289.9 288.3 286.2 284.8 282.7 282 281.6 281.2 282.1 280.8 279.6 277.5 274.2 270.8 267.9 264.2 260.2 256.2 253.4 250.6 244.2 239.1 233.6 228.5 223.9 219.7 209.7 205 203.5 206.4 204 196.2 188.3 183.7 180.8 178 173.6 176.2 171.8 168.6 168.2 168.8 179 177.9 179.6 186 183.6 192.7 204.2 216 222 223.9 227.8 231.1 232.4 232.5 230.9 229 226.5 225 223.6 220.5 216.4 214.4 211.8 209.4 206.9 205.5 202.4 198.9 194.7 191.5 193.2 197.9 198.5 198.3 200.1
497.1 501.3 502.1 500.3 498.8 495.6 493.5 490.8 487.9 488.6 487.8 485.1 486.1 485.9 480.3 467.8 457.5 452.3 446.7 440.9 434.4 428.4 422.1 415.8 409.2 403.7 398.8 394.7 392.5 388.4 383.3 377 368.7 360.8 348.4 335.2 317.5 303.6 289.1 279.7 272.8 267.3 262.5 258 255 252.1 252.2 256.2 258.3 261.4 261.9 261.8 259.6 254.7 253.8 250.1 247.9 245.1 243 240.5 239.1 238 235.3 234.7 234 233.1 238.6 248.4 264.1 289.3 300.3 310.9 321.5 340 346.8 345.1 340.8 334 321.9 310.9 304.5 298.5 293.6 291.8 294 297.1 300.2 306.7 310.6 316.7 320.7 321.3 327.5 331.2 334.8 333.8 332.1 327.2 321.2 315.7 313.3 309.5 301.6 290.9 292.2 308 309.2 308.7 307.2 306.3 304 302.2 300.7 298.7 295.1 293 291.5 291.7 299 295.5 292.4 289.4 286 283.5 282.4 281.7 279.8 277.4 276.9 277.3 275.3 277.1 275.7 274.3 272 269.5 267.2 264.8 261.1 257.5 253.3 250.3 248 243.8 239.5 234.8 226.8 219 213 205.7 198.5 194.6 189.8 188 185.6 181.8 179 174.4 171.8 170.4 168.9 169 169.5 168.9 176.2 177.7 176.8 177 182.5 185.5 191.8 203.3 215.1 220.8 224.5 229.5 233.4 233.6 231.5 230.3 227.9 225.3 224.3 223.9 220.8 215.2 212.3 210.5 207.6 204.1 201.8 200.7 197.9 193.7 195 197.5 199.1 200.8 203.8 206.2
491.2 493 495.3 495.3 496.1 496.1 494.3 494.8 494.8 496 497.9 495.2 495.7 492.1 485.9 474.4 465.3 458.9 452 444.6 437.2 430.5 424.1 417.8 410.9 405.1 400.1 395.7 392 387.1 381.2 372.8 363 352.9 339.5 328.7 315.6 304.4 290.5 281.7 275.3 269.7 264.2 260 256.3 255.4 252.2 250.4 251 255.6 257.3 258.2 257.7 255.6 252.3 246.8 244.8 243.1 241.5 240.1 239.2 237.2 235 234 232.1 231.1 233.6 242.7 256 280.8 309.2 321.1 323.4 328.3 328 323.9 321.8 313.9 304.9 295.5 292.1 288 284.5 284.9 287.3 290.8 294.9 300.6 305.6 310.7 312.3 314.4 320.1 324.2 326.3 326.3 324.8 319.1 312.7 306.8 303.4 301.6 294 285.3 293.1 302.6 302.3 300.8 299 297.2 296.2 294.2 291.6 289.9 287.9 286.1 283.2 284 290.6 288.6 286.4 283.5 279.6 277.2 276.2 276.3 273.9 271.3 271 272.4 269 268.5 269.2 268.9 267.6 265.3 262.4 260.2 257.2 254.2 250.3 247.5 245.5 241.7 236.3 231 224.8 218.2 210.2 200 199.3 199.8 201 194.3 186.2 182.1 177.6 169.1 169.5 170 169.6 170.3 171.6 172.6 174.9 177.6 177.9 178.9 181.5 184.5 188.1 199.8 212.2 219.8 224.7 229.5 233.1 231.9 229.7 227.4 225 224.2 222.3 221.9 218.9 213.2 210.4 207.7 204.3 201.2 198.9 199 198.2 197.9 199.1 201.9 203.8 205.6 208.8 211.3
475.2 479.5 483.1 486.7 491.8 496.2 498.9 499.2 499.1 500.8 504.2 503.8 501.2 497.2 489.9 480.1 469.5 462 454.1 446.6 439.3 432.4 425.9 418.6 411.7 405.9 400.8 393.5 385.1 378.9 372.3 363.3 352.9 342.5 332.1 321.6 310.6 300.9 291.1 282.2 276.2 270.8 266.2 262.3 260.6 258.3 255.2 251.3 248.9 249 250.8 251.5 252.8 251.8 249.7 247.8 246.4 243.5 242.1 241.2 240.2 239.4 235 232.8 230.4 229.1 229.1 237.5 248.7 275.3 297.7 290.5 293.1 299.5 298.4 296.4 295.7 292.6 285.7 281.5 279.4 277.4 277 279.1 280.3 283.2 287.3 291.5 296.2 301.5 305.2 307.6 312.8 317.1 317.6 318.5 318.3 313.8 306.8 298.6 296.1 293.2 283.9 281.8 289.2 294.8 294.4 294.1 292.2 290.2 289.5 288.2 285.6 284.1 282.8 280.7 278.1 276.7 282 282.1 280.8 277.6 273.2 270 269.2 269.2 268 265.5 264.4 265.5 263.3 261.5 263.2 263.4 261.8 259.8 257.5 254.5 252.2 249.4 246.5 244.2 241.4 237.9 232.6 227.3 221.6 216.5 204.4 201.2 200.7 198.9 196.4 192.7 185.5 168.9 169 169.7 170.3 170.1 170.2 169.5 171.1 173.3 175.1 178.4 178.7 179.5 181.5 185.2 190 199.5 211.3 220.4 225.3 230 232.1 229.7 227.5 225.5 223.1 221.8 219.3 218.9 215.8 211.5 209.1 206.7 205.6 202.9 201.9 201.9 201.1 201.4 203 205.8 209.8 212.7 214.1 215.5
475 462.2 465.1 474.1 486.5 493.9 499.9 500.1 502.4 505.6 510.2 508.5 504 498 490.6 480.5 470.4 462.1 454 445.9 439.1 431.9 424.8 417.9 410.4 403.2 396.3 389.2 379.6 369.9 361.9 351.6 343.2 334.1 325.4 315.9 306.8 299 291.6 284.6 276.7 272.6 265.7 264.6 264.1 261.1 256.5 252.2 250.1 248.9 245.2 243.4 245.4 243 242.5 241 241.8 240.8 239.8 237.3 236.8 236.9 232.6 231.1 229.7 229.3 228 227.9 238 252.2 266.2 266.1 269.8 274.5 274.6 276.8 275.8 273.8 271.9 268.3 267.7 268.7 269.7 272.3 272.6 276.1 280.1 284.8 288.5 292.4 297.7 301.3 306.9 309.6 310.2 311.1 310.8 307.4 302.6 292.6 290.9 286.5 279.3 278.4 286.5 289.6 290.5 289.7 287.7 285.6 284.5 283 281.1 279.6 277.8 275.8 273 269.6 270.8 274.9 275 271.7 267.9 262.8 261.5 264.5 263 261.3 259.4 257.7 257.3 254.5 256.9 257.2 255.5 253.7 252.2 250 246.6 243.3 240 237.9 235.4 231.9 228.5 223.5 218.6 208.4 198.9 203.2 200.7 196.3 193 183.1 172.4 171.2 170.9 171.3 172 172.2 171.2 170.3 172.4 175.4 178.5 178.9 178.2 179.6 184 188.7 191.2 200.9 212.9 221.1 226.6 228.9 229.9 227.9 225.5 223.2 221.5 217.8 216.7 215.2 213.2 212.1 207.7 208 207.6 206.6 205.7 205.2 205.1 205.2 205.6 210.2 214.8 217.2 219.8 220.2
488.7 465.9 448.9 464.3 480.3 491.6 497.8 500.7 504.5 507.3 509.1 505.5 500.2 495.9 488 477.8 468.5 459.9 451.5 443.6 436.7 428.9 420.5 413.3 404.7 397.6 390 381.2 371.2 361.8 351.5 342.5 334.9 326.2 319.3 310.1 302.7 295.9 290.6 284.9 280 273.8 271.1 269.4 266.2 263.2 258 253.5 250.9 250.1 248.5 246.5 243.7 240.9 239 238.7 239.3 236.7 234.5 234.1 234.1 233.5 232.1 232 231 231.4 229.9 227.2 227 234.3 241 247.7 251.9 253.7 256.7 259.7 258.1 256.1 257.5 257.7 256.6 255.5 262.4 267.8 265 269.2 272.9 277.8 281 283.8 289.3 293.9 298.4 302.1 302.8 303.4 303.9 301.7 295.1 287.4 281.4 278.4 271.2 276.8 282.4 283.9 286.6 286.9 285.8 283.7 280.8 278.5 277.1 276.2 274.7 271.8 268.4 265.5 263.9 264.3 264.5 263 260.9 256.5 255.3 258.9 257.5 255.4 252.6 251.4 251 248.4 250.1 251 250 249 247.4 244.7 240.7 237 233.5 230.5 227.9 226.5 222.6 218.6 212.4 199 206.1 204.5 200.6 191.3 182.6 173.5 172.5 171.9 171.1 172.2 173.4 173.6 172.9 172.2 174.4 177.3 179.7 179.4 178.4 181.7 187.1 194.8 194.2 202.1 215.8 222.4 228 228.4 227.7 227 224.1 222 219.6 217.4 216.8 216.2 216.1 214.6 213.5 212.6 212.7 211 210.6 210.4 210.5 210 208.3 212.7 219.4 221 222.1 222.3
483.5 457.3 439.8 454.8 473.3 490.1 496.1 502 506.1 506.1 503 500.7 495.5 490 482.7 473.1 464.5 455.4 447.4 440 432.4 423.5 415.1 406.1 397.3 390.3 380.9 371.2 362 352.9 343.8 336.9 329.3 320.8 313 305.9 298 291.4 288 282.2 278.6 277.2 273.9 272.2 269.1 264 259.5 257.3 253.8 251 249.1 247.2 243.6 240.7 240.9 241.7 242.1 240.6 241 238.2 238.7 236.8 235.9 236.3 235.9 234 231.4 228.8 226.2 226.1 226.4 231.7 235.4 239 241.4 241.8 242.6 243.9 245.7 245.6 246.3 247 252.7 262.6 260.1 259.9 265.9 270.3 271.3 274.3 279.9 284.1 288 291.6 293.9 294.2 294.7 293.2 289.6 283.6 276 266.9 261.7 275.1 277.9 278.9 281.7 283.8 282.2 279.7 277.2 275 273.6 272.8 271.9 269.9 267.2 264.3 258.3 256.3 254.6 252.4 251.4 250.1 248.5 250 251.3 249.4 247 245.4 244.7 242.8 242.8 243.4 243.7 244 241.6 238.1 234.9 230.6 228.6 225.9 224.4 222.5 219.2 215.6 208.8 191.4 197.3 197.9 193.3 182.3 173.2 172.8 172.6 172.3 174.6 175.7 173.8 174.7 174.2 173.9 174.6 178.5 179.8 179.5 180.2 182.5 189.6 198.8 197.5 205.5 218.4 225.4 227.7 226.4 226.4 225.9 224.2 223.2 221.3 219.8 220.5 220.5 220.6 220 219.6 217.9 217.5 216.3 216.3 217.8 216.3 216.3 212.4 214.6 220.9 220.5 221.9 222.9
472.6 444.8 433 446.8 467.1 488.8 496.7 503.1 506.1 500.7 496.7 493.8 490.8 485.2 476.6 468.1 460 450.6 442.3 434.7 426.2 417.1 407.1 398.2 390.1 380.4 372.6 363.8 355 346.9 340.1 333.6 325.6 319.7 314.6 308.9 301.9 296.1 291.3 287.2 282.2 279.9 275.4 273.1 269.3 266.3 263.3 258.5 254.4 251.6 247.1 245.1 243.3 247.3 248.4 246.5 247.4 246.3 245.9 245 244.5 242 238.9 238.6 236.9 235.7 233.8 231.7 229.6 227.5 224.9 223.9 224 229.6 232.6 234.1 234.4 235.8 237 237.5 240.5 241.2 243.5 248.8 252.9 249.6 260.1 263.4 260.6 261.3 268.4 273.3 277.6 281 284.2 285.3 284.9 285.1 282 277.5 270.4 256.4 249.9 267.6 270.7 271.7 276 278.5 278.2 276.1 272.5 270.6 269.4 269.4 269.1 267.6 266.3 264.5 259.8 255.9 251.9 249.8 244.7 245.8 243.6 244.2 245.3 243.6 242.3 240.4 238.5 237.3 237.9 237.4 236.2 236.1 233.5 231.1 228.5 225.4 223.7 222 220.6 219.7 217.3 214.9 210.6 197.4 186.5 187.2 182.3 173.6 173 173 173.4 179.8 178.2 179.2 179.1 177.4 174.5 175 174.6 178.1 179.3 178.7 180.5 185 190.8 202.4 204.7 205.7 219.1 224 226.5 225.6 225 227.3 228.5 226.3 225.6 225.6 225.9 225.5 224.3 225.7 225.7 223.7 224.3 223 221.1 222 220.6 219.6 215.1 219.7 220.7 220.3 220.7 221.8
461.3 433.8 427.5 438.6 459.1 483.6 495.9 500.8 501.2 494.1 489.7 487 484 478.8 470.3 461.9 453.8 445.3 437.2 428 418.7 408.5 395.1 385.4 377.5 371.2 365.4 359.3 352.3 347.1 341.5 337.1 331.5 325.1 317.3 311 305.6 298.4 292.9 288.5 284.1 279.6 276.6 273.7 269.5 265.2 261.7 258.3 254.7 249.4 244.8 248.2 253.3 257.5 257.1 253.7 253.8 253.2 253.1 256.1 251.9 247.1 242.2 239.2 237.1 235.9 234.5 233.1 231.5 230.2 228.4 224.7 223.4 222.5 224.3 225.7 226.4 230.6 231.5 231.3 236.2 235.5 236.2 237.6 241.1 239.9 252.8 254.8 253.4 251.9 256.8 260.5 263.7 268.3 271.1 274.9 274.9 273.9 273.7 269.8 263.6 248.6 250.6 257.8 259.8 263.5 268 271.6 272.1 270.3 268.2 265.5 266.4 265.6 264.8 263.9 262.5 261.2 259.9 258 255.7 252.8 248 242.8 233.4 235.7 238.1 236.8 237.1 235.8 234 232.8 233.9 233.3 232.2 231.1 227.8 226.7 225 222.6 220.8 217.6 216.3 218.2 214.4 209.9 204.1 193.3 184.7 178.9 173.8 173.5 173 175 181.4 181.2 180.3 180.6 179.7 178.7 178.5 173.9 175.4 178 178.7 178.8 182.7 188.4 195.8 205.5 210.1 203.9 212.8 218.1 222.8 223.6 226 230 230.4 230 230.9 230.8 231 231 230.9 230.6 227.7 227.7 227.5 227.2 226.1 225 223.6 220.6 215.7 219.9 220.6 221.1 221.2 221.2
452 427.4 419.4 431.4 450.6 473.2 491.2 495.4 492.6 487.9 482.9 480.2 475.9 470.6 463.7 456.9 449.3 441.3 432.5 423.1 412.1 396.4 382.1 371.2 365.6 363.3 359.7 355.3 351.9 346.9 342.8 339.5 334.8 326.2 319.6 313.4 306.6 301.2 295.3 290.8 285.1 280.3 277 272 267.6 263.2 259.5 256.9 252.6 247.5 249.9 261.1 270.2 276 280.4 281.6 281.3 280.9 278.9 267.1 256.6 248.6 242.9 239.4 237.2 235.4 233.7 232.5 230.2 229.5 227.9 226.6 223.9 222.9 222.8 221.3 219.8 222.9 221 221.6 227.8 229.8 228.6 229.9 230.6 232.4 239.6 244.1 244.7 241.9 248.2 248.7 250.3 252.9 256.6 257.2 257.4 261.3 261.4 259.9 253.7 241.5 243.5 248.5 250.1 255.7 260.7 263.3 264.8 263.7 262 261.2 261.5 261 260.5 259.8 257.7 257.7 257.4 256.1 255.1 253.2 250.6 247 241 232.3 229.3 230.8 231.8 231.4 229.4 227.9 229.4 230 228.8 226.7 224.7 223.1 221.6 219.5 216.4 213.2 212.3 215.2 213.5 211.1 200.3 186.2 176.7 174.6 173.9 173.6 176.9 181.9 181.6 181.2 180.4 179.8 180 179.1 177.1 174.6 181.2 180.5 180.5 181 186.2 193.8 199.5 208 213.3 212.8 210.4 211.4 217 220.9 226.4 230.6 231 232.7 234.2 234.9 235.1 235.1 235.6 234.8 231.3 230.3 228.5 228.7 226.9 225 222.2 219.5 221 221.8 221.5 221.7 220.8 219.3
445.4 423.2 410.1 422.7 439.2 460 477.8 486.4 486 481.1 475.2 472.3 470 464.3 459.7 452.5 444.5 436.1 427.8 417.8 403 390.3 371.2 361.5 359.1 356.9 354.5 350.5 347 343.6 338.7 335.3 330.7 325.6 319.7 315.4 308.3 302.1 297.4 291.3 285.1 280.8 275.6 271.6 266.8 262.2 256.7 254 248 258.6 270.5 283 292.3 301.1 306.3 308.4 305.8 299.1 287.3 272.3 257.3 249.4 242.6 239.3 237.1 236 234.6 233.8 231.8 230.8 229.4 228.2 225.2 223.9 222.8 220.2 220.8 219.9 221.4 222.4 216.8 222.7 227.6 225.8 224.5 223.5 227.7 232.1 234.4 231.6 236.3 236 238.2 237 239.4 238.5 241.1 243 243.9 243.6 239.9 230.8 231.9 238 242.2 246.6 249.4 253.1 255.5 255.9 255.1 256.6 255.8 256.2 256.5 256.1 254.4 253.3 253.7 253.1 252.8 251 247.7 244.1 239.8 236 228 224.5 228 227.2 225.1 224.6 224.4 225.4 224.7 222.1 220.4 218.7 216.5 214.1 212.5 210.7 209.8 211.7 209.5 198.6 188.4 176.9 174.6 174.2 173.9 178.2 180.2 181.1 181.3 181 180.3 179.1 179.2 179.3 177 174.7 180.9 181.3 183.3 184.7 189.4 198.2 205.7 212.6 216.2 216.5 215.3 213.2 214.6 217.9 224.5 229.4 232.7 235.7 236.4 237 237.4 237.7 237.2 236.2 234 232.2 230.4 228.8 227.6 225.8 224.2 223.2 223.9 223.8 222.9 222.4 221.9 221.2
446.2 423.6 401.7 413 429 446.8 465 478.5 478 471.9 467.8 464.6 463.5 461.8 457.7 448.6 440.1 431.6 421.5 401.6 386.9 373.9 364 358.8 354.2 350.2 348.9 345.2 338.7 335.4 328.5 325.9 322.2 318.6 315.8 311.5 306.2 301.7 297 291 285.9 281.4 275.5 269.9 266.6 260.6 253.9 249.1 263.5 276.7 290.8 302.2 312.2 321 326.7 321.8 314.4 302.1 292.6 277.5 262.7 250.4 243.2 239.3 237.9 236.8 236.1 234.8 232.9 229.6 228.7 227.5 226.3 225.9 224.9 223.4 225.6 225.8 229.6 227.8 221.2 217.3 222.6 222.5 218.5 215.7 216.8 220.4 223.3 223.3 224.9 225.1 225.7 226.3 226.8 227.1 227.8 228.7 228.9 227.6 226.5 221.9 223.9 228.7 233.2 236.1 237.8 240.8 244 244.9 246.8 249.9 249.2 249.5 250.9 252.5 249.7 250.8 250.2 250 249.6 246.3 243.3 240.5 237.9 235.9 231.9 219.5 222.4 224.8 220.6 221 221.6 219.3 218 217.7 217.3 213.8 211.7 209.2 208.5 208 206.8 201.4 196 189.8 179.3 175.4 173.9 173.9 179.1 181.2 181.2 180.6 180.9 180.9 180.7 180.9 180.6 178.9 176.4 177.9 180.8 184.7 186.5 188.2 191.9 200.4 211.1 213.2 215.7 216.1 214.3 215 215.4 216.8 223.1 228.8 236.2 239.2 239.7 240.5 240.2 240.7 239.9 237.7 235.4 233 231.2 229.8 228 226.2 226.7 226.2 226.2 226 224.7 223.4 223.1 222.1
446 423.1 404.5 403.1 419.4 432.6 448.9 464.5 467.1 462.8 461.6 461.1 463.8 463.2 457.9 445.6 437.7 431.9 420.8 403.9 387.5 367.9 361.9 358.4 355 350.3 347.7 342.7 336.1 334.6 324.6 321.8 314.3 310.2 307.4 304.4 301.3 298.4 295.9 291.3 286.4 281.5 274.6 267.8 261.5 256.8 254.1 273.4 282.4 295.9 308.6 318.5 327 330.6 321.3 311.4 300 287.7 278.5 272.4 262.5 249.9 244.8 240.5 240.1 237.9 234.2 234.3 232.8 230.6 230.3 229.9 230.8 228.3 227.5 226.9 228.9 230.5 231.5 229.5 224.5 215.4 213.9 215.3 214.4 212.5 214.8 213.5 211.3 211.7 212.7 216 213.2 214.9 215.7 216.1 216.5 217.2 216.7 216.3 216.1 211.8 217.5 222.8 225.2 227.2 227.4 228.8 232 233.1 236.4 237.3 237.4 238.7 240.8 243.1 238.9 246.5 244.9 240.8 239.8 239 236.9 233.2 232 230 227.9 221.4 215.2 220.3 216.2 217.4 218.7 216.6 214.3 213.2 212.1 210.6 209.6 209.7 204.9 202.9 201.8 196.5 190.3 182.3 177.9 176 175.3 179.9 183.2 183.1 182.4 181.6 181.3 181.2 180.9 179.9 179.2 178.5 177.7 178.9 181.3 185.7 187.8 190.5 197.9 204.6 208.9 212.5 214.2 214.6 214.4 213.4 215.5 217 223.5 232 238.5 242.6 241.8 241.1 241.6 243 241 238.2 235.2 231.8 230.7 229.3 228.3 228.7 229.1 229.1 228.8 227.9 226.7 225.6 224.5 223
452.6 428.2 408.6 391.5 403.1 416.4 430.3 443.6 452.8 455.4 455.5 461.5 466.6 464.1 452.7 441.6 435.1 426 414.6 402.3 388 373 369 367.3 363.1 358.8 354.3 348.7 342.9 336.8 330.7 322.7 317.2 313.8 309.4 301 294.4 292 292.2 290.7 285.3 280.8 274.6 264.9 263.8 256.8 275.9 287.6 299.8 309.9 315.2 317.8 314.8 308.5 307 299.7 288.3 277.2 270.1 263.3 256.8 248.7 242 238.9 240 239.1 237.8 236.3 235.5 234.1 233.8 233.6 231.7 232.3 231.2 228.7 229.8 231.1 233.7 232.8 228 225.8 221.7 220.5 221.7 224.3 223.2 221.4 219.3 216.8 211.7 208.4 208 207.2 207 205.1 205.6 205.1 205 206.2 207.2 205.9 211.4 215.9 217.1 217.5 217.2 217.8 219 220.9 223 224.4 224.8 223.1 227.7 228.4 227 232.6 231.8 228.9 227.3 227.9 225.9 224.3 223.2 222 220.8 217.6 206 214 210.8 212.8 214.4 212.9 212.5 209.4 208.4 206.9 206.9 205.4 201.7 196.9 193.4 190.1 186.8 179.9 176.7 176.1 178.4 181.3 182.8 183.7 182.9 182.3 182.2 181.6 180.7 179.9 179 178.8 178.9 179 184.1 185.6 188.5 191.2 198.7 202.9 207 210.7 212.3 212.8 211.8 211.8 216.1 219.4 228.1 236.7 241.6 242.8 241.5 243 242.9 241.1 238.6 235.7 234.3 230.9 230.9 230.4 230.1 231.7 232.3 233.1 231.9 230.7 229.7 228.4 225.7 223.4
465.1 434.9 415.1 396.7 390.1 398.2 410.2 422.6 432.7 437.1 456.4 465.3 466.3 452.9 440.1 432.4 425.2 417.4 408.2 396.6 385.2 383.8 381.3 377.5 374.8 369.5 363.1 355.1 348.3 340.4 332.2 327.1 320.9 315.3 312 305.9 297.9 292.5 288.9 289.6 282 271.8 273.1 274.9 267.9 258.6 273.2 293.1 306.6 310.4 310.1 304.8 298.5 294.2 292.2 287.6 277.2 269.5 265.7 261.1 250.5 244.2 246.4 245.5 243.4 242.9 242.8 241.8 241 240.1 239.3 237.8 236.8 236.6 234.7 232.3 231.9 233 233.5 232.5 231.3 231.3 228.5 228 228.3 229.2 228.2 227 225.9 224.8 221.5 221.2 219.6 218.3 217.4 214.7 212.5 208.6 206.6 203.2 203.2 202.4 202.5 204.2 204.7 203.5 206.4 208.4 208.3 210.2 211.8 212.8 214 211.3 214 215 214 214.9 215.7 214.2 213.3 211.9 213.2 213.1 213.6 214.8 213.9 210.9 202.9 206.8 204.6 209.9 210 208.3 206.6 205.5 204.4 201.7 201.2 201.1 196.8 194.5 190.6 186.2 182.6 178.1 176.8 176.1 182.8 184.4 186.2 186.3 184.1 183.5 183.7 182 180.4 180.3 180.1 179 179 179.6 181.1 184.6 188.4 190.5 194.5 198.2 202.5 205.6 208.2 210.7 210.7 212 215.5 220.8 229.7 238.5 242.9 244.3 245.2 245.2 242.5 239.7 236.4 233.5 231.6 230.5 230.5 230.8 232.2 234.2 235.4 235.8 236.1 233 231.4 228.7 225.7 221.9
474.8 449.1 424.8 405.5 387.6 387.6 393.1 400.5 410.1 424.8 442.6 459 447.4 438.4 430 423.9 418.9 411.2 405 396.6 393.4 389.9 386.6 383.4 378.1 372.8 367.1 360.6 354.4 348.1 342.9 337.1 331.2 324.5 320.5 315.1 305 297.3 291.3 282.8 282.1 284 283.9 280.6 270.9 260.5 274.2 295.7 303.8 302.5 299.3 294 289.1 284.2 279.3 273.7 268.7 265.4 262 253.3 250.8 254.1 255.1 253.3 249.8 247.9 247.8 247.5 247.4 246.8 245.6 244.4 243.6 240.5 237.3 235.6 235.8 235.5 235.2 234.4 233.8 233.9 233.7 235.1 235.5 236.2 234.4 232.7 232.6 231.8 230.3 228.9 226.2 225.6 225.9 222.8 220.3 217.5 213 208.7 208.9 207.1 204.5 200.7 200.3 200.8 199.9 198.3 198.1 199 201.1 201.6 202.1 200 202.9 201.8 202.5 203 199.6 197.9 195.3 194.2 195.3 196.9 199 201.2 203 202.9 197.1 201.9 198.2 206.2 206.5 204.3 201.2 200.5 199.3 197.3 195.6 194.9 192.8 191.2 188.9 185.6 180.5 178 177.2 176.4 185.9 188.4 187.3 186.4 185.1 185.7 184.1 182 180.9 181 180.9 180.5 181.6 184.4 184.3 185.7 187.7 188.6 190.2 193.2 196.1 197 202.5 211 209.4 211.5 214.6 219.5 226.4 233.4 240.5 244.6 247.2 244.7 241.4 237.9 234.5 232.5 231.5 230.7 230.2 231.3 233.1 233.5 235.7 235.3 235.2 232.9 230.6 227.9 224.4 220.5
485.6 464.3 438.6 415.8 396.8 379.2 382.4 387.9 394.2 406.2 418.6 427.2 429.1 426.4 424.1 420.6 415.3 409.9 405.1 400.8 397.6 393 388 383.3 378.6 374.3 368.8 363.7 359.9 353.2 350.5 346.1 341.7 335.1 330.6 322.1 312.7 306.1 301.9 298.2 296.1 293.2 289.3 284.5 271.5 262 280.1 295.4 297.2 295.5 292.8 289.5 285.5 280.9 276.3 271.2 266.4 263.1 254.3 254.6 259 261.3 260 257.3 256.8 253.1 254.7 254 251.9 251 250.8 249.5 251.2 244.5 240.1 240.1 239.6 240.2 240.5 239.5 239 239 240.3 242.2 243.8 244.1 243.6 243.2 243.1 242.2 242 240 236.5 234.3 232 229.2 226.9 225.4 222.1 217 214.7 213.2 212.6 212.1 202.9 205.3 205.4 204 201.9 198.9 198 195.2 193.9 193 194 193.5 192.9 193.3 192.8 188.4 188.2 188.8 188.4 188.1 188.4 187.9 188.5 188.3 188.6 191.2 191.1 200.2 202.2 199.4 195.1 193.1 192.1 189.7 186.5 183.8 182.1 179.5 178.8 178.9 178.6 178 177.3 176.4 182.8 188.2 186.3 184.9 184.4 183.4 183.8 182.5 182.1 182.3 181.7 182.8 185.1 185.7 184.2 186 187.9 190.7 191 192.3 192.6 194.6 202.9 208.4 207.2 208.6 212.8 217.8 223.1 230 237.1 242.2 244.8 244.3 241.7 238.5 236 234 232.5 231.5 230.7 232.1 233.4 233.2 234.3 233.6 233.3 231.6 228.5 226.6 222.7 218.9
481.9 474 451.2 426.3 404.3 385 375.3 378.8 385.2 393.3 405.2 417.1 422.4 422 420.7 420.9 414.6 408.2 402.2 399.3 396.2 391 385.7 382 378.1 375.3 371 366.9 363.1 358.7 353.1 348.3 344.2 339.3 333.9 327.3 319.3 313.9 308.7 304.3 300.8 297.9 292.9 284.1 269.2 268.9 284.2 291.9 295 294.4 291.8 290.4 287.4 282.4 277.3 272.3 267 262.4 254.6 259.9 263.4 264.9 264.4 263.3 261.8 260.9 261.2 260.8 260.6 259.2 258.3 259 259.4 247.2 245.5 245 246.3 251.1 252.4 250.3 249.8 247.9 247.8 251.9 256.8 263.7 264.9 265.7 265.8 264.7 261.5 254.3 249.1 243.8 238.1 236 233.5 232.9 230.8 226.1 220.7 218.4 217.9 216 203.9 212.6 209.7 207.8 207.4 205.6 204.9 203.9 202.3 201.7 201.9 203.1 204 202.9 203.1 204 205.1 203.8 203 200.9 200.4 196 192.2 188.7 188.2 187.3 186.8 184.1 184.4 183.5 183.7 184.2 184 182.2 182.4 183.7 184.7 186.3 185.6 185.2 183 178.1 177.4 176.4 182.7 188.1 185 182.7 182.3 182.1 182 181.6 182.4 183.5 183.5 184.3 186.9 188 185.7 184.8 187.4 189.1 189.4 190.4 191.2 194.7 201.3 202.5 202.8 204.8 209.7 215.8 221 226.3 233.2 238.8 241.3 243.5 243.6 241.2 237.5 234.4 233 232 231.5 232.8 233.1 233.6 232.2 229.6 229.6 229.9 225.4 223.6 220.5 217.2
474.1 467.9 453.1 434.9 414.2 397.7 383.9 373.4 376.3 388.4 399.7 415.2 422.2 418.8 416.6 411.8 406.3 402.6 398.5 395 391.5 387.2 383.2 380.7 378.5 376.2 373.3 370.1 366.2 361.3 355.1 349.3 343 337.6 334.2 329.2 322.9 317.4 312.6 308.8 304.6 298.9 293.1 284.5 271.9 270 284.2 292.6 296.2 298 297.1 295.6 290.3 285 279.8 274 272.2 273 261 259.4 270.2 269.4 270.2 269.3 267.9 267.9 268.5 268.6 271 269.6 267 267.7 264.8 252.5 254 258.4 261.9 263.5 261.7 258.5 260.5 259.9 256.3 265.8 280.1 286.6 288.7 291.4 288.5 285.8 280.9 271 262.3 253.4 246.8 243.4 240.2 238.7 235.9 233 229 225 222.6 216.9 214.9 220.6 221.3 218.8 216.1 215.1 215 216 216.7 215.9 218.3 222 222.3 222 221.3 220.6 220 220.6 219.7 217.5 213.2 210.2 206.8 202.8 199.9 198.4 196.6 195 194.6 194.5 193.4 192.7 193.1 192.3 192.8 193.2 193.4 189.9 186.9 184.5 182.9 178 177.5 177.5 183.6 187.3 183.3 181.7 181.5 181.2 180.9 181.3 182.6 182.9 184 184.5 186.4 190.6 189.6 186.7 186 186.8 187.5 188.1 188.8 188.9 193.5 198.8 199.7 203.1 209.5 216.8 219.1 224.4 230.2 235.5 237.9 239.8 241.5 242 240.5 237.1 234.4 233.6 233 232.6 232.1 231.2 229.4 228.4 227.3 225.2 222.8 221.2 219.3 217.7
462.8 455.6 445.6 429.2 412.9 398.1 387.6 380 366.7 386.5 406.7 422.4 428.5 419.5 412.5 405.5 399.4 395.6 392 388.4 384.8 382.4 379.9 377.6 376.4 376.1 375.2 372.1 367.4 361.4 356.4 349.1 341.8 335.2 332 327.6 322.9 316.3 311.3 307.7 304.1 299.9 292.2 281.4 268.2 280.5 290 296 299.7 302.8 303.2 300.7 295.6 287.7 281 278.7 279.4 279.4 260 272.2 282 279.7 276.3 277.9 279.2 279.5 278.9 279.4 280.3 278.7 275.8 274.3 268.8 263.1 266 267.5 270.2 270.7 267.8 263.6 266.8 271.1 265.6 277.5 296.5 305 305.4 304.3 302.8 299 294.6 286.7 276.7 266.5 256 250.3 247.1 246.2 241 238 233.6 228.9 224.4 219.5 226.8 229.4 231.8 234.9 236.3 236.9 242.3 244.7 245.5 246.1 243.9 240 236.3 235.9 234.2 235.4 235.7 234.3 233.8 233.3 231.5 229.4 225.3 221.3 216.4 213.6 209 207.2 207.3 207 206 205 203.2 200.9 199.5 196.5 192.5 188.1 185 183.6 181.4 178.8 176.9 180.8 183.4 186 183.5 181.3 181.3 181.4 182 182.5 182.6 182.3 182.2 183 185 189 191.9 188.9 185.6 186.1 187.9 190 189.9 193.3 202 205.7 204.2 204.5 210.3 214.8 220 224 225.7 230.8 234.6 236.6 238.1 240.5 240.5 239.4 236.9 235 234.4 233.2 231.6 230.9 230.8 231.2 229.4 225.7 222.5 220.3 219.1 219.5
450.5 441.3 431.3 418.2 405.4 396 386.6 378 364.4 384.4 409.9 429.9 425.2 416.9 410.1 403 396.5 390 384.2 380.9 378.3 376.3 374.5 373.7 372.8 372.6 371.3 368.4 364.6 359.4 353.4 347.5 340.9 335.1 329.3 325.4 320.3 313.9 308.6 304.8 301.6 297.6 286.6 269.2 273.6 288.4 298 303.6 305.4 306.4 308 303.6 298.4 289.1 283.4 282.3 282.6 279.6 265.7 277 285.7 287.1 283.5 284.6 281.2 287.7 287.9 287.2 286.6 283.5 280.4 280.8 270 274.6 276.7 275.6 277.9 276.2 273 270.8 273.2 279.6 274.2 285.6 304.9 313 316.1 314.6 312.4 309.4 302.9 296.5 290.2 281.3 272 264.2 254.2 253.6 247.3 243 238.9 232 225.1 227.8 238.4 241.7 248.2 255.3 256.8 258.4 259.3 260.4 258.5 256.3 252.7 250.8 250.2 248 246.6 247.2 247.2 245 244.9 242.1 242.4 239.3 236 231.5 227.8 224.4 221.4 219.3 216.4 214.5 212.5 209.9 205.8 202.7 198.6 195.2 190.2 186.5 185.8 183.1 180 177.5 179.2 184 186.3 187.6 187.6 186.9 184.7 182.5 183.1 182.9 182.6 182.4 182.5 183 184.6 188.7 189.8 189.9 187.8 186.6 189.3 192.6 195.8 199.6 205 209.5 209.5 206.9 207.5 212.6 217.6 220.8 223 226.6 231 234 236.8 237.9 240 241.1 241.3 238.5 235.7 234.8 233.6 233 231.9 230.9 228.8 226 222.6 221.2 221 225.6
437.8 426.7 415.2 404.3 394.1 387.5 382.5 370 362.5 386.6 417.6 422.5 417.2 412.2 407 401.2 395.6 388.3 380.4 371.3 369.8 368.9 369.4 368.8 367.4 366 364.4 361.5 357.9 353.1 347.4 341.9 336.4 330.4 325.1 323.7 319.6 313.6 306.8 302.7 298.8 293.7 277.3 271.4 287.8 298.2 305.7 310.9 311.6 311.3 310.9 305.9 297 289.7 286.9 285.8 285.7 284.2 271.5 275.3 286.8 290.3 290 289.8 289.9 292.9 293.5 295.1 293 290.1 285 282.8 281.1 284.6 285.3 283.9 285.2 284.6 281 279.2 280.7 284.4 284.5 294.2 309 317.3 321.4 316.8 311.6 306.5 300.4 294.6 289.2 283.7 278.7 274.2 269 262.1 255.1 247.3 241.3 233.8 224.5 240.6 251.7 253 258.1 265.1 267 266.5 265.8 263.9 261 258.9 257.1 255.3 253.6 251.7 250.8 250.5 249.5 247.6 246.8 246.1 244.1 240.3 237.4 233.8 231.2 226.7 225.2 220.9 217.8 214.2 211.2 207 203.5 200.4 196.5 192.4 188.1 187 183.6 179.7 178.2 179.8 183.5 186.9 189.1 188.1 188.1 188.1 187.5 185.3 183.3 182.6 182.5 184.7 184 183.5 185.5 185.4 187 189.5 191 189.6 189.6 194.9 198.8 202.7 208.7 212.8 213.7 209.1 209.3 209.8 213.2 217.4 220.5 224.9 228.4 232.1 235.4 236.5 237.9 238.2 239.3 240.1 238.4 236.8 236.2 234.3 231.8 229.4 226.9 224.8 223.3 223.8 226.5 231.4
424.6 413.5 401.2 392.3 385.6 380.8 372.3 361.1 369.5 393.7 412.4 410.9 405.7 399.7 397.8 394.8 392 384 374.2 364 362.7 363.1 364 363.4 361.1 358.8 356.5 353.9 350.6 346.9 342.7 336.6 331.6 325.6 320.9 320.7 317.8 313.3 308.3 301.9 295.2 281 271 281.2 297 306.5 313.2 317 316.6 312.9 309.1 305.2 298.8 291.3 290 289.3 289.2 286 274.7 283.5 292.9 295 295.5 295.9 295.9 298.6 299.6 300.7 300.4 297.7 291.3 285.6 288.6 291.7 292.3 290.7 290.9 289.2 287.8 287.9 288.6 290.4 291.4 299.2 311.5 321.1 320.8 314 308.5 301.6 296 291.5 287.4 282.1 275.8 272.1 265.7 260.2 254.9 250.1 243.8 233.8 228.9 243.8 255.3 259.1 260.9 263.1 265.9 267.4 265.2 263.2 261.4 259.7 258 255.9 254.2 252.7 251 250.1 249.5 248.9 248.3 245.7 243 240 237 233.6 230.3 224.3 223.6 218.3 214.9 211 207.5 203.8 200.4 197.4 194.1 189.6 186.5 184.8 180.7 178.9 178.9 187.2 190.9 189.6 188 185.6 184.6 186.4 185.8 182.9 182.7 183.4 185.1 185.2 183.9 183.5 187.1 186.4 186 188.3 192.7 192 188.9 194.2 200.2 203 210.3 213.2 213.9 210.8 209.2 209.7 209.9 215.6 221.6 225.6 229.3 232.2 234.3 235.6 236.5 237.6 238.1 238.6 239.8 238.7 237.5 235.7 234.1 229.7 227.1 225.6 226.2 228.5 234.2 242.8
412 401.4 390.8 383.4 377 371.7 365.9 352.5 369.8 392.5 398.9 396.6 391.3 385.9 382.3 381.8 380.4 373.3 364.6 357.1 353.6 356.3 357 355.6 352.9 350.4 348.5 346.3 343.5 340.9 336.4 334.1 328.8 323.7 317.7 317.1 315.4 311.4 307.5 297.9 282.5 274 281 290.9 303.8 314.6 322 325 323.6 318.8 313.8 308 301.6 296.4 294.5 293.8 291.5 285.9 278.5 290.4 298.2 300.8 301.5 301 302.2 303.8 304.7 305.7 307.1 302.8 297.8 291.7 294.9 298.6 297.8 296.2 295 294.3 296 294.9 297.1 299.3 301.7 304.2 312.5 321.2 317.1 311.1 305.3 298.2 291.9 288.4 283.6 279.2 273.4 268.1 262 256.6 252.1 248.8 243 232.7 237.3 249.4 258.9 261.2 262 263.1 264.1 264.9 262.9 261.3 259.3 256.9 256 254.2 252.5 251.2 249.6 248.8 248.4 247.5 246 242.6 239.4 236.5 234.9 232.2 227.7 221.8 216.8 214.1 211.4 207.8 204.3 200.6 198.4 194.9 190.6 187.5 184.4 180.7 179.9 179.2 186.6 191.4 190.3 188.8 187.2 183.1 182.1 181.7 182.7 185.4 187 188 187.4 188 189.4 191.3 190.5 187.4 188.4 190 192.2 193 190.2 192.8 197 201.7 206.3 208.7 208.5 209.3 210 210.3 215.4 219.2 222.5 227.6 231.1 232 234 233.9 235.4 237.5 238.8 239.5 240.9 240.4 239 236.8 235.5 232 229.8 229.6 231.7 237.5 246.5 244.2
397.2 388.3 381.2 372.2 367.3 362.2 357 348.3 365.8 373.9 378.5 376.6 373.6 369 368.3 366.2 364.8 361.6 355.4 349.8 346 346.6 346.4 345.9 342.6 340.7 340.2 338.5 336.4 334.9 331.6 329.7 327 321 315.3 311.4 310.7 307.6 298.6 285.6 274 285.4 294.1 299.9 311.3 322.9 330.3 330.6 328.3 324.7 320.3 315.5 308.5 301.4 299.3 298.2 296 291.5 279.7 290.6 301.3 307.1 307 306.5 307.1 307.5 309.4 312.9 312.6 309.1 301.7 297.5 301.2 304 306.7 304 300.9 300.1 300.7 302 303 305 305.7 307.3 312.7 315.4 312.1 307.8 300.2 294.5 289.4 284.7 279.6 275.4 272.5 269.9 260 253.7 249.5 245.4 238.8 240.7 243.8 254.3 261.8 261.9 261.8 262.9 261.7 261 259.8 258.8 257.2 254.4 252.7 250.3 249.6 249.5 249.2 247.6 246.6 245.1 242.6 239.3 235.7 233 231.6 229.7 225 219.7 215.2 211.5 207.8 204 200.7 197.5 193 187.7 183.1 181.4 180.9 180.5 180.3 188.2 192 192 190 188.2 186 183 181.8 182.6 186.5 189.1 191 191.4 189.5 193.8 196 195.9 195.1 188.4 190.1 193.6 194.3 192.5 190.5 192.1 193.8 199.6 203.8 206.7 209.1 210.7 212.6 213.3 219.6 221.1 223.6 228.4 230.7 231.7 232.9 233.4 234.4 236.6 238.9 240.1 242.1 245.1 238.1 235.6 234.5 233 232.8 235.5 238.2 246.8 250.2 242.6
400.8 391 384 371.6 364.2 358 349.6 345.9 351.8 355 354.3 353 352.5 352.9 353.9 352.6 351.6 350.9 345.8 340.1 337.2 338.1 336.4 335.9 333.1 333.2 333 331.1 330 328.9 327 326.4 324 319.3 313 304 295 289.4 280.2 279.8 289.7 301.1 307.3 313.9 320.9 331.8 338.9 338.8 334.4 329.4 325.8 321.2 314.1 305.7 302.8 300.4 297.9 293.4 283.1 291.5 304.2 312.9 313.2 310.3 310.8 311.6 314.7 318.5 318.3 311.9 307.5 301.9 306.3 309 312 311.6 308.7 306.5 306.1 302.7 303.3 305.2 306.3 309.1 312 310.2 306.7 301.6 295.2 290.1 286.1 285 281.7 279.5 274.8 266.2 259.7 253.3 248.7 238.9 245 247.9 251.5 259.9 262.1 262.3 261.7 262.1 259.4 256.8 255.3 254.2 253.7 251.2 248.8 246.5 247.1 247.5 246.5 244.9 243.1 241.2 238.8 236.1 232.8 229.5 227.3 224.5 220 215.5 211.7 207.7 203.8 199.2 195.8 191.8 184.6 182.1 182.7 185.8 188.3 190.3 192.6 194.5 192.4 190.9 188.7 186.4 185.3 184.1 182.8 185.9 190.1 193.4 195.9 194.4 194.1 196 196.1 195.7 191.9 192.4 195.5 196.2 194.2 191.8 191.7 194 197.4 198.8 204 207.9 210.7 213.2 215.7 217.8 219.2 221.5 225.8 227.2 228.9 231.5 232.4 233.7 235.6 237.9 239.5 239.6 244.5 246.6 237.7 234.8 235.1 233.9 232.1 236.9 243.1 254.8 247.7 241.8
414.8 408 401.3 389.6 378.3 364.6 350.8 345.1 339.3 340.8 338.8 338.3 337.3 338.1 338.5 337.2 337.2 337.5 334.7 332.3 330 330.1 329.2 329.2 326.9 326.2 325.2 323.2 323.8 325 323.8 321.8 318.6 314.9 302.6 287.8 287.6 287.5 292.9 297.8 302.9 310.7 319.8 328.5 334.2 342.8 349.5 347.4 340.2 332.9 329.4 324.1 316.7 309.6 305.5 302.4 297.9 293.6 290.3 291.7 304.9 315.1 315.6 313.9 314.5 315.7 319.3 324.1 321.2 316.6 310.3 311.2 312.5 312.8 314.6 315.1 315.7 312.3 308.4 303.3 299.8 300.5 301.2 305.3 309.5 305.6 301.3 296.2 290.6 288.1 287.6 287.8 284 280.4 274 268.4 261 253.4 248.1 249.5 250.8 252.4 257.3 262.9 262.9 260.9 260.4 261.2 255.3 252.1 250.3 249 248.7 246.2 243.8 243.1 243.5 242.4 240.6 239.4 238.5 237.8 235.9 232 229.4 226.8 223.9 219.2 215.5 211.6 207.3 202.9 198.7 195.1 190.7 185.6 182.5 183.7 189.9 190.7 191 192.1 193.6 192 191.2 188.9 187 184.9 185.9 186.7 189.7 191.2 194.2 195.7 196 193.8 193.8 194.1 195.7 196.1 193 194 195.5 196.6 195.3 193.3 191.4 194.1 199.6 201.7 204.9 208.7 212.1 215.7 219 221.6 223.8 225.7 228.8 227.3 228.1 229.5 232.1 234.7 237.2 240.7 244.5 243.3 243.1 243.7 243.3 242.4 237.1 237.4 239.9 243.7 246.9 251.4 244.4 241.8
425 421.8 418.5 408 394.8 378.7 362 347.6 341.1 333.8 333 332 331.6 328.6 328.9 329 329.2 327.5 326.4 324.7 323 323.3 323.1 322.9 321.3 319.8 320.1 318.5 319.3 320.4 321.5 317.7 313.6 304.6 288.4 292.5 296.7 293.8 301.8 304.2 308.5 317 326.8 335 342.3 347.7 351.2 351.2 345 337.4 333.5 326.9 319.7 313 308 304.8 302.1 299.6 294.3 290.1 305.1 314.5 315.9 315.6 316.6 318.9 320.9 322.9 321.5 320.4 318.8 319.2 319.9 317.2 316.4 316 315.4 312.8 307.8 302.9 300 297.4 297.7 299.2 303.7 301.4 296.2 291.4 289 287.1 284.4 283.1 281 277.6 272.9 268.1 257.4 254.1 261.1 259.7 257.2 258.7 264.1 265.2 263.4 260.7 255.8 253.1 251.3 249.2 246.9 244.8 243.3 241.3 239.8 239.5 239.2 237.4 235.6 234.6 233.9 233.6 231.9 227.7 225.1 222.5 219.9 215.8 212.1 209.9 202.9 197.9 194 190.3 186.2 183.3 182.9 188.4 191 192.9 191.9 192.8 195 189.8 190.1 187.2 185.4 184.8 186.6 190.9 195.9 198.3 197 196.1 195.2 193.8 193.8 195.1 195.5 196.1 194 194.3 195.9 197.4 197.4 195.8 194.2 192.6 196 198.6 203.6 207.4 212.2 217.4 221.2 225.1 227.3 227.7 227.3 226.8 227.7 229.4 232.2 235.2 238.7 243.9 245 241.7 240 241 242.7 244 237.8 242.1 242.4 245.9 245.6 243.7 243 241.8
432.1 430.8 428.2 422.6 410.3 394.2 372 360.7 348.3 337.7 334.3 331.1 328.4 325.7 324.2 323.9 321.8 320.2 319.9 319.8 316.3 316.4 316.6 316.4 315.5 313.6 314.4 313.9 314.9 316.9 315.5 313.7 298.3 289.4 296.2 301.6 300.8 297.3 303.1 308.2 312.5 321.9 330.9 337.9 345 350.3 351.2 351.2 346.9 341.3 337.2 330.8 323.9 316.3 311.5 308.5 305.7 302.3 295.9 294.9 306.4 312.8 316.1 316.3 317.7 319.8 321.7 322.7 322.2 324.2 327.2 328.7 326.7 322.1 320.3 318.3 316.1 312.2 307.8 303.7 300.3 297.1 295.3 296.3 297.7 296.9 292.3 287.9 285.7 283.4 281.3 277.8 275.5 272.6 269.7 266.2 255.7 264.6 270 263.8 262.3 264.6 265.1 264.5 262.6 259.6 255.8 251 248.1 246.5 245 241.7 238.5 237.5 236.5 234.9 234 232.7 231.2 230.3 229.4 228.9 227.4 222.9 220.7 218.2 215.5 212.2 208.1 204.7 198.6 195.7 192.2 186.7 183.4 183.8 189.3 190.3 191.9 194 194.7 195.2 196.6 188.9 189.3 187.8 185.1 184.9 188.7 194.9 200.5 197.8 196.7 197.4 196.4 194.4 193.8 194.2 195.3 196.2 197.1 195.4 197.1 198.6 198.8 197.8 196.5 195.9 194.5 198 202.5 207.1 211.8 217.2 222 226.5 226.2 224.7 224 224.2 225.5 227.5 230.2 234.5 239.9 242.6 243.6 241 238.7 238.2 238.3 240.7 240.7 242.6 245.5 244.3 243.6 242.8 242.4 242.3
437.2 436 434.6 427.8 417.6 400.7 388.9 376.3 353.5 345.3 342 337.1 332.7 328.4 324.8 321.7 316.8 314.2 316.2 311.7 309.3 309.6 310.2 309.9 309.7 309.9 310.2 309.1 310 309.4 306.6 296.7 288.7 300.2 304.3 301.4 299.2 303 305.9 310.6 316.9 324.2 333.2 341.2 347.7 351.2 351.1 350.4 345.6 341.4 337.1 333.1 327.9 320.1 315.3 312.2 308.3 304.4 297.2 296.1 311 313.1 316.1 316.8 318.6 320.8 323.9 327.4 328.7 330.9 334.4 337 334.2 327.1 324.8 321.1 317.3 312 308 305.5 303.7 299.4 301.2 296.3 292.4 292 290.3 287.7 284 281.9 280.8 280.5 281.1 277.3 273.5 265.5 262.7 266 266.1 263.4 262.5 262.5 262.1 261.6 260 257.1 255.8 253.2 247.7 245.7 243.9 240.4 236.5 235.2 232.9 230.2 228.8 227.8 227.4 227.3 224.7 222.5 220.3 217.2 214.9 213.3 210.4 207.9 203.4 201.6 196.4 192.9 189.1 186.2 184 184.6 191 190.7 190.2 191.1 192.6 193.5 195.9 190.3 189.1 189.3 184.9 187 193.7 200.5 204.9 200 195.8 196.2 197.5 195.7 193.8 194.9 195.8 197 198.3 198.6 199.1 199.7 199.7 199.1 197.9 198.5 198.7 199.1 202 206.7 211.3 214.6 218.9 225.9 224 223.4 221.9 221.9 222.6 225.5 228.9 233.4 239.8 241.7 242.9 241 238.8 238.6 239.4 241.3 246.1 245.3 244.6 243.5 243.3 243.2 243.2 243.1
440.1 439.2 435.4 427.6 419.9 411.6 405.1 390.2 365.1 360.1 354.1 346.3 339.1 335.8 331.6 326.3 321 318.3 315.9 314.5 310.8 309.5 307.2 305.3 304.7 305.7 305.7 304.1 302.5 300.7 296.5 297.2 303.7 306.2 303 300.9 303.6 306.9 311.7 316.7 322.3 329.3 335.3 343.7 350.8 351.2 348.9 347.6 345 341.5 337.6 333.7 328.9 324.1 320.2 315.7 311.1 306.6 299.6 295.7 308.6 313 314.8 316.8 318.4 322.6 328.3 331 333.6 337.8 340.3 342.7 339.8 334.9 333.9 328.6 322.6 315 308.4 305.7 303.2 300.8 301.1 297.2 292.7 287.8 287.7 285.9 286.9 286.9 282.2 275.7 269.4 268.5 268.5 267.2 266.2 266.9 265.8 264 262.6 261.6 260.6 258.6 255.2 252.3 250.7 248.2 245.4 241.8 239.9 237.6 234.5 230.9 229.1 226.4 224.3 221.8 222.6 220.9 218.6 215.9 213.1 210.3 208.1 208.2 204.4 201.1 198.6 195 193.1 191.1 188.8 186.5 185.2 186 191.1 191.1 191 188.9 190 190.2 189.9 191.1 198.9 191.7 187.3 192.5 198.9 208.1 208.1 202.1 199.5 198.4 198.1 197 194.6 195.8 197 197.8 199.2 201.3 201.1 200.8 201.1 201.9 202.1 201.6 201.5 200.2 201.5 204.6 210.4 212.9 214.9 216.3 216.8 217.1 217.4 218.4 222.5 225.3 228.4 233.3 238.1 240.8 242.1 241.8 239.6 239.6 241.4 242.9 245.4 247.6 244.4 243.9 244.5 244.1 243.8 244.5
442.6 441.6 437.4 430.7 425.5 421 415 400.6 383.1 379.2 372.6 364.9 356.1 347.1 341.2 335.3 331.6 327.2 323.8 319.1 314.5 312 310.3 307.7 304.8 300.1 300.5 298.1 299.1 297.4 293.8 304 307.9 307.8 304.1 306.2 309.2 313.2 318.6 323.7 330 337.4 343.8 347.7 351.2 351.2 349.1 347.2 344.8 341.5 338.5 336 331.8 327.5 324.7 319.4 313.4 308.7 303.8 299 307 314 316.5 318.3 320.4 324.6 328.7 329.4 335 338.8 343.3 345.6 342.6 338.3 334.9 329.8 322.5 316.2 309.2 304.3 300.3 300 299.5 296 293.5 289.6 285.7 284.8 285 281.8 278.3 280.6 277.1 274.5 273.6 271.6 269.6 268.3 266.9 265 263.2 261.7 261 259.2 255.7 251.8 248.3 246.2 244.3 242.2 238.5 237.7 234 232.9 230.5 228 225.1 222.7 221 219.3 217.5 215.7 212.6 207.3 207 205.7 202.8 200.7 198.5 196.5 194.6 193.1 190.3 188.4 186.6 184 184.6 189.9 188.5 188.6 189.2 188.9 189.7 197.4 203.1 196.4 191.3 198.5 203.3 209.8 206.8 202.7 200.2 198.9 199.7 199.8 200.3 200.2 200.3 200.2 201.5 203.7 203.4 203 205.7 205.4 205.6 204.6 204 203.1 202.7 204.5 207.5 210.3 212.2 213.1 213.1 211.8 215 218.7 222.7 224.3 229.3 232.6 235.5 240.1 241.1 240.9 239.9 240.8 242.9 244 244.1 244 248.1 252 250.2 246.1 246.3 247.7
444.8 442.8 437.9 433.2 430.8 427.6 419 409.1 400.3 392.5 388 383.4 373.2 367.1 358 353 347.2 341.6 334 328.8 323.5 319.2 318.8 315.2 310.6 309.7 307.4 305.9 305.5 305 298 308.6 311.5 309.7 308.4 309.8 313 319.3 325.2 330.7 337.9 346.5 350.6 353.5 355.1 352.9 350 346.7 344.6 341.8 338.7 336 331.1 327.6 324.8 319.9 316 310.6 309.7 308.6 303.7 313.9 319.2 319.2 319.8 321 322.8 326.6 333.9 337.7 340.7 344.1 342.6 339.8 336.2 330.7 323.7 316.4 309.9 304.7 302.3 299.8 301 300.4 295.3 291 286.8 280.1 285.4 288.8 284.7 284.2 281 279.3 277.5 275.5 273.6 271.8 269.1 267.2 265 262.7 261.4 260.5 258 255.9 252.4 250.4 249.1 245.8 243.3 241.8 239.1 236.6 231.1 231.8 229.6 227.7 227.2 226.2 224.4 220.5 213.8 215.4 210.7 202.8 196.2 195.9 195.2 194.3 194.1 192.4 189.6 191 189.4 184.5 184.9 190.7 191.2 189.9 192.1 194.3 198.2 201.2 201.4 192.8 197.2 203.7 206.7 207.2 205.9 202.7 202.3 202.3 202.1 202.7 204.4 204.1 205.2 203.8 203.5 205.5 205.1 205.6 206.4 207 206.2 205.6 205.4 203.8 201.2 204.8 205.9 207.3 208.9 208.2 207.9 211.5 218 221.5 224.2 226.1 230.2 235.1 237.3 241 240.3 240.1 239.6 241 243.6 244.9 244.6 245.1 252.4 256.4 252.9 248.9 250.1 251
444.3 442 437.2 438.9 435.1 430.4 421.6 413.3 406.2 398.8 393.4 388.6 379.6 373.4 365.1 358.3 352.6 350.3 342.6 334.4 329.5 327.6 328.3 323.9 320.2 316.7 313.7 311.1 310.5 305.7 300.2 312.4 311.3 308.9 308.9 313.7 316.1 325.5 331.6 337.4 343.5 350.8 355.6 358.4 359.5 354.5 349.5 346.6 344.1 342 338.9 336.7 332 327.4 324 319.1 313.9 310.5 309.1 310.5 302.9 313.6 318.9 318.8 320.5 320.6 321.6 331.1 332 334.5 340.4 341.6 339.9 337.2 334 328.5 322 315.2 309.7 305.6 303 300.8 300.2 300.7 294.9 290.7 284.3 290.5 294 292.3 290.6 289.6 286.7 284.1 280.9 277.7 274.6 271.9 269 266.8 266.1 263.5 261.4 261.2 259 256.1 253.5 251.4 248.7 246.3 244.7 242.7 239.9 234.9 234.7 234.2 233.2 231.9 230.6 228.4 222.4 222.1 219.8 213.9 202.1 193.8 194.3 195.7 193.5 193.4 193.1 193.3 194.8 194.8 190.9 185 185.3 186.6 191.6 194.1 196 196.7 197.8 199.7 202 197.4 203.1 206.3 208.8 208.8 208.5 209.6 208.8 210.8 206.1 203.5 205.4 204.3 207.2 206.8 205.4 206.6 207.8 206.1 208.4 208.6 208 207.2 205.6 204.4 203.5 203.6 204.1 204 203.9 204.6 206.5 211.8 217.9 222.4 225.1 230.2 233.8 237.9 240.8 240.9 239.8 239.5 239.3 240.3 243 245.3 245.8 247.5 256 256.5 254.8 251.1 251.1 251.1
442 440.9 440.2 441.1 437.5 431 421.9 414.9 407.8 400.9 392.2 386.6 381 372.8 364.9 359.5 355.6 353.5 346.6 338.6 335.5 334.6 332.1 327.5 321.8 318.1 315.3 310.8 306.5 304.6 305.5 309.5 315 315.8 318.6 325.7 328.2 333.1 338.5 344.2 349.9 354.2 359.4 361.1 361.1 357.8 349.8 347.3 343.3 341.7 338.9 336.3 332.8 327 323.9 317.6 313.8 310.7 308.5 305.1 306.5 313.3 318.3 319.8 321.6 322.4 323.3 327 328.9 332.3 337.9 338.7 336.7 334.5 331.5 326.4 320.3 314.5 309.8 306 302.3 299.6 298 297 292.1 286.4 293.8 298.1 296.2 294.5 292.8 290.7 288.6 285.8 282.4 278.7 275.6 272.2 268.8 266.5 264.2 261.8 260 259.4 256.1 253 250.3 248.7 246.7 245.3 243.6 240.3 236.2 235.3 234.6 233.6 231.7 229.4 225.1 224.2 222.8 225 219.5 213.5 193.7 196.8 206.5 213.2 210.6 205.3 202.1 198.8 198.5 198.7 193 185.7 185.7 185.7 189.7 195.5 195.3 196.4 198.1 199.9 203.7 203.1 207.7 209.9 210.8 210.5 211.6 213.2 215.7 216.1 207 205.7 205.2 205 206 208.2 207.8 207.4 209 209.9 210.7 210.4 209.7 207.7 205.8 204 204.7 205.4 204.5 206.7 204.9 205.1 205.3 207.5 215.3 219 223.3 229.5 233.7 236.3 240.9 240.7 239.6 239.3 239.2 240.1 242.5 245.7 247.9 249.2 253 253.6 251.7 249.6 250.7 250.1
445.7 445.8 445.4 442.4 439.4 429.2 420 413.3 404.9 396.7 390.3 384.4 378.2 371.3 363.8 358.9 354.8 348.8 342.2 337.5 336 333 329.7 325.5 320.5 315.9 310.1 308.5 308.1 308.9 311.6 315.8 318.9 322.2 326.3 330.5 334.8 339.4 343.6 348.8 354.7 359.3 361.1 361.1 359.9 356 348.6 345 341.3 339.3 336.6 334.7 332.4 326.9 324.5 318.9 314.1 310.4 307 305.8 309.8 314.2 318.5 320.8 322.4 323 324.4 326.6 328.5 332 334.9 335.6 333.8 332.1 328.8 324.4 318.7 313.1 309.6 305.7 300.8 297.2 295.5 290.3 290.5 295.8 298.9 300.5 297.8 295.5 293.1 290.4 287.7 285 280.6 278.9 276.3 272.8 269.2 265 261.1 258.8 255.8 254.1 250.7 249.1 247.2 245.9 243.5 240.7 238 236.7 235.7 234.9 233.7 232.2 228.7 227.2 226.6 223.1 224.7 221.6 218.5 212 198.4 196.1 203.5 216.8 212.6 208.8 207.2 206.9 199.8 197.6 195 187.7 186.2 186.8 189 192.2 194.9 196.6 199.6 201.2 205 205.3 211.2 213.1 214.6 212.2 214.1 216.1 216.2 215.8 208.4 207 205.1 204.8 205.2 208.2 210.2 210.2 210.7 212.2 212.9 212.9 211.1 209.1 207 205.5 206.1 205.3 207.4 210.2 207.9 207.8 211.7 211.7 209.1 216.1 222.5 229.2 233.5 234.5 239.2 240.4 239.7 239.1 239.4 241.1 243 247.7 249.7 248.8 246.4 246.2 247.8 248.4 247 246.8
447.9 450.7 449.3 442.2 433.6 423.4 414.4 407.3 398.3 391.6 385 378.8 374.1 367.8 360.5 355.9 350.8 343.1 336.6 334.4 332 328.1 324.5 317.6 315 314.1 311.6 312.9 313.3 315.1 318.2 320.2 323.4 327.3 330.3 334.5 340.5 348.1 352.3 355.8 358.1 360.7 361.2 360.8 356.6 351.9 345.6 343 339.3 336.6 334.5 332.8 332.3 330.2 329.6 321.4 315 309.6 308.1 309.1 311.4 315.2 318.5 321.5 322.9 323.5 324.7 325.2 326.5 328.9 331.7 332.7 331.3 328.1 325.4 321.7 316.3 310.9 307.6 303.8 299 293.6 291.1 295.7 300.7 301.2 300.7 301.2 299.5 299.3 296.6 292.3 287.7 284.2 279.7 275.3 273.3 270.4 267.1 262.9 259.1 257.1 255.2 252.7 249.2 244.6 244.9 243.9 243.4 242.3 237.5 235.5 234.7 231.5 230.3 229.2 225.2 227 228.8 217.9 209.4 209.8 212.1 206.7 198.9 196.1 205.4 215.6 212 206.1 203.7 203.8 194.1 194.6 195.3 188.2 186.4 188.5 192.9 193.5 194.5 197.8 200 202.5 206.6 207 212.7 215.7 216.3 216.5 217.7 220.4 217.3 215.5 212.6 207.4 204.8 203.9 205.9 208.9 212.2 213.3 214.1 215.1 214.5 213.8 211.9 210.1 208.9 207.6 207.2 206.5 210.4 213.6 212.1 211.7 214.6 215.9 208.8 215.9 221.1 227.4 232.7 235.8 238.5 240.4 241.1 241 241.3 242.7 245.6 249.6 248.3 247.2 245.7 244.8 245.1 245.9 245.5 244.2
450.2 447 442.8 437.1 425.6 416.6 408 399.6 392.3 386.7 379.6 372.4 366.3 361.2 354.5 349.3 344.3 338.1 332.3 329.2 326.9 323.7 320.3 318 319.6 321 321 320.1 318.9 318.4 322.1 325.7 329.2 332.9 338.3 343.7 350 356.2 360.2 361.8 362 362.2 360.7 357.4 353.1 348.2 345.1 341.5 337.8 335.4 332.5 331.3 331.3 332.3 332.7 324.1 317.8 312.1 311.5 313.5 313.3 315.6 318.4 321.5 322.6 323.2 323.6 323.4 324.2 325.4 327.4 328.9 327.9 325.3 321 316.9 312.4 308.8 305.3 301.3 295.5 296.1 298.2 300.2 303.2 304.3 303.7 303 300.5 297.6 295.4 290.5 285.6 281.6 277.6 273.3 270.7 268.7 265 262.3 260.2 259.6 257.3 253.4 250.7 247.2 245.6 245.5 243 238.9 235.7 234.8 233.5 233 231.3 225.7 226.1 226.7 225.6 226.3 221.4 203.8 201.5 199.8 202.4 207.1 212.8 214.8 208 202 195.4 194.7 193.5 192.6 189.9 187 189.5 194.5 197.9 197.8 199.2 201.8 203.9 205.7 207.7 209.9 213.8 217.5 222.4 222.5 222.8 220.4 218.6 219.2 216.7 214 205.7 206.9 210.2 213 216.6 216.4 216.6 215.7 215.2 214.1 212.9 212.3 211.4 210 208.5 207.8 214.3 215.5 213.9 214.1 216.5 219.8 214.4 214.4 219.3 228.5 233 236 238.9 240.7 241.4 241.9 244.4 246.5 247.5 248.9 248.4 249.5 249.2 245.2 244.1 244.4 244.3 242.7
447.4 441.4 433.8 425.4 415.9 408.5 401.5 394.4 386.9 379.8 372.1 365.4 359.4 354.5 348.5 343 338.5 334.4 330.6 325.5 324.1 323.8 324.6 326.8 328.2 328 327.8 327.4 325.4 326 328 332 337.1 342.8 348.4 354 359.5 364 367.2 366.4 365.5 364.6 363.3 361.1 356.7 350.8 344.9 340.1 336.3 334.6 330.4 329.2 328.9 328.3 327 325.5 322.1 314.5 317.3 319.7 317.1 317 319.3 321.2 321.4 321.7 321.7 321.7 322.2 323.7 324.8 324.7 323.7 321.4 319.1 315 310.3 306.1 302.8 299.2 295.6 298.2 297.4 299.6 301.9 303.6 302.6 300 297.4 294.7 291.8 287.4 283 279.2 276.5 273.7 270.6 269 266.5 263.5 261.7 259.3 258.2 256.1 256 252.2 250.1 246.4 241.4 240.4 238.6 241.2 241.9 241.2 239.4 236.2 234.1 231.6 230.6 223.3 211.7 201.8 200 203.1 211 216.2 216.6 213.3 208.1 203.3 193.6 193.2 193.7 194.2 186.9 190.8 198.2 200.2 201 200.7 200.4 202.5 205.7 208.1 213.1 215.5 212.6 217.4 221.4 223 222.9 221.5 220.3 220.5 219.3 216.8 210.8 208.9 212.8 217.6 221.3 220.1 218.9 217.9 216.6 215.2 215.1 214.9 213.8 212.2 212.1 213.3 217.7 216.8 215.9 217.3 218.4 221 218 214.6 222.4 229.9 233.5 236.9 239.5 241.6 242.9 245 248 248.4 247.1 247.9 247.8 248.3 248.6 245.9 245.8 244.7 242.9 240.8
441.1 434.2 424.8 414.3 405 398.5 394.9 389.6 382.9 374.7 366.9 360.1 353.9 349 343.8 339.1 336.7 333.5 330.8 328.2 328.4 329.8 329.2 331.8 333.4 334.1 334 332.6 328.8 333 335.7 341 346.7 352.9 358.8 364.4 369 372.2 374.2 373.2 370.9 370.6 367.9 365.2 361.8 355.6 347.7 343.2 339.9 336.2 334.1 329.3 326.2 323.7 324.6 324.9 325.1 317.8 322.1 320.2 320.9 319.6 320.5 320.8 320.7 320.6 320.3 320.3 318.5 317.5 317.3 317.9 318.5 315.9 312.9 309.6 306.8 304.2 301.8 298.7 297 297.5 299 300.1 302.7 303.3 300.9 299.1 297.4 294.1 291.2 287.1 282.6 279.5 277.3 274.7 271.9 268.8 268.9 265.5 264 264.3 261.6 262.2 259.1 255.5 253.4 248.9 246.9 246.2 244.5 246.5 247.5 246 244.4 242.7 236.5 227.8 215.7 208.2 201.8 201.4 206 216.2 220.2 220.8 213.2 209.7 204.2 198.3 194.1 193.9 195.5 191.3 187.9 199.7 200.9 201 201.6 200.5 199.5 199.4 202.5 208.5 212.6 216.3 214 214.4 217.5 222 223.1 221.6 221.3 222.3 222.4 221.1 214.6 211.7 214.2 220 221.7 220.4 220.3 218.7 218.1 216.6 215.1 214.6 213.7 212.9 214.6 214.7 219.1 217.9 218.6 220.4 221.5 222.4 222.4 217 223.5 231.2 234.9 238.5 240.8 243 244.7 247.4 249.4 248.4 247.4 246.6 246.5 245.4 245.9 245.7 245.4 242.7 240.6 236.7
432.3 424.8 414.7 403.4 391.9 388.3 385.2 381.8 375.5 369.3 363.2 356.6 351.2 347.6 341.9 337.6 335.2 331.9 333.8 335.4 335.7 335.5 334.7 337.3 339.7 340.4 340.6 339.3 333.8 340.1 344.7 350.3 354.3 362.6 372 375.3 380.9 380.7 380.2 376.5 375 376.3 371.6 370.1 365.2 359.9 351 344 339.9 337.5 334 330 325.3 325.4 325.1 323.1 324.2 322.3 323.5 323.9 326.1 324.3 323 322.2 321.7 321 320.2 318.7 316 315.2 317.1 315.9 310 306.8 304.8 304.2 302.1 301.7 299.5 298.9 297.5 297.2 298.6 301.2 302.9 303.7 302.3 299.6 295.6 291.4 289.3 284.8 282 280.2 278.3 276.3 274.5 273.9 273.6 272.6 269.9 269.4 268.7 265.8 262 259.7 252.1 253.5 255.2 253.8 251.4 251.3 251 248.5 244.7 235.4 217.9 205.2 204.4 202.7 202.3 209.3 214.2 220.3 218.1 211.1 204.6 201.1 198 196.4 196.5 197.9 197.2 190 188.7 201.2 201.1 199.4 198.4 197.2 197 198.7 201.4 204.4 208.3 211.1 211.4 215 217.2 222.9 224.6 223.6 222.7 221.7 223.8 224.1 219.2 217.7 218.4 221.2 221 221.8 221.6 223.7 223.1 219.9 216.7 215.2 214.1 213.6 215.4 217.7 218.9 220.4 224.5 224 226.8 227.5 230.2 228.6 229.4 233.6 237.2 239.8 242.1 244.6 247.1 248.4 250.4 249.2 248.1 247.2 246.7 246.9 245.8 243.3 242.7 239.4 236.7 233.7
416.2 410.4 400.7 389.8 381.7 379.7 377.7 375.1 369.5 364.5 360.4 353.9 349.8 346.2 341.2 337.1 336.3 338.9 340.3 339.8 341.7 342.3 342.6 343.9 346.6 348.7 347.9 344.7 336.6 346.5 353.1 360.1 365.4 372 373.2 384.4 388.6 386 383.4 379.2 381 377.5 372.7 369.4 366.4 359.9 352.1 345.4 340.8 336.1 333.4 330.7 328.3 327.2 325.3 322.9 323.6 324.3 322.5 323.4 325.5 326.3 324.9 322.7 323 321.9 320.8 319.2 317.5 316.8 319.1 319.7 316.5 311 307.1 304.1 302.4 300.6 299.4 298.4 297.7 298.3 298.9 301.3 303.4 304.2 301.7 299.1 295.4 291 286.5 282.7 280.4 281.1 280.8 279 277.7 278.8 278.1 278 276.1 274 273.2 269.4 265.5 263.7 252.1 258.1 262.2 259.8 255.7 255.7 254.8 246.4 227.2 213.7 208.7 204.4 204.6 206.9 215.9 221 218.6 216.3 213.9 210.3 207.4 198.8 197 199.3 201.4 201.3 200.9 188.8 188.5 201.3 201 198.7 196.7 196.2 201.6 202.9 202.9 206.1 207.4 209 210.3 212.8 217.5 223.4 226.3 225.2 224.1 226 228.5 226.4 223.8 222.5 222.8 223.1 222.9 223.3 225 226.3 225.9 224.8 218.6 216.7 215.1 215.4 218.3 221.1 222 224.7 230.2 231.2 232.6 235.2 235.5 234.3 232.8 236 240.1 242.1 244.4 247.3 250 251 250.5 249.1 248 247.3 246.8 245.7 243.4 241 238.5 235.9 235.1 231.6
390.4 387.5 381 377.9 374.7 374.9 373.8 370.8 366 361.7 357.7 352.7 349.3 345.3 342 342.1 344.2 344.6 345.2 346 347.4 350.2 350.1 348.6 353.9 354.9 352.8 348.4 347.6 353 359.4 368.9 375.6 380.6 385.4 389.2 391 388.8 386.2 384 383 378.8 373.3 367.9 362.8 357.6 353.1 350.7 346.4 340.2 336 332.2 331.3 330.1 328.5 325.3 326.1 327 325.5 323.3 324.1 326.3 326.2 324.1 322.4 322.7 321.5 319.3 318.8 320.9 321.6 321.9 318.1 314.4 311 307.1 303.5 301.2 300.1 299.3 298.8 299.6 300.2 301.7 303.9 305 305.5 303.7 300.1 296 291.6 287.1 283.4 283.7 283.2 279.4 280 280.1 280.1 280.9 279 276.7 276.2 272.3 270.2 267.2 258.1 266.5 266 262.9 260.7 257.5 243.8 226.5 212.5 208.1 208.7 214.4 219.8 223.4 227.8 222 215.8 212.2 207.2 201.7 196.2 196.1 198.9 202.3 202.9 202.2 197.5 188.5 188.9 200.8 200.4 198.1 196.7 197.6 204.6 206.9 208 208.3 208.8 209.6 210.2 210.9 216.7 223.8 226.4 226.4 226.3 231.1 230.3 227.2 223.9 223.1 224.8 225.2 223.4 221.7 219.6 217.7 217.6 217.5 217.9 217.4 219.3 219.6 221.1 222.9 225 228.7 233 234.8 237 238.3 238.8 240.4 239.5 236 242.2 244 246.1 249.3 250.2 250 249.4 247.8 246.7 245.9 245.5 244.2 240.2 238.2 235.4 233.2 231.5 230.6
380.9 378.3 374.4 371.8 370.4 370.9 369.7 367.7 364.5 360.5 356.2 352.1 348.8 347.6 347.1 348 350.5 350.3 349.3 352.8 355.6 357.8 358.1 358.4 361.1 360.2 354.8 353.4 354.8 358.8 365.5 373.7 381.5 386.1 389.3 391 391.3 391 389.3 385.6 381.3 375.6 371.6 365.6 359.6 357 352.6 348.3 345.3 341.6 337.6 334.5 333.7 331.5 332.9 329.8 327.9 329.5 330.7 328.6 326.9 326.5 327.5 325.9 324.1 323.7 321.7 322.3 321.7 321.2 322.5 323.1 318.8 316.7 314.5 311.2 308.1 305.6 302.5 300.5 300.1 301 302.2 303.5 305.8 305.5 305.7 304.3 301.9 298.4 294.1 290.1 286.2 285.6 283.5 280.2 279.6 279.4 279 278.6 278.4 277.5 276.6 273.7 270.7 267.8 268.2 270.5 268.6 265.1 263 241.7 223.4 212.5 208.7 210 218.6 234.6 234.9 230.7 226.6 216 209.5 203.4 199.4 196.6 196.1 196.7 202 203.1 203.1 201.7 194.5 188.4 189.2 199.1 199.5 197.4 197.5 200.6 204.9 208.4 211.2 211.4 211.4 211.7 210.9 210 215.2 222.2 226.3 228.3 229 231.7 231.3 229.7 225 225.5 227.2 226.1 224.5 220.4 219.2 218.3 217.5 218 218.8 219.5 222.2 223 222.9 225.7 229.7 232.8 234.6 236.6 239.7 241 240.2 242.1 241.6 240.4 243.2 244.1 245.8 248.3 248.8 247.6 246.5 244.5 243.6 242.5 240.6 239.3 236.7 235.3 232.9 230.6 228.9 228
374.8 372.6 369.7 367 364.8 364.6 364.3 363.4 361.9 359.9 357.5 354 352.1 351.8 353.2 354.2 356.4 358.6 358.6 361.3 364.6 366.8 366.1 364.7 365.8 362.1 358.7 360.3 361.8 365.4 371.9 380.2 386.3 390 391.9 392.2 391.4 391 391 387.3 382.3 375 370.5 364.8 360.5 356.5 352.2 347.6 343.3 339.6 339 337.9 336.4 333.8 333.8 332.7 331.3 331.4 334.1 335.4 334 330.5 329.9 328 326.2 325.6 321.7 323.4 325.8 324.6 324.1 324.4 325.3 322.8 319.4 313.8 312.9 309.9 307.7 305.8 305.3 305.7 305.6 305.5 306.7 306.6 306.2 305 301.9 298.6 295.9 291.1 287.9 286.5 283.9 282.2 281.1 280.3 279.9 278.8 277.3 274.6 275 270.5 268.9 266.9 266.4 266.3 266.6 265.1 252.9 224.5 215.1 207.9 212.4 224.8 237.8 235.6 229.9 225.8 216.3 211.4 205.9 200 199.1 197 196 197.4 200.1 203.2 203.7 201.6 191.7 188.6 199.8 197.4 199.7 200.4 203 206.4 209.2 211.2 216.2 215.5 216 214.9 211 211.2 215.3 220.5 225.9 230.6 234.4 233 232.3 231.8 230.3 229.3 229.5 230.7 229.7 221.9 220.2 219.7 219.1 219.9 220.1 220.9 224.1 224.7 224.9 227.5 231.2 234.8 235.9 239.9 243.9 244.8 244.3 243.5 243 241.4 243.1 243.5 244.1 245.7 246.2 245 244.9 244.4 243.3 238.5 234.8 234.1 233.6 232.5 231.1 229 227.4 227.1
371.9 367.9 364.9 361.5 359.5 360.2 359.7 360.1 359.8 360 359.2 358.1 360 361.4 363 363.9 365.2 368.3 366.5 371.1 373.7 374.4 372.1 368.9 368.9 364.3 364.1 365.1 367.5 370.9 377.3 385.5 390.6 394.5 395.3 394.4 391.7 390.1 388.4 386.7 385.4 380.7 376 370.9 363.9 358.6 353.3 348.4 343.8 344.4 342.8 341.1 339.1 338.6 337.2 334.2 333.4 333.3 334.8 335.5 335.4 332.1 330.7 329.2 327.5 328.9 327.3 325.3 329.2 327.2 325.1 325.3 324.6 321.9 320.2 317.5 315.4 313.1 312.6 311.7 310.6 310.1 308.9 307.3 307.7 306.4 306.2 305.7 302.7 299.7 296.3 292.3 290.1 286.5 283 281.2 279.5 278.7 277.4 275.8 274.3 268.6 265.3 267.8 266 264.2 262 261.6 262.3 259 244.7 218.9 210.5 207.9 220.5 230.7 228.8 229 221.7 216.9 210.8 207.5 204.5 204.3 201.1 198.2 197.8 198.7 200.4 199.8 200.5 199.7 189.6 191.6 204 203.7 205.3 207.7 208.8 210.8 213.2 214.3 217.2 218.4 220.1 220.4 216.3 218.3 218.3 218.9 228.9 233.7 234.5 234.2 234.5 235.5 233 232.2 232.3 234.4 232.9 224.7 221.6 221 222.6 224.5 221.4 221.9 224.9 226.1 226.9 229 232.6 236.3 239 243.2 247.4 247.6 246.1 244.2 244.3 242.3 242.9 242.8 242 243.8 242.6 242.2 242.6 240.7 238.2 235.9 233.8 231.3 230.6 229.9 229.1 228.1 227.4 224.4
368.5 363.9 361 357.6 356.5 356.1 356.2 358.4 360 363.7 364.9 364.6 369.5 371.5 373.6 373.8 375.7 373.8 376.1 379.6 381 377.4 373.9 373.1 371.1 370.2 370.9 371.2 374.2 378 384 391 395.6 398.4 398 396.8 394 389.8 387.4 386.3 384.7 380.4 375.4 370.7 366.8 364.1 361.5 360.6 354.4 350 346.7 343.9 343.8 344.4 342.2 339.3 338 337.4 337.3 335.8 334.7 334.9 332.6 330.4 327.7 331.1 330.5 327.3 327.1 326.1 326.5 327.1 326.1 325.7 324 323.3 318.8 316.4 316.3 315.3 313.1 312.9 312.4 310.7 309.6 306.9 305.1 304.5 300.5 299.9 296.2 293.1 290.9 287.4 285.1 282.2 279.5 278.4 273.7 268.1 265 265.3 265 264.7 263 261.9 258 255.4 255.5 252 244.6 222.3 211.1 207.3 210 210.8 209.7 210.1 212.3 212.8 212.5 210.2 205.8 203.1 200.4 200 198.9 201.1 201.1 200.3 198.8 194.9 189.7 190.5 204.7 205.3 208.9 211.7 213.2 214.8 220.3 218.1 218.2 221.5 224.6 227.5 228.7 229.3 228.7 228.6 229.4 233.9 235.4 235.7 237.7 238.1 236 235.3 236.8 238.4 234.7 227.7 224.9 223.8 224.3 224.8 223.9 223.6 226 227.5 229 231 234.3 236 238.6 242.3 246.7 249.7 250 248.6 245.8 243.9 242.6 242 241.1 240.5 239 238.8 237.5 236 234.5 233.5 232.4 230 229.1 229 228.5 228.3 227.8 222.1
364.1 360 355.3 352.6 352 354.3 358.2 361.1 364.9 369.3 371.5 374.2 379.6 380.5 381.5 381.2 380.1 381 381.3 383.9 382.9 379.3 376.1 374.4 374.7 374.9 376.8 379.4 381.9 385.5 390.4 397 401.4 401.5 400.8 399.4 396.1 393.3 390.9 390.3 386.8 382.7 378.5 375.4 372.1 370.9 366.2 362.9 358.1 354.2 349.9 346.7 348.9 349.2 347.7 346.6 345.1 343.5 341.2 338.8 336.6 334.5 335.9 333.5 330.6 333.2 333.5 329.9 329 327.6 327.8 331.3 330.5 328.8 326.4 324.7 320.5 317.9 316.3 315 315.7 315.5 315.3 313.8 312.3 311.6 307 300.4 299.6 299.8 296.2 293.5 293 290.7 285.9 283.9 282.2 279.6 268.5 274.5 275.8 270.7 268.6 265.2 260.5 257.9 255.2 252.3 248.1 245.4 244.3 234.8 218 208.6 206.2 205 205.3 203.2 204.4 207.8 211.6 208.2 203.6 200.4 202.7 204.7 199.6 200.9 201.1 201.1 197.2 191.4 190.3 193.9 206.2 208.7 209.6 214.8 220 219.5 223 221.2 222.4 228.3 231.5 234.5 235.3 235.8 235.4 234.5 232.6 234.8 238.3 239.1 240.3 239.7 238.4 238.9 241.3 242.8 239 232.6 229.9 227.6 226.3 226.7 226.2 225.9 227.5 229.3 230.9 233.4 236.2 237.1 239.4 240.7 247.1 251 251 248.3 246.3 244.3 242.4 241.4 240.4 239.1 238 237 235.9 234.6 233.5 231.9 230.3 228.7 229.2 229.2 228.7 228.1 222.1 217.5
356.2 353.4 350.3 348.8 351.2 355.9 360.5 365.8 370.5 375.7 379.4 382.8 385.9 387.8 388.8 388.4 385.8 386.9 386.4 385.5 383.8 381.3 379.5 378.1 379.3 383.1 386.4 388.9 390.3 393.8 395.6 399.9 402.7 403.4 402.2 400.4 397.7 395.9 393.9 392.1 389.5 385.5 381.8 378.2 374.3 371.7 369.2 365 359.4 354.4 351.1 350.7 352.6 353.3 352.5 351.4 350 348 344.8 341.6 341.3 338.7 337.3 336.1 334.6 336.6 337.1 333 331 329.1 329.4 332.9 332.7 331 328.7 326 320.4 317.1 315.7 315.1 315.4 314.8 316.5 315.6 312.1 312.5 308.8 304.8 296.7 293.4 293.4 291.9 291.8 291.2 286.7 286 284.3 273.2 272.5 276.9 276.1 272.3 269.7 265.9 261.4 257.7 251.4 246.9 242.6 239.8 238.6 239.3 234.2 228.4 221.1 217.6 215.9 206.8 202.7 203.6 206.8 206.8 201.5 200.7 203.2 200 199.3 200.7 200.5 196.5 193.1 191 194.5 199.7 203.7 211.2 214.6 216.8 220.9 219 220.2 221.3 224.8 234 236.7 238 239.8 238.7 238.2 236.5 233.7 234.9 238.7 240.1 241.4 241.6 243.4 244.5 246.6 246.2 242.6 235.6 232.2 229.7 228.7 228.9 228.2 229.1 229.5 231.3 233.9 236.5 237.8 238.5 241.3 244 247.6 250.9 250 248.7 246.1 243.5 242.6 240.4 238.3 237 236.1 235.6 234.2 232.8 231.4 230.3 229.5 230.1 228.7 226.7 224.7 220.8 217.6 215.4
349.3 347.9 346.3 347.4 351.2 358.8 365.6 372.5 378.6 381.9 385.6 389.2 392.4 394.3 396.9 395.5 395 393 391.8 388 384.6 383.9 384.1 386.5 389.6 392.7 395.9 398.1 398.9 398.9 401.3 401.4 403.2 405 404 402.1 399.9 397 395.1 392.4 390.5 387.7 384.7 380.9 377.1 373.3 370.7 365.7 360.2 355.8 353.8 354.5 356 357.4 356.2 355.3 353.3 351.3 348.3 342.7 345.1 344.2 338.3 339.1 338.8 339.6 340.3 335.6 331.4 331 330.2 331.6 332 331.1 329.1 326.9 323.6 318.8 316 314.4 314.3 313.4 315.3 316.8 310.2 309.2 307.2 303.9 300.1 293.8 287.4 287.6 286.5 287.8 287 285.9 279.3 271.4 278.4 277 273.2 270.1 264.4 262.8 259.6 256.1 251 241.3 237.4 235.5 235.3 234.2 233 229.7 226.4 222.4 218.3 209.9 202.8 201.7 202.7 204.3 202.6 202.9 199.9 196.3 194.1 193.5 192.9 192.9 195.1 194.6 202.6 205.9 207.6 210.4 213.7 214.9 217.2 218.7 219.2 222.4 226.4 239.9 239.9 240.2 240.3 239.4 236.5 234.9 234.9 236.2 239 239.1 240.6 244.6 247.3 249.2 253.7 249.6 243.5 238.8 236.8 234.3 236.4 235.8 231.5 230.7 231.7 234.8 237.3 239.2 239.3 241.1 245.1 248.2 248.4 249.5 248.6 247.3 244.7 241.9 239.6 239.6 237.1 235.1 233.9 234.4 233.6 232.6 231.4 230 230.2 227.7 225.1 221.5 217.5 216.3 215.6 214.2
345.1 344.2 344.3 348.1 353.3 362.4 370 381.6 385.4 387.8 391.5 395.3 399.4 401.1 403.2 400.2 398.3 396.5 396.5 393.1 390.4 389.5 390.2 392.8 398.4 401.2 403.3 402.2 402.1 402.1 401.7 401.8 403.2 403.4 403.5 401.3 398.9 396.5 393.5 389.9 388 385.7 385.3 381.9 378.3 375.4 370.1 365.4 361.2 357.6 358.8 358.6 358.7 360 360.3 359.2 358.2 354.9 350.1 347.8 347.2 349.4 345.1 343 342.8 343.3 340.2 336.9 335 333.7 333.5 332.5 331.1 329 327.3 325.5 324.8 322.2 319.7 314.9 314.2 312.2 310.5 311.9 308 310 303.3 301.5 299.1 297.6 289.5 279.4 281.1 283.8 284.8 284.1 277 279.5 277.6 273.8 271 266.8 258.3 259.8 259.5 255.1 251.4 243.6 235.3 231.3 230 228.3 226.4 224.3 222.1 218.5 215.6 214.2 203.4 201.6 200.2 201.6 203.1 197.3 194.3 194 193.8 193.4 194.3 201.4 202.5 205.2 204.9 206.8 210.8 211.2 214.9 217.8 220.7 221.4 219.2 220.3 224.9 231.2 239.4 238.3 239 238.4 237.2 238 239 240 239.4 239.2 241.5 245.2 249.5 253.6 255.3 253.1 245.2 242.2 240.7 240.6 240.2 239 236.2 234.4 236.2 237.1 238.4 240.7 243 245.2 246.5 246.8 247.9 247.9 247.2 246.3 242.7 240.5 239.2 238.9 236.9 234.8 234.3 233.3 232.3 231.6 230.6 229.4 228.4 225.1 224.2 220.4 217.7 216.4 215.7 214
341.4 340.9 345 349.8 357.5 367 377.3 388.4 391.9 393.6 397 403.1 407.3 408.8 407.3 403.5 399.1 399.3 398.5 396.9 396.2 395.5 395.8 396.7 401.1 401.9 403 402.9 402.4 401.9 401.3 401.2 401.8 402.4 402.4 401.3 398.1 394.8 391.4 388.1 386 384.6 383.8 382.7 380.6 376.6 372.2 367.9 363.9 362.7 361.7 360.8 361.6 362.1 362.6 364.3 363.3 358.7 352.7 350.5 349.6 351.1 352.6 349.7 346.7 344.5 341 339.1 337.4 337 336.5 334.9 331.4 327.7 325.3 324 322.6 321 320.5 316.2 312.7 313.6 313.2 310.8 306.1 302.1 297.5 295.3 294 290.5 287.9 278.1 275.5 279.9 280.3 277.2 277.4 276.9 274.8 272.6 270.7 263.8 258.7 260.9 257.4 256.8 252.6 244.8 237.2 228.9 224.2 220.1 219.6 218.3 215.5 209.8 209.3 211.5 206.2 202.2 200.7 196.6 193.8 193 193.6 193.9 193.8 196.2 199.3 198.8 200.6 202 204.2 206.4 210.6 211.8 213.6 215.2 214 215.4 217.2 219.8 223.9 228.4 232.7 238.3 239 238.6 237.9 238.7 241.5 241.8 239.9 242 243.2 245.9 250.4 255 256.2 253.1 247.7 244 240.7 240.7 241.3 240.2 239.7 240.3 237.3 238.4 240.1 242.3 244 244.8 245.3 245.7 246.8 247 247.1 246 243.2 241.6 239 238 235.7 234.2 233.2 232 231.2 230.3 229.6 227.3 224.8 225 223 219.6 217.2 216.3 215.8 213.8
338 341.5 348.8 355 366.6 376 385.9 396 400.9 403.9 406.2 411.1 413 412 408.4 405 401 400.8 398.7 396.1 396.5 396.1 395.5 397.7 401.2 401.6 401.8 401.4 399 398.9 397.5 398.6 399.6 400.9 400.5 398.3 395.7 392.2 388.6 386 385.5 383.4 382 380.7 379 376.3 373.4 370.6 366.5 366.7 366 364.6 362.9 363.2 364.8 366.4 365.5 361.9 358 354.1 352.6 353.2 355.3 355.2 349.6 345.2 342.1 340.4 338.3 336.9 334.8 333.9 333.6 328.8 324.5 323.4 321.7 320.3 319.8 320.8 316.3 316.5 316.1 312.7 310.3 305.8 300.6 295.8 292.1 289 281.5 276.9 272.4 269.5 271 275.8 278.3 279.6 279.2 278.6 275.8 265 265.2 256.5 256.8 255.9 250.6 242.3 237.8 229.5 224.2 221.5 215.3 213.3 211.9 209.3 208.5 206 208.4 202.7 200.2 196.1 194.9 195.7 195.3 195 196.2 198.6 201.3 201.7 202.5 203.8 205.7 208.9 213.3 215.9 215.2 218 219.2 220.4 219 220.2 223.9 228 231.7 238.4 239.1 238.6 238.8 243.2 245.8 243.7 241.8 244.9 246.7 244.1 248 251.1 252 250.2 247.5 245.1 242.8 243.5 243.3 242.3 241.7 240.6 239.8 240.5 242.4 242.8 243.2 243.4 244.3 245.1 245.8 247.4 247.5 246.3 244 241.2 238.3 236.3 234.7 233.4 232.1 230.8 229.8 229 227.2 224 220.9 220.3 220.7 218.4 216.2 214.8 213.7 211.9
339.7 346.8 355.4 365 376.5 386.2 394.4 404.4 411.4 415 417.9 417.2 416.5 414.6 408.7 404.8 400.8 398.5 396.6 395.4 395.9 395.7 394 395.7 399.1 399.4 399.9 398.5 396.3 394.9 394.3 394.9 397.1 398.2 396.9 395.5 392.9 389.6 385.9 383.2 381.5 380.4 379.5 378.3 377.2 375.7 373 371.3 368.3 369.2 370.3 368.2 366.4 365.4 367.7 369.7 367.9 363.9 360 356.9 355.6 355.3 355.1 357.3 347.7 345.1 342.7 340.3 336.7 334.8 333.9 331.2 330.5 326.5 325.6 324.7 322.9 321.4 319.9 319.8 319.8 317 316.5 315.7 312 306 300.2 298.6 297.3 293.1 288.8 284.9 277 270.2 264.8 271.2 273.8 275.2 273.8 274.1 269.3 261.2 259.1 256.2 255.6 252.6 239.6 235.2 234.9 231.1 230 221.3 217.9 218.5 214.8 212.5 211.5 211.3 204.5 201.9 200.3 196.6 196.5 200.3 199.2 198.3 199 200.8 203.7 206.2 206.4 208.8 211.5 215 219.6 220.2 217.9 217.8 220.9 223 222.1 224 227.2 229.7 232 235 236.7 238.3 239.8 245.7 245.4 243.9 243.5 245.6 248 246.1 244.6 247.4 249.1 250.3 247.4 247.2 246.5 246.2 244.8 243.8 242.6 241.3 240.9 241.1 242 242 242.4 243.1 244 245 245.5 248.3 247.3 245.9 244.4 240.6 236.5 234.5 232.6 231.5 230.6 229.2 227.4 225.8 224 221 218.1 217.7 216.9 216.5 214.4 212.7 210.7 208.1
344.2 354 364.6 376.8 389.2 395.9 401.2 412 416.7 421.3 423.4 420 415.1 411.5 405.9 402.6 400.4 395 393.1 392.5 393.3 392.2 390.6 391.3 396 396.1 395.5 395 394.2 395.6 393.7 392.6 395.4 393.7 392.6 391.8 389.4 387.5 384.1 380.7 378.7 378 377.2 376.3 375.5 374.9 372.9 371.4 370.3 369.9 371.1 370.8 369.1 368 369.7 370.9 369.7 365.2 361.6 358.4 356.6 355.9 354.2 353.6 347.7 345.7 343.2 340.9 337.9 336.4 334.2 333.1 331.4 326.4 323 322.1 321.3 320.9 320.1 319.5 318.4 315.5 314.5 314.7 309.9 307 304 301 300 296.5 291.4 285.8 277.5 274.3 267.9 263.2 266.2 266.1 264.7 262.7 261.1 257.3 256.2 255 252.3 243.7 232.7 231.2 232 231.6 231 228.5 225.1 220.2 216.3 213.6 212.7 209.5 207.2 204.1 199.1 196.6 197.1 201.2 201.7 200.5 201.5 203.2 206.1 209.5 213 215 217.2 219.9 223.8 223.3 221.2 218.4 223.6 224 224.7 230.1 238.2 239.2 236.7 237.2 239.1 238.9 238.7 245.6 245.5 244.5 246.3 248.5 249.2 250.8 249.6 249.5 249.6 252.1 253.5 252.6 250.9 248.6 246.5 244.3 243.1 242 241.5 239.2 241 241.5 242.1 243.5 244.9 245.2 245.5 246.5 245.7 243.8 241.4 238.3 234.5 232.4 231.1 229.5 228.3 226.1 223.5 222.7 221.5 219.3 216.7 214.1 211.9 212.7 211.2 207.7 206.4 203.7
348.2 360.3 369.5 383.6 391.2 395.5 400.1 407.1 412.4 415.3 418.2 415.9 411.5 407.1 401.5 395.7 392.4 389.9 389.3 388.3 388.6 388.2 388 389 391.9 393.4 392.1 391.8 391.2 391.2 390.8 389.2 391.9 390.8 389.4 388.7 387.1 385.2 382.5 379 375.8 374.7 374.8 373.8 373.1 372.9 372.8 372 372.5 372.8 373.5 372.8 371.7 370.4 371.1 370.8 369.5 367.9 364.1 360.5 358.6 355.8 353.8 351.6 348.7 346.1 343.7 342.2 341.7 340.9 338.9 335.8 332.1 327 323.7 323.2 323.2 322.8 322.3 321.8 321.2 317.5 315.3 311.8 308.2 306.1 303.9 300.6 300.9 296.4 286.8 282.1 280.1 275 266.3 260.9 259.4 259.8 260 256.1 253.9 249.9 245.9 242.3 238.1 233.1 226.2 222.5 221.2 221.1 221 220.1 217.5 221.9 219.5 216 215.3 210.8 206.6 202.6 197.9 196.6 199.3 199.3 198.9 202.4 203.6 206 212.1 218.2 220.4 221.9 222.8 223.5 225.1 224.8 223.5 220.7 223.9 226.1 226.6 233 240.8 246.8 249.1 247.2 245 241.3 241.1 246 247.3 248.1 251.1 253.3 255 255.5 254.9 254.4 255.4 256.8 257.8 256.9 253.8 251.3 248.2 245.5 243.5 242.5 242 240.3 239 240.8 242 243.3 245 245.1 245.3 245.3 243.9 240.7 238.8 236.3 232.3 231.1 230.3 228.6 226.6 224.5 222 221.6 222 218.3 215.1 211.9 209.7 208.1 206.8 205 201.8 199
354 364.6 373.3 379.3 383.8 390 394.9 398.9 403.6 406.9 410.4 410 405.9 401.5 395.1 389.5 386.6 384.6 384.8 382.5 382.7 384 384.2 386.3 388.4 389.9 389.7 389.4 388.1 387.5 387.7 388.5 388.5 386.2 384.4 385.5 384 383.4 379.8 377.4 374.4 373.6 372.5 371.3 370.7 371.1 371.4 371.6 372.4 373.6 374.7 374.1 372.4 371.6 370.5 369.5 368.4 366.4 363.5 360.9 360.7 358.2 354.8 351.7 348.3 344.8 343.8 344.3 345.3 344.4 341.5 338.5 335.9 333.8 328.4 328.6 327.3 326.4 326.5 324.9 321.8 319.4 316.3 312.2 309.7 309.4 303.6 298.3 294.7 294.3 290.6 284.5 281.5 279.1 272.4 264.3 250.4 251.5 246.5 246 240.8 238.5 237 232.9 230.1 227.2 224.3 224.3 222.3 218.1 219.5 216.1 215 214.6 214.9 213.9 213.5 208.6 203.9 199.6 196.4 196.8 205.2 206.1 205.9 201.4 202 206.5 217.5 224.4 225.7 225.8 225.4 224.6 226.5 225 224.2 222.1 223.7 225.7 226.1 234.7 242.4 247 253.2 254 249.5 243.8 244.5 248.9 252.1 254.3 257.3 259.8 259.7 259.3 259.3 259.4 260.2 261.1 261.8 260.1 256.7 253.5 250.9 248.4 246.5 244.9 243.1 242 241.2 242.4 244 245.5 246.5 246.5 245 243.6 242.4 240 237.9 233.6 230.9 230.3 229.4 227.3 224.9 223.8 221.7 220.4 220.2 216.3 213 209.8 207.4 205.4 203.7 201.4 197.7 194.1
359.2 366.1 369.3 373.5 376.5 380.4 385.2 388.2 392.8 397.1 401.9 403.5 400 395.9 389.5 384.5 381.4 379.1 378.7 376.4 377 380.9 381.4 383.8 386 386.3 386.2 385.3 384.2 383.6 383.6 385.1 384.3 381.9 379.7 382.3 382 381.9 379.6 376 373.4 371.8 370.2 368.8 368.8 369.2 369.2 369.1 371.7 374.2 375.5 377.1 377.5 376.1 373.2 371.5 368.8 363.9 360.2 359.2 360 357.6 354 350.3 346.8 344.9 344 344 344.5 344.9 343 340.4 338.8 335.7 334.1 332.8 330.7 328.5 326.9 325.3 321.8 319.2 315.8 314.5 310 305.6 303.4 302.5 300.4 297.4 290.3 288.3 286.4 282.1 275.1 268.7 260.9 251.1 245.3 243.6 237.8 236.1 232.8 232 228.9 224.5 222.5 220.7 218.7 217.1 215.3 214.1 213.3 211.2 211.4 210 206.9 205.2 202.5 196.9 197.5 201 205.8 205.7 206.1 203.9 207.2 216.9 226.1 227.9 227.8 226.8 226.2 225.3 225.3 224.8 224.2 223.6 222.8 225.6 226.4 235.1 243.6 249.7 255.1 255.2 252.5 247.5 248.2 251.3 257.4 261.2 261 261.7 262.8 263.1 262.7 263.2 264.1 265.4 265.7 263.8 261.1 257.9 255.4 253 250.4 248.2 246 243.7 243.4 244.3 245.4 247 246.8 245.5 243.4 242.1 241.4 239.6 238.2 234.2 230.4 229.3 227.8 225.3 223.4 222.8 220.6 219.4 217.3 214.3 210.4 207.7 205.1 202.6 199.5 196.6 193.4 190.6
360.7 364.1 367 367.6 368.9 369 374 379.4 382.4 386.7 391.2 394.7 394.2 390.4 385.5 379.6 375.4 372.9 372 371.9 373.7 377.1 379.9 382.5 383.4 382.1 381.7 381 379.9 380.4 376.9 378.3 379.4 377.9 377.4 379.3 380.6 381.1 380.3 376.7 375.2 374.1 371.6 369.2 368 367.4 366.8 367.8 370.2 373.1 376.5 379.9 381.1 382.1 379.6 377 374.2 369.2 363 358.9 356 353.3 351 349.1 347.6 349.4 349.9 348.2 343.2 343 341.2 340.4 339.5 337.4 336.2 333.8 330.8 328.9 326.2 322.8 321 318 315 312.9 310.4 307.1 303 301.2 299.3 295.5 289.7 290.2 287.2 281.6 273.9 269.4 269 258.9 250.2 249.3 237.4 236.7 234.4 230.2 225.8 222.3 219.5 218.6 218.3 216.4 214.6 213 212.3 210.1 208.8 209.9 210.7 205.5 203 196.3 197.8 205.3 212.1 212.7 211.5 216.7 220.6 223.1 225.5 229.1 230 229.9 227.5 225.6 225.3 225.5 225 224.5 224.7 226.4 227 231 240.6 248 253 253.9 251.5 249.4 252.7 253.3 258.2 260.3 261.8 263.1 263.6 265.5 266.2 267 267.2 269.1 267.7 267.3 265.2 262.5 259.5 255.9 253 250.3 247.3 245.5 245.1 245.1 245.7 245.3 245.1 244.4 243.1 242.7 240.3 236.9 236.7 232 229.2 227.8 225.4 223.5 222.7 221.4 219 216.7 214.6 211.7 207.5 203.7 201.2 199.2 195.5 192.6 191.6 188.9
360.8 363.4 363.8 363.6 363.9 363.7 365.8 370.3 373.4 377.2 382.3 386.1 388 385 380.5 374.9 370.5 368.1 366.8 367.1 369.9 373.8 378.5 381.4 381.5 379.8 378 376.7 375.2 376.8 375.1 371.9 372.6 369.8 372.3 375.9 377.7 377.6 377.3 377.3 376.6 375.4 373.5 371.4 369 366.4 364.9 365.9 368.1 370.4 374.3 378.3 381.1 381.9 382.5 379.6 376.6 373.1 367.9 362.7 358.8 354.9 349.6 345.9 344.1 343.9 345.7 347.2 347 342.5 339.3 338.8 337.6 337.1 336 333.5 331.3 328.6 324 320.9 319.8 318.2 315.2 310.9 307.9 304 302 299.6 297.5 293.9 292.2 288.1 283.8 276.5 272.4 270.9 267.4 256.5 251.8 247.1 243.4 237.4 232.4 226.3 221.8 218.7 216.6 218.6 220.8 215.4 213.9 212.4 211.7 212.5 212.7 213.3 208.8 204.6 200.6 199 198.5 206.4 208.9 210.8 212 220.2 220.3 222.1 225 229.7 231.7 233.5 231.9 228.6 226.2 227 226.7 226.7 225.6 227.3 229.2 228.4 236.1 245.7 251.3 252.8 254 254.6 256 254.2 256.9 260.3 262.2 264.7 265.2 268.2 271.3 270.8 270.9 271.3 270.5 270.7 268.5 265.7 261.4 256.6 254.1 252.1 249.2 247.3 246.1 245.4 245.3 244.6 244.2 244.1 243.3 238.8 235.4 233.3 231.3 229.5 227.9 225.6 223.6 222.5 221.2 219 216.2 213.4 211 207.8 204.5 199.2 196.8 195.4 193.4 190.8 188.9 186.5
362.5 362.1 361.9 360.8 359.5 359.1 360.4 362.4 366.1 369.2 374.8 378.8 380.8 378.3 375 371.1 366.6 364.4 363.7 363.1 366.9 371.2 375.8 378.2 378 375.9 373.7 372.3 370.9 371.9 373.5 370.1 366.9 364.9 368.7 372.1 374.1 374.7 373.9 374 374.4 373.3 371.5 371.3 371.2 366.9 364.3 363.7 365.8 369 372 375.4 378.8 380.7 381.5 381.3 378.1 375 370.5 366.5 362.7 358.6 355.2 350.5 345.1 340 337.1 337.5 338.3 337.7 336.3 335.7 336 335.6 335.3 333.6 331.8 329 324.4 320.6 318.4 316.4 314.2 310 305.3 302.3 299.7 298.1 297.2 292.8 290.9 282.4 278.2 273.5 272.1 269.4 260.7 256.7 254.8 246.7 241 235.2 228.6 223.4 220.3 216.2 215.9 218 216.5 214 212.6 211.2 212.7 212.8 213.6 214.7 207.4 203.3 200.9 199.5 198.7 206.2 209.2 219.5 212 217.3 220.9 222.5 224.3 229.3 233.6 236.6 235.7 232.1 229 229.5 229.5 229.5 226.5 228 229.8 229.3 235 244.3 250.2 254.6 256.4 256.3 257.6 258 257.2 258.5 261.5 265.5 267.2 270.5 273.1 273.7 274 274.1 272.8 270.8 269.3 265.7 262 257.4 252.6 251.2 249.1 247.9 247.1 246.4 245.6 244.7 242.8 239.1 236 235.1 233.4 231.1 228.6 226.9 225.5 224.4 222.3 221.3 220.5 218 214.2 210.1 208.5 204.7 201.6 196.5 194.1 194.2 192.2 188.9 184.8 182.9
364.7 362.8 360 357.9 355.8 354.5 355.4 356.9 360.6 361.8 364.1 370.1 373.1 371.8 369.6 366.5 364.4 362.1 359.8 359.6 363.9 367.5 370.5 372.4 372.5 372.1 369.4 368 365.5 367.3 369.5 368.6 364.9 362.1 365.4 368.5 370.6 372.4 371.2 370 370.2 370.2 368.1 367.6 368.1 368 366 362 365.6 368.1 371.4 376.3 378.2 379.7 380.3 379.7 377.8 374.1 369.7 366.3 362.9 359.7 356.4 349.4 344.9 342.6 340 336.9 333.2 326.5 327.1 330.3 330.2 330.3 330.4 331.3 332.4 330.9 328.1 323 319 316.1 312.4 309 304.5 298.8 296.3 295.9 291.2 287.4 281.5 277.8 274 271 270.4 263.2 258.8 255.4 250.1 244.4 239.9 234 231 224.6 219.4 219.8 219 217.5 215.6 213.7 211.3 210.8 211.4 209.1 209.2 207.9 205.3 202.7 199.8 198.9 199.1 203.3 206.1 208.1 210.8 217.9 220.6 222.5 224.4 229.2 235.4 237.3 237.6 235.5 234 231.2 230.7 228.4 227 228.7 229.6 229.2 232.9 241.5 249.3 256.1 256.8 258.2 258.6 261.2 256.9 257.1 259.3 261.8 267.2 271.8 273.6 274.7 275 274.7 273.4 271.3 268.9 264.8 261.4 257.8 253.9 252.6 251.1 248.7 248 247.2 243.4 241.6 240.4 238.3 236.4 233.8 231.5 229.9 227.3 226.5 224.4 222.5 221 218.9 217.9 216.2 208.6 205.7 203.7 199.8 195.3 192.6 190.7 188.4 186 182.8 181.5 179.2
362.6 359.2 355.2 353.7 352.7 350.9 350.3 353.5 357.1 354.9 357.9 362.1 365 365 364.5 362.5 360.6 358.9 357.3 355.5 356.7 361.2 365.5 366.1 367.1 367.6 365.4 362.9 360.4 362.4 363.5 364.5 362.8 358.8 361.7 364 366.5 368.6 367.1 365.6 365.9 366.2 364.8 363.1 362.4 361.2 359.9 365.5 368.3 371 374.3 378.2 379.7 380.9 378.8 377.1 375.6 376.2 371.9 368.2 364.4 360.7 355.6 353 350.4 345.8 342.8 339.2 336.1 332 323.4 322 321.8 322.6 322.6 322.6 324 324.3 323.1 320.6 320.1 316.9 314.5 311.3 306.3 299.9 290.7 289.7 282.8 278.9 278.1 275.5 272.4 267.3 264 260.2 256.5 254.7 250.2 243.7 236.9 234.7 229.6 224.3 223.9 226 225.5 221.9 217.8 212.6 210.5 210.3 210.7 212.1 208.3 206.1 204.1 201.3 199.2 199.6 200.6 202.7 205.3 208.4 212.9 218 220.8 222.9 224.9 228.5 233.9 237 237.7 236.3 235.9 233.7 230.7 226.9 228.7 230.7 231.2 231.2 231 240.8 248.9 254.2 257.4 260 260.4 260.7 257.7 256.9 259.1 261.2 264.5 270 273.4 271.7 271.5 272.9 272.1 270.5 268.1 263.8 260.8 257.7 254.5 249 248.4 248.4 243.8 242.2 242.1 241.6 239.6 236.5 235.1 233.2 230.9 229.2 226.9 226.6 223.1 221.4 219.5 215.9 214.1 211.9 204.8 200.5 197.2 194.5 191.2 188.6 186.7 183.7 181.2 179.3 178 177.1
356.5 354.7 353.9 352.8 351.2 349.2 348.6 348.3 350.4 350.6 352.1 354.3 358.8 360 360.4 358.3 356.8 355.8 354.9 349.9 352.4 354.7 357.3 358.9 359.7 361.1 359.9 357.6 355.7 356.1 356.8 357.6 358.8 356.5 357.7 359.9 362 362.6 362.2 362.5 362.9 362.8 361 357.8 354.1 358.1 365.5 368.7 371.3 373.9 377.2 381.2 386.1 384.1 379.7 377.4 375.5 373.2 370.7 368.2 364.9 360.2 356.9 359.1 354.6 349.1 343.1 337.5 333.4 328.8 324.1 318.2 318.2 318.1 318.1 317.8 316.4 316.2 316.5 314 312.8 310.3 307 302.2 300.6 296.7 289.3 283.1 279.3 281.2 278.3 274.1 270.9 270.9 264.7 261.4 256.7 255.4 248.7 246 239.3 234.4 235.8 232.9 228.8 230.2 226 221 215.1 212.3 211 210 209.8 212.1 207.6 205.2 203.4 199 199.6 200.7 201.8 203.4 207.2 208.8 213 217.9 220.1 221.9 224.1 227.6 232.8 236.8 236.9 237.1 235.3 234 232.6 230.8 231.5 232.5 233.5 232.9 234.2 239.8 247 252.5 257.4 261.7 262.3 263.7 264 262.5 262.6 263.3 264.4 266.2 267.9 268.3 268.6 270 271 269.1 266.2 262.8 259.7 256 251.8 247.1 243.9 241.6 241.1 241.6 241.6 239.6 236.9 233.9 233.3 232.3 230.8 228.9 226.5 223 219.9 220 218.5 215.7 210.7 206.1 201.1 195.9 193.1 189.7 186.9 184.1 182.3 180.6 178.8 177.9 176.8 175.7
352.3 350.9 349.1 349.2 349.9 347.9 345.2 343 343.7 343 344.8 349.2 353.2 355 356 354 352.6 352.9 352.3 349.1 348.1 349.7 350.8 352.5 354 355.1 354.7 352.5 351 350.4 350.1 350.5 352 354.2 353.6 356 356.6 356.8 358.7 360.3 361 360.2 356.9 349.7 358.3 363 369.1 372.1 374.6 377 381.2 385.5 387.1 385.6 381.5 378.7 375 369.4 367.2 363.9 364.9 364.1 364.8 362.1 357.7 351.8 344.6 337.1 330.4 324.4 319.5 315.4 313 312.3 313.6 313.6 312.1 310.6 310 309.6 309 305.2 302.8 303 295.7 292.2 287 281.7 278.7 279.7 277.4 273.8 271.9 268.9 262.2 256.8 250.9 248.6 244 241.2 238.1 238.1 234 230.7 226.4 224.1 222.4 220.3 217.6 213.1 212.4 212.4 210.6 208.5 205.8 204.5 202.1 200.9 202.4 206.1 207.2 205.7 211.9 213.6 212.9 218.8 221 222.7 224.6 227.4 231.1 235.2 236.5 237.5 237.2 237.1 236.9 236.7 235.9 235.4 237.1 236.8 237.6 240.4 246.8 251.9 259.5 260.4 262.5 264.3 265 264.7 264.5 264.8 264.9 264.8 265.6 265.8 265.6 266.7 267.9 266.4 264.4 261.6 257.9 253.7 250.8 246.7 243.7 241.3 239.9 240.4 240.3 237.7 235 233.5 232.2 230.6 225.7 223.1 219.9 216.4 213.4 210.7 210.4 208.3 203.9 200 196.1 193 189.9 185.9 182.3 179.9 178.9 178.1 176.8 175.4 174.3 173.6
344.1 343.7 343.7 346.1 348.5 346.3 343.3 338.1 335.9 336.1 339.3 342.6 347.4 351.6 351.7 350.9 348.5 349.1 349.2 348.1 341 343.7 347.1 347.2 348.7 349.9 349.3 348.3 347.1 345.8 345.7 346.4 347.9 349.3 350.2 352.5 352.9 353.9 355.3 357.4 359 357.9 351.7 350.6 360 365.7 370.8 374.8 377 380.5 384.8 389.4 388.4 384.7 379.5 375.9 373.8 369.6 366.9 366.1 365.4 367.1 368 364.6 359.4 352.9 345.3 337 329.5 322.8 317.3 314 309.6 309 309.5 311.6 308.1 307.2 306.1 307.4 306.1 306.2 301.5 296.4 292 288 282.4 284 280 275.6 274.5 272.7 269.9 262.9 257.6 251.4 245 241.9 238.9 236.4 238.1 233 228.8 227.6 227.7 226.6 223.7 220.7 218.7 214.7 213 213.7 211.3 207.1 204.3 203.3 202.2 201.1 204.3 211.8 214.8 215.3 218.6 218.7 216.4 217.8 220.4 222.3 224.5 228.1 230.2 233.2 235.5 238.9 239.1 240.9 242 241.5 240.6 241.1 242.4 244.5 244.1 245.5 248.8 255.4 259.4 260.6 260.6 261.6 261.4 260.3 260.1 261.4 262 263.6 263.4 263.4 262.9 263.8 265 263.3 261.7 259.4 254.8 250.8 247.9 245.1 243.8 243.2 240.4 237.9 237.5 235.1 233.2 231.2 229.4 225.6 220 217.1 214.6 212 209.1 206.1 203.5 201.1 197.9 194.3 191.5 188.6 186.4 183.2 180.8 180.8 178.2 176.8 174.6 172.4 171.4 170.9
324.1 328 327.6 333.8 339.2 341.1 340.1 335.8 328.8 329.2 333.4 337.5 342.6 347.5 349.3 347.4 344.8 344.6 344.9 345.3 338.9 336.4 340.5 341.2 344.2 344.7 344.4 343.8 342.5 341.6 342.1 341.8 343.1 343.4 341.8 349.7 350 350.4 351.6 353.5 355 354.3 343.2 352.1 362 367.4 372 376 379.2 382.9 386.8 389.3 389.5 384.3 377.8 372.5 369.6 367.5 366.5 367.5 369.9 371.8 370.6 365.3 359.9 353.6 348 338.4 329 322.1 315 310.6 308.1 303.7 301.7 303.8 301.8 301.3 301.4 303.4 302.1 295.1 291.5 287.6 284.7 281.3 277.5 280.8 279.6 274 271.1 268.1 264.1 257.5 255.6 249.9 244.1 243 239.6 238.1 234.9 225.6 224.8 227.8 230 229.3 225.1 220.9 217.5 214.3 213.5 213.8 211.8 208.4 206.1 203.4 199.9 207.6 210.5 211.1 218.1 219.8 224.3 222.7 220.4 218.4 218.8 221.7 225 228.7 230.1 231.2 233 236.3 242.3 246.8 247.1 248.8 246.3 247.4 249.5 249.9 251.9 253.3 256.3 258.8 259 258.7 259.3 260.1 259 257.7 257.5 257.8 259.3 261.7 261.3 260.9 260.3 261.2 261.7 258.5 254.7 251.4 248.6 247.1 246.3 243.9 242 241.1 240.3 235.7 234.2 231 229.1 227.7 224.9 220 214.4 213.2 210.6 207.7 204.5 201.5 198.6 196.8 194.5 190.3 187.3 184.5 183 181.8 180.3 180.1 177.9 175.9 174 172.1 170.1 168.7
302.4 302.5 305.2 310.9 319.8 325.8 326.8 328.5 322.7 322.9 330 334.4 339.5 344.4 346.3 345.8 341.9 338.8 339.2 340.3 336.6 330.3 334.9 336 338.4 339.1 338.6 338.4 338.9 337.4 338.3 338.1 337.9 338 338.8 341.6 346.3 348.1 348.5 349.2 350.7 345.3 344.7 354.1 360.6 366.1 370.8 373.5 375.7 378.3 382.4 385 384.5 381.4 376.6 369 365.5 364.7 364.5 369.1 373.9 377.1 373.9 366.9 362.3 353.7 348.8 340.3 330.6 323.1 314.9 307.6 304.3 303.1 296.2 293.5 292.3 290.1 292 297.6 296.6 289.4 283.8 280.7 278.3 277.1 275.6 277.1 274.5 270.4 265.9 261.4 256.4 254.8 252.9 248.9 245.6 244.9 240.1 230.2 231.6 229.8 221.9 225.9 229.2 228.3 225.6 220.7 216.7 212.3 212.5 213.6 212.7 209.9 205.6 201.8 202.6 213.8 218.7 217.3 216.9 221 224.2 225.1 221.1 219.9 221.6 223.6 224.8 226.8 228.4 230.5 232.6 235.7 241.1 249.1 250.5 253.1 251.7 252.9 255 257.3 259.8 261.5 260.5 260.4 258.1 256.3 256.7 257.8 256.4 255.2 254.8 254.2 256.5 258.3 258.5 256.7 254.3 256.1 253.7 251.2 247.1 243.7 241.7 241.7 241.9 240.8 239.7 238.6 237.1 233.5 229.1 225.6 223 219.8 216.7 215 209.6 209.2 206.1 203 199.8 196.8 194.6 191.7 189.8 187.2 184.5 183.3 181.4 179.8 180 178.9 177.3 175.5 173.6 171.8 169.8 169.4
288.7 289.7 290.1 291.8 296.7 305.1 312.3 309.3 309.5 325.4 335.4 339.4 340.6 342.6 344.1 343.7 342.7 336.9 333.8 334.5 332.8 327.8 327.1 330.2 332.1 332.9 332.7 333.3 334.3 334.5 335.8 335.6 334.3 334.3 335.8 337.1 338.9 342 343.3 345.1 344.5 337 346.1 354.3 358.8 363.9 367.7 370.1 370.7 374.3 377.3 380.4 379.6 377.2 371.8 366.9 362.3 362 363.1 371.1 378.7 380.3 373.6 363.8 356.4 349.9 343.6 336.5 330.6 324.8 318.6 312.6 309.8 304.9 302.6 299.2 300 299.3 295.3 291 288.2 283.1 278.4 277 275.4 274.3 272.5 274.7 271.2 264.3 260.7 257.1 252.2 251.4 249.2 247.5 244.1 240.5 234.8 231.9 224.2 221.7 221.2 219.4 223.7 224.3 223.1 219.1 213.8 210.9 212.4 213.1 213.2 207.6 201.9 201.9 211.1 221.7 222.8 221.3 219.4 220.4 223 225.1 225.8 222.7 223.7 226.9 230.2 231.6 231.6 230.7 233.4 236.5 241 247 252.1 253.8 255.5 257.9 260.9 262.4 263.3 265.4 263.5 261.1 257.8 255 254.2 255.6 254.2 253.7 253.6 255.2 255.7 256.3 255.3 251.2 249.9 248.7 247.1 243.6 238.9 239 237.9 237.6 237 236.1 235.6 235 233.4 228.8 223 218.8 216.2 212.7 213.3 211.4 205.2 203.7 201 198.2 195.1 192.9 191.1 188 185.2 185.7 183.8 182.6 180.6 181.2 180.2 177.1 175.5 174.5 172.7 171 169.8 170.7
275.5 277.9 279.6 280.4 281.6 286.5 292.8 295.3 306 321.8 334.6 340.9 342.7 345.6 344.2 342.9 343.8 337.2 329.9 330.5 329.8 326.2 320.1 324 325.6 326.2 327.1 328 328.5 328 332 331.3 330.3 330 330.6 331.8 333.7 335.5 337.5 340.4 341.7 333.7 341.8 349.7 354.5 359.3 363.7 364 364.5 367.6 370.8 374.9 374 371.7 366.9 362.7 359.3 360.3 365.6 375.8 377.2 376.5 367.1 358.1 350.8 344.2 336.8 331.6 329.4 324.7 319.6 316.9 314.7 310.9 309.5 306.7 303.1 300.2 290.3 281.5 284.9 276.7 274 272.9 270.7 269.7 269.3 268.6 264.8 259.8 256 252 248.8 247.6 246.7 242.6 241.3 235.9 232.4 228 222.4 218.9 219 216 216.8 222.1 222.3 218.2 211.5 210.3 211.1 211.9 211.6 202.4 202.8 208.4 220.1 224.5 224.7 224 222.4 221.4 223.1 226.5 227 223.5 228.4 232.1 235.2 236.5 236.4 234.1 233.6 236.5 241.5 249 253.8 256.7 259.5 260.8 263.7 264.7 266 266.2 264.1 260.8 257.3 255.1 254.4 254.2 253.8 253.3 253.7 254.5 255.3 251.1 248.2 247.6 247.1 245.9 243.9 240.5 237.6 236.3 234.6 232.7 231.7 229.3 229.3 230.1 227.3 223 217.3 212.9 209.8 207.7 206.9 205.2 200.5 197.9 195.3 192.9 191.3 189.4 187.5 184.2 181.8 182.1 181.7 181.3 180.9 179.8 178.9 175.7 173.5 172.8 171.3 169.9 169.6 169.4
266.8 266.6 267.8 269.9 272.9 276.4 280.3 290.3 297.7 308.7 321.6 335.1 339.8 346.3 344.8 341.2 337.6 332.7 326.2 325.7 326.6 322.1 316.1 316.2 321 321.9 321.3 322 321.8 322.7 326.2 327.1 326.3 325.9 326.8 328.2 329.5 331.2 334.5 337.2 339.3 330.8 337.3 344.7 348.9 353.3 356.2 357.9 357.7 360.1 362.9 366.6 368.6 366.5 362.8 358.7 356.8 361.8 370.3 374.3 371 366.1 360.7 352.7 344.5 338.6 332.7 326.9 326 325.5 324.5 324.2 322.2 322.6 316.9 313.2 304.1 296 289.3 282.2 279.2 274.4 272.2 269.5 265.4 261.2 262.8 263.7 259.1 256.4 252.3 247.4 242.4 240.1 238.8 234.5 234.8 232.6 230.8 230.5 225.4 218.4 218.4 216.2 215.1 218.2 217.7 214.4 212.2 211.1 209.4 206.6 203.2 203.6 210.5 221.2 224.9 226.9 227.8 228.6 225.1 224.3 223 227.6 229.4 229.3 233.6 239.2 241.8 241 239.2 236.9 235.2 237 240.4 247.4 252.9 258 261 262.5 264.6 266.3 268.1 266.7 263.8 259.2 256.6 254.6 254.2 253.7 253.2 253.1 253.2 253.7 252.5 249.5 247.1 245.7 244.7 243.3 241.2 239.1 237.7 235.4 232.9 229.1 226.3 223.4 223 224.2 219.9 217.4 214.4 209.5 204.1 202.3 200.9 198.8 195.5 193.1 190.7 189.5 188.2 186.5 184.5 180.9 179 180.2 181 179.1 177.5 177.2 176.3 174.2 173.4 172.1 170.8 169.1 166.6 167
268.2 266.3 265.8 265.4 265.4 268.2 272.1 278.5 284.4 292.1 302.8 312.6 324.2 335.5 338.8 335.5 333.3 328.4 322.4 320.7 322.4 318.5 314.5 312 317.9 318.9 317.2 316.6 315.8 318 321.2 321.4 320.4 322.1 324.5 325.4 325.9 328.1 331 333.2 335.5 329.4 337 340.3 342.4 346.1 348.9 350.5 351.2 352.5 353.7 356.7 360.9 360.4 357.6 354.1 356.3 363.8 371.9 371.8 365.5 359.1 352.6 347.1 338.4 332.6 327.3 324.2 324.2 324.7 325 325.3 324.5 323.2 318.4 313 303.7 296.5 291 284.5 279.3 275.3 273.7 271.5 267.2 263.8 258.5 254.7 255.4 259.1 256.3 249.8 238.5 236.2 235.4 233.6 231.5 229.5 227.9 225 223 218.9 218.2 215.4 213.1 214.3 213.7 212.2 209.4 208.9 206.3 205.3 204 213.3 220.5 225.4 228 228.3 230.7 230.7 230.4 225.4 224.7 228 229.3 233 238.8 243.6 244.6 244 241.9 239.7 239.7 240.2 243.1 248.1 252.7 257.7 261.5 264.8 266.1 266.4 266.4 265 262.4 259.1 256.9 254.6 253.8 253.1 252.8 253 252.2 250.4 245.6 244.4 243.8 242.8 242.3 240.8 239.2 236.7 234.1 232.4 229.7 225.5 221.5 218.2 217.7 220.2 216 211.7 209.4 205.6 199.6 197.8 196.4 194.2 191.8 189.6 187.8 186.6 185.2 183.6 181.5 178.5 178.9 181.1 180.8 180.3 179.2 178.2 176.5 174.3 173.2 171.9 170.7 169.2 167.9 165.6
275.7 271.8 269.2 268 266 264.2 264.7 266.9 272.5 276.6 285 293.5 301.5 311.1 328.8 330.3 327.1 324 319 315.6 315.6 313.2 310 305.5 313.7 316.4 311.7 308.7 309.5 315.1 315.8 314.3 316.3 322.3 323.3 324.7 322.5 326.4 329 330.1 331.2 324.3 332.5 335.2 335.7 336.8 337.4 341.4 343.1 345.4 347.8 349.8 352.9 353.5 351.8 351.1 355.4 363.3 371.8 369.4 363.4 359.2 348.6 337.8 332.4 325 322.1 320.5 321.3 322.2 322.7 322.4 322.4 323.1 318.1 312.2 306.1 298 292.9 288 280.2 276.7 274.1 271.4 267.6 267.1 264.6 256.5 249.9 257.4 253.1 247.1 240.5 236.5 234.1 231.8 230 229.1 229.7 225.5 220.6 218.3 217.2 216.2 211.7 211.5 212.5 213.1 207.7 204.9 204.7 204.7 209.7 218.6 225.3 229.1 229.7 229.8 231.3 230.8 230 225.5 227.1 230 233.3 237.7 242.2 245.3 246.2 247 245.4 243.7 245 245.8 248 250.9 254.7 259 262 265.4 266.5 266.6 265 262.5 260.7 257.9 255.4 253.8 253.1 252 251.8 250.4 249 243.1 241.1 240.7 240.4 238.1 236.8 236.4 235.3 232.3 229.1 228.1 225.8 221.9 217.8 215.8 213.9 215.8 212.5 207 204.9 201.3 197.1 194 192.9 191.4 188.6 186.3 184.9 183.7 182.4 180.9 179.3 177.9 180 180.8 181 180.9 180.4 179.6 177.6 175.1 173 171.6 170.1 168.8 167.5 165.7
