ncols 200
nrows 82
xllcorner 320000
yllcorner 292900
cellsize 50
103.5 97.6 96.3 97.3 105.8 120.9 123.9 128.7 134.7 140.9 145 146.6 144.3 146.5 151.8 147.1 139.5 133.6 129.9 127.6 127.3 129.9 134.4 139.2 143.4 143.3 153.2 162.4 169.9 176.9 185.8 204.7 219.1 228.5 242.7 241.2 223.8 190.3 161.8 149.5 142 140.7 136.8 137 133.4 128.2 129.1 131.3 133.1 132.5 131.9 131.2 130.3 128.2 127.6 125.4 125.2 126.1 128.7 130.1 130.9 132.5 134.9 136.5 136.4 133.6 130.4 129.2 123 118.2 125.5 131.3 132.3 132.2 131.8 132.3 134.3 136.5 138.6 138.4 137.2 136.3 134.1 131.5 129.3 126.8 127.8 129.5 131.6 130.2 126.4 123.5 122.3 122 122.3 125.9 129.5 130.7 128.5 123.9 121.2 121.6 121.9 122.6 124.4 126.8 129.9 131 131.2 131.5 131 128.8 124.4 118.6 118 117.5 115.6 114.4 113.6 113.3 113.2 113.9 113.7 114.8 117 118.8 119.2 118.5 117.7 116.9 119.3 121.5 121.1 120.1 121.2 123.7 126.2 128.1 128.8 130 133.2 138.8 141.9 142.9 141.8 129.9 110.2 112.5 137.4 155.5 162.7 165.9 165.5 168.9 171.5 174.7 178.1 181.5 179.6 176.3 172.2 168.2 156.8 165.7 169.9 173.2 173.7 175.8 178.1 180.9 184.2 188.6 192.9 194 194.4 198 203.3 208.3 212.5 216 219.6 226.9 231.7 238.5 246.6 256.1 268.7 283.2 295 305.2 318.4 331.2 337.4 343.4 348.9 356.9 374.7 390.8 388 377.8
98.2 97 102.8 101.7 100.7 112.4 124.2 130 135.3 140.2 140.8 141 142.7 148.2 145.2 137.5 134.8 131.8 127.6 127 128.9 133.9 139.5 145.1 151.5 151.3 156.4 168.6 176.5 181.2 204 218.8 228.1 240.2 247.3 238.4 221.1 189 170.5 159.9 153.6 164.3 184.2 172.5 143.7 132.8 129.8 132 133.2 134.5 134.3 133 131.4 128.9 128.1 127.4 128.8 131.4 132.6 133.2 133.8 135.7 137.2 137.7 135.4 132.8 130.5 127.8 120.1 124.4 130.3 131.8 132.2 134.4 134.2 134.2 137.3 139.7 140.6 139.3 137.6 135.8 134 131.6 129 126.8 128.3 130.1 131.4 129.3 124.9 122.9 123.9 125.6 128.5 132.5 133.3 131.2 126.5 122.3 121.2 121.2 122 124 127 129.5 131.9 131.1 130.3 130.3 128.6 122.5 119.3 121.6 122.6 122.1 120.2 118.3 116.3 115.3 115 115.4 115 114.1 118.6 119.7 118.8 118.1 117.3 116.9 118.6 120.5 121.1 120.9 121.3 123.5 126.2 128.1 128.6 129.2 132.8 137.5 140.3 141 142.2 141.7 110.7 111 135.2 155 165.2 169.4 173.3 173.9 174.3 176.6 179.7 181.7 179.4 175.1 171.2 166 156.6 165 170.6 176.2 178.8 177.6 178.8 181.6 185 189.3 193.6 197.7 195.8 199 204.4 209.1 212.8 216.6 222 228.6 234.5 240.6 249.1 258.8 270.9 286.9 303 315.6 331.5 348 362 373.2 381.5 382.6 396 401.7 395 384.1
98.3 99.8 111.4 107.3 101.5 108.4 123.4 130.5 133.6 135.1 135.7 138.7 144.3 141.4 134.4 132.5 131.8 129.4 130.8 135.2 135.5 140.5 146.4 153 163.7 159.8 159.4 170.3 179.9 188.5 210.1 220.7 233.6 241.5 242.2 234.5 212.9 196.2 182.6 173.8 167.8 176.1 193.3 187 158.9 136 132.2 132.6 135 137.1 137.6 135.8 133.7 131.1 129.3 129.6 130.7 132.8 135.5 135.8 136.4 138.3 138.6 137.2 133.1 129 126.5 125.1 121.4 129.4 131.5 131.8 132.3 133.9 134.9 135.5 138.1 141.5 141 139.8 138.4 136.8 134.8 131.4 128.2 127.2 128.2 129.7 130.3 127.6 124.8 124.1 126.5 129.9 133.3 133.9 133.5 130.9 127.1 125.6 123.7 124.3 125.2 128.1 130.4 132 129.2 126.2 125.3 125.5 123.3 122.6 126.1 127.3 125.3 125.2 122.8 121 121.1 119 118.5 118.2 118.3 117 114 118 117.9 117.3 117 117.1 118.5 120.5 122.3 122.1 122.2 123.6 126.3 128.1 128.6 129.1 131.6 135 138.7 140.8 142.8 142.6 123.9 110.5 130.1 146.4 161.9 169.4 173.3 175.6 176.7 178.4 181.3 181.8 179.7 175.8 171.9 164.3 155.3 164.1 170.7 176.6 180.2 179.4 180.3 182.4 185.7 190.2 194.8 198.9 198.1 200.1 204.8 209 212.6 218.2 222.7 229.4 236.3 244.9 254.2 266.5 280 295.1 311.3 326.1 342.4 364.3 382.8 393.8 401.4 399.1 405.1 404.5 395.9 389.2
100.9 105 112.5 102.8 103.7 109.7 122.2 129.3 130.1 131.9 135.6 139.6 138.3 132.6 129.9 128.7 128.5 131.7 137 140.7 143 147 154 164.3 166.1 158.7 162.7 174 181.2 194 206.7 223.3 234.8 237.9 235.9 219.3 210.1 201.1 191.1 183.3 179.8 182.2 199.7 197.2 165.5 143.1 137.1 136.6 139 141 140.2 136.7 134.9 131.5 133.4 133.3 133.6 133.3 135.1 136 137.2 137.9 137.4 135.4 131.6 127.5 127.1 128.2 127.3 123.3 126.6 132.4 133.4 134.2 133.9 134.9 137.2 139.5 139.9 139.7 139.5 138.1 135.2 131.4 128.3 127.3 127.6 129.1 129.1 127.2 125.8 125.9 128.3 130 131.7 132.7 131.8 131.4 131.5 132.4 131.3 131.1 130.9 132.7 132.1 128.3 124.4 123.9 124 122.9 124.1 129.2 131.6 129.5 127.6 123.9 121.8 121.5 121.1 121.1 120.1 119.2 118.8 117.7 115.1 116.6 117.5 117.5 117.4 117.5 118.4 120.8 122.9 123.4 123.2 124.5 126.5 128.1 129.3 129.8 131.4 135.7 139.3 141.1 143.1 143.8 127.2 119.3 131.2 147.3 159.4 169.4 174.6 178.1 179.4 180.9 182.9 183.7 181 176.8 172.4 163.6 152.9 161.8 168.9 175.5 179 179.4 180.6 183.2 186.8 191.4 195.6 199.2 199.5 200.7 204.8 209 211.5 216.1 222 228.8 239.7 252.7 264.5 275.6 291.9 307.6 321.3 336.1 355.6 374.1 392.7 410 414.9 407 406.1 400.7 394.9 391.6
102 107.7 104.3 101.7 105.6 115 122.5 128 131 133.1 134 134.5 130.9 128.4 127.7 127.5 129.4 136.2 141.3 145 148.5 153.9 162.6 169.7 164.5 165.6 166.4 175.7 186 202.2 214.2 224.9 231.2 229.9 216 216 211.2 205.7 200.1 192.6 191.3 189.8 197.2 199.7 165.7 146.4 140.9 142.5 149.2 148 143.2 138.3 135.1 133.5 136.4 137.2 136.7 135.2 135.5 136.1 138.3 138.5 136.3 133.3 130 129 130.1 131.2 131.4 131 126.8 128.2 133.4 134.2 134.3 134.6 135.3 135.8 136.3 138 138.2 136.9 133.4 129.9 128.5 127.7 128.2 130 130 128.3 126.8 126.9 127.8 129 130.3 132.1 132.4 132.2 134.5 137.4 137.3 135.8 135 132.3 126.9 126.5 126.7 125.6 124.8 126.3 128.4 131.7 131.4 129.9 126.2 122.3 121.1 120.9 121 120.3 119 118.3 117.6 116.4 115.5 116.2 117.1 117.7 117.8 118.2 118.9 121.2 123.5 124.1 124 125.6 126.2 128.4 130.5 130.7 132.1 136.4 140 141.4 143.2 145.5 116.5 112.8 127.3 144.7 159.9 171.9 177.3 179.8 181.8 183.7 185.4 186 181.6 175.4 170.4 162.8 154.3 154.4 168.1 174.3 178.9 179.9 180.8 183.9 187.4 191 194.5 198.1 200.6 201.5 205 209.1 212.7 218.1 223.8 230.4 241.7 259.6 274.8 284.7 298.9 315.7 334.5 352.3 369.4 385.6 402.6 416 420.9 408.3 403.8 397.8 394.5 394.2
102.1 105.9 101.8 104.5 113.6 124.3 129.8 133.5 134.7 133.2 131.1 129.3 127.9 127.3 127.6 128.6 134.2 140.2 144.6 148.3 151.3 156.8 162.6 168 167.5 171.3 171 178.2 192.9 205.6 222.4 227.4 224.6 216.4 216.1 215.5 213.5 213.3 207.5 202.8 200.6 199.9 201.1 198.1 163.1 148.7 146.5 154.9 157.5 154.9 146.2 140 136.2 135.2 136.7 137.9 138.8 139.5 140.7 141 139.8 139.1 137 134.8 131.6 131.9 131.8 132.6 132 129.9 127.8 131.3 132.7 133.9 134.4 135 134.7 134.3 134.2 135.2 134.6 133 130.1 128.7 128.1 128.4 130.5 132.2 131.5 130.2 128.2 127.7 128.2 129.4 130.8 132.1 132.8 133.6 136 137.8 137.1 135.8 131 127.5 130.6 131.7 130.5 129.2 128.8 130.1 132.1 132.3 130.3 127.4 125 122.2 122.2 123.4 123.6 122 121.1 118.3 117.3 116.8 116.3 116 117.7 119.3 120.1 120.7 120.6 122 122.8 124.3 125 124.3 124.8 127.4 130.4 130.6 132.4 136 139.7 142.2 143.3 125.6 112.7 115.7 119.9 138.1 156.7 172.8 177.5 180.5 181.9 183.2 186 184.8 180 174 168.3 158.5 148.7 153.4 169.1 175 179.5 180.2 181.2 183.7 186.4 189.6 193.4 196.9 199.5 200.9 205.1 209.2 212.8 219.9 227.7 234.2 243.5 261.2 280.4 292.9 307.2 325.7 344 361.9 383.5 400.6 411.2 417.6 417 406.6 400.4 395.2 391.5 392.6
106.4 105.2 101.8 109.4 124.1 131.4 135.9 137.4 134.8 132.3 129.1 128.1 127.3 128.1 129.2 131.9 138.5 144.2 148.8 152.5 156.9 161.3 165 169.3 171.7 176.1 175.9 185.7 201.8 217 227 223.6 218 217 219.9 220.6 219.6 215.7 214 214.9 213.3 203.8 205.7 196.5 161.7 152.5 154.5 159.8 159 153.6 147.2 141.2 137.3 137.7 139 140 142.3 144.2 145.8 146.4 145.2 143.8 140.1 136.5 133.3 131.4 129.8 128.8 128.8 128.9 131 134 134.8 135.1 135.3 136.1 135.3 134.1 132.8 132.5 131.4 130.4 129.6 129.5 129.2 130.7 132.7 134 132.9 132.2 130.5 129.4 129.2 129.3 130.1 131.3 132.9 135.8 137.3 136.6 134.4 132 129.4 133.9 136.1 135.7 134.4 132.9 132.5 132.5 133.7 131.7 128.2 124.9 123.5 122.8 124.3 126 127.1 125.4 122.6 119.8 117.8 117.4 117 116.8 117.7 118.7 121.1 122 122.4 122.4 122.9 124.9 126.1 125 124.3 126.3 129 131 131.3 135.1 139.4 143 133.7 113 114.1 122 123.4 131 146.3 162.9 176.8 180.4 181.7 184.1 187 184.9 181.5 174.8 167.8 157.3 152.7 159.4 167.7 173.7 179.2 181.2 182.1 184.4 186.3 189 192.2 195.4 197.7 200.4 204.3 207.2 211.7 223.4 232.6 244.3 252.3 270.6 284.6 298.4 316.1 335.6 353 375 395.5 411.2 411.4 409.3 406.8 403.5 396.9 391.5 386 389.3
109.6 104.9 102.3 115.2 130 135.3 141 139.9 135.9 132 128.3 127.5 127.2 129.5 131.3 134.5 141.2 147.8 155.7 161 166.7 167.2 170 171.7 174 176.6 179.7 189.4 211.4 222.1 223.1 221.6 221.8 221.4 225.4 226.9 225.5 223.5 228.4 223.5 214.8 207.6 207 188.4 163 158.1 163.7 164.3 161.4 153 146.4 141.6 138.2 139.2 141.4 144.5 146.6 147.9 149.5 148.4 144.8 140.9 137.7 135.3 132.8 132.5 133.1 131.9 130.3 132.8 134.6 135.8 136 135.7 136.3 137.4 136.2 134.8 133.8 132.8 131.6 131 130.9 130.8 131.5 132.5 134.6 136.5 136.2 134.4 132.8 131.7 129.5 129.4 129.9 130.5 132.7 136.4 138.6 135.5 132.6 130.5 133.6 137.8 139.3 138.2 135.9 133.5 132.3 132.3 131.1 130.6 127.1 125.5 125.1 126 127.2 128.9 127.3 125.1 122.5 119.7 118.6 118.8 118.3 117.7 118.1 118.2 119.8 121.5 122.3 123.5 124.4 125.6 126.7 125.4 124.1 125.7 127.2 129.1 131.5 135.4 139.6 143.2 131.2 113.8 115.3 128.2 134.1 133.6 139.6 161.3 176.2 180 181.5 186.1 189.8 185.8 182.6 176.8 169.2 159.2 150.9 163.5 168.9 174.2 180.7 183 184 185.9 187.1 188.9 191.8 195.4 199.2 201.5 203.6 207.5 212.7 222 232.4 255.4 267.8 278.8 292.1 305.9 325.1 344.7 364.4 384.2 391 397.4 399.7 401.5 405.8 400.7 392.3 385.9 378.1 386.4
109.2 104.9 106.9 118.2 134 139.9 143.3 140.6 137.1 132.3 128.3 127.4 128.2 130.5 133.4 136.7 143.3 152.9 159.4 166.5 173 177.1 174.5 174.1 176 179.4 182.7 190.4 208 210.5 215.6 221.6 221.9 224.1 228.7 231.6 231.8 236.5 235.7 229.4 221.1 212.1 204.2 184.2 163.4 161.7 167.1 171 166.1 156.6 149 144.2 141.1 139.6 143.2 145.6 147.4 148.7 148.7 144.9 139.6 135.8 134.6 134.6 134.6 136.1 135.5 134 134.2 135.2 135 136.7 138.6 138.5 137.9 137.9 137.2 135.7 134.4 133.4 132.9 132.6 133.7 133.8 134 134.9 136.5 138.3 137.7 134.3 131.2 130.3 129.6 129.6 130.1 131.3 134 137.2 137.9 134.6 131.6 132.7 137.6 140.8 140.3 137.3 134 131.8 130.4 130.8 133.4 133.8 131.6 129.3 128.8 129.7 130.2 128.5 125.6 122.9 121 119.8 119.7 120.2 120.4 120 120.3 120.2 119.1 119.5 120.2 122.1 124 125.9 126.4 125.5 124.4 125.2 127.9 129.6 131 135.8 140.5 143.6 141.2 113.4 112.5 148.2 160.4 155.9 140.4 158.7 177 179.6 182 187.7 190.1 186.8 183 178.5 171.1 160.2 146.9 164.1 169.8 175 180.4 184.2 186.2 187 187.8 189.3 193.9 197.9 200.1 200.7 203.8 207.3 212.4 221.2 241.2 258.9 273.4 284.1 295.4 311.5 331.2 352.2 369.1 373.9 376.9 381.5 383.6 398.5 407.7 395.7 388 377.5 373.8 382.4
107.1 104.9 108 118.4 136.1 140.4 145.4 145.5 140.8 134.3 128.8 128.6 130.1 131.6 133.7 138.7 146 155.8 164.9 170.3 179 180 175.7 176.2 179.9 185.1 185 190 199.9 207.7 213.5 218.6 222.7 226.5 231 236.5 238.4 243.2 241.3 232.8 224.8 214.5 198.6 181.8 165 163.9 170.1 172.7 166.5 156.9 150.8 144.5 142.5 142 142.4 144.2 145.8 147.7 148.3 144.3 138.9 135.2 134.6 134.6 134.6 134.6 137 136.5 136.3 136.2 136 137.7 140.2 140 137.8 138.1 137.3 137.4 137 135.4 135.1 135.6 136 136.5 137 137 137.6 138 135.9 132 130.3 130.9 129.7 131.1 132 134.9 135.5 137.9 135.7 132.8 132.7 135.1 140.6 140.4 139.6 136 132.5 131.3 130.8 131.7 134.6 136.5 136.1 133.8 133.1 131.1 129.6 126.8 124 122.3 121.5 120.8 120.6 121 121.6 122.5 123 122.2 121.8 121.5 120.9 121.8 123.3 125.2 126.2 126.2 124.9 125.5 128.7 131.5 132 135.2 139.5 143.3 146.3 119.6 113.3 145.7 163.3 164.7 147.2 157.6 176.5 179.8 182.5 186.1 190.9 187.2 181.9 175.5 170.5 158.7 144.9 162.7 170.5 175.1 178.7 183.1 186.6 186.3 187.3 189.6 194.5 197.1 199.2 200.5 204 208 213.1 227.6 242.2 259.3 270.2 280.1 291.3 308.7 329.1 346.4 358.6 354.6 358.1 362 371.2 399.8 408.7 391.9 383.7 370 371.5 379.3
107 105.4 108.1 119.6 134.5 141.3 148.7 148.5 144.3 136.2 130.7 130.1 131.6 132.7 134.6 138 144.9 155.8 163.1 169.5 175 177.8 176.6 182.3 187.6 189.5 193.3 197.1 201.9 208.3 214.2 220.2 224.2 229.3 235.3 240.5 244.1 249.6 247.9 237.5 229.9 211.4 188.4 174.9 167.6 165.9 170.7 173.7 167.1 155.7 148.4 144.9 143.4 142.3 142.7 143.4 144.2 145.5 145.7 143.8 138.5 135 134.6 134.6 134.6 135.1 137.2 137.8 138.1 138 138.2 140.7 141.3 139.6 137.7 138 138.6 138.5 138.4 137.4 137.2 137.2 137.3 137.5 137.9 137.4 137.2 137.2 135.1 132 130.4 130.1 131.1 134.6 137.1 136.9 136.6 135.3 133.2 133.3 134.4 138.9 141.9 140.3 137.4 133.9 132.2 131.9 131.9 133.1 135.8 138.5 138.6 136.6 133.8 131 127.8 125.1 123.8 122.7 121.9 121.7 121.6 122 123 123.7 125 124.6 123.9 122.6 121.4 122.5 123.4 125 126 126.4 125.6 126 129.1 132.5 132.8 134.9 139.3 143.8 148 129.3 112.8 137 161.8 172.8 161.7 159.2 175.6 180 182.1 185.6 190.8 186.7 180.5 172.9 167.7 148.3 147.2 164.5 169.8 174.8 177.7 182.2 185.9 185.2 187 190.2 193.6 195.3 197.4 201 205.3 209.6 216.3 229.9 239.4 249.4 265.4 274.5 284.6 301.3 318.2 331.3 341.1 336.1 337.6 340.4 359.6 391.3 396.8 385.7 377.5 363.8 366.1 373.4
106.1 106.1 110.7 119.5 129.2 140.1 147.8 146.8 142.9 137.9 133 131.6 132.9 133.9 136 138.3 143.8 150.3 156.7 164.4 168.4 175.4 180.6 188.2 190 193.6 200.9 206.4 209.7 212.8 216.5 221.9 227.9 233.9 242.6 245.4 251.2 256.2 257 246.7 234.3 210.3 187.5 175.8 169 167.3 172.2 171.5 166.7 158.2 151.6 145.8 144.9 144.2 143.6 143.6 144.3 144.9 145.5 143.6 138.4 135.2 135 136.6 139.9 138.8 138.8 139.9 140.5 140.1 141 142 142.3 139.9 137.9 137.9 139.3 139.3 139.3 138.5 138.1 138.3 138.5 138.6 138.7 138.3 137.5 137.1 135.8 133.2 131.5 131.1 132.2 136.7 140.4 137.4 134.9 133.8 134.1 135.2 137.7 141.2 141.4 138.4 135.5 133.5 133.8 135.2 136.4 137 138.2 138.7 139.4 136.6 133.2 129.8 127.4 125.9 126.9 126.2 124.6 123.2 122.9 124.1 124.5 124.8 124.3 124.4 124.7 123 122.3 123.8 124.7 124.9 125.2 125.6 126 127.8 130.1 132.3 133.6 135.3 139.7 143.8 148 133.5 113.1 133.1 159.2 172.5 166.9 166.4 175.5 178.5 181.3 185.5 186.4 183.2 176.8 171 148.6 140.1 154.7 163.6 169.1 175.1 178.4 182.5 185 185.2 187.6 191.5 195.3 195.5 197.6 201 205.1 209.4 218 229.8 237.4 247.2 256.6 263 272.2 290.2 305.5 315.1 319.5 314.6 320.3 329.3 352 375 379.3 378 369.6 355.1 360.3 366.8
106 106.8 108.9 116.9 126.5 134.5 138.2 140.4 141.5 139.6 137.7 137.4 137.4 137.7 138 139.1 142.7 147.3 151.8 160.9 169.8 176.9 185.7 190.6 194.9 201.8 209 213 214.9 217.5 220.1 224.5 232.4 241.9 247.7 252.9 258.2 262.2 262.8 251 232.6 207.5 186.9 179.7 170.2 167.1 165.8 165.7 163.5 157.6 151.4 147.9 145.9 144.3 144.4 143.8 144.3 145.5 147.3 144.4 139.7 135.9 135.8 140.2 145.1 143.9 142.3 142.1 142.8 143.2 142.4 142.6 142.7 140.5 139 139.4 140.2 141 139.9 139 139.3 139.4 139.6 139.8 140.1 139.3 138.3 137.7 136.8 135.1 133.8 133 133.8 136.6 139 135.9 134.9 134.4 136.3 138.7 141.3 142.4 140.8 137.8 135.7 135 136.4 138.4 140.8 140.8 140.2 138.6 137.3 134.3 130.9 128.9 128.3 130.8 131.8 130.9 128.6 125.5 126.7 126.8 126.6 126 124.4 123 122.9 122.5 122.4 123.5 125.1 125.5 125.5 125.6 126.4 129 132.3 133.2 134.2 136.2 140 143.9 146.5 133.3 113.4 133.5 165.6 168.2 166.9 169.5 175 178.1 181.6 186.9 186.3 179.1 170.3 149.2 141.3 152 161 166.2 170.2 175.1 178.7 182.7 184.1 184.6 188.8 192.2 195.1 195.3 197.7 201.5 205 208.8 216.1 223.9 224.7 232.4 239.7 248.4 259.7 275.3 285.4 298 296.3 300.9 312.3 329.9 349.2 363.4 371.2 369.6 363.5 349.5 354.7 363.3
107.3 108 109.5 112.3 118.6 125.3 128.3 132.7 141.3 144.7 145.1 146.4 146.8 142.9 137.9 139.9 143.2 147.4 152.3 156.7 168 181.5 187.4 192.5 199.4 205.7 215.1 220.2 222 223.6 225.8 231.1 242.3 249.3 252.2 256.2 260.8 264.6 257.3 240.6 224.8 201.8 183.1 176.8 171.5 165.7 161.7 159.3 158.5 154.3 151.2 148.9 146.7 146.4 145 144.6 144.5 145.9 147.2 146.8 142.1 138 136 141.5 145.1 143.9 142.6 142.2 143.2 145.3 145.5 144.4 143 141 140.9 141.6 141.7 141.2 140.3 140.2 140.6 140.8 141.2 141.5 141.8 141.9 141.5 141 140.2 138.7 137.1 136.2 136.3 137.6 138.1 136.5 135.2 136.1 139 141.3 143.3 141.9 140.4 138 137 138.3 139.8 141 138.9 137.3 136.6 135.5 134.5 131.2 131.4 129.2 131.7 133.4 134 132.6 130 125.1 128.5 128 126.4 125.2 123.9 123.2 122.7 122.9 122.7 122.6 124.1 125.6 125.5 126 127.2 129.4 132.4 134.1 135.9 137.8 139.4 142 144.6 130.1 114.5 138.8 164.8 165.2 159.2 166.7 176.3 179.3 184.2 187.9 184.7 172.7 155.7 137.2 152.3 158.5 162.2 167.3 172 175 178.6 181.6 181.8 184.5 187.3 191.5 193.5 194.6 197 200.9 204.3 208.9 213.7 218.9 225.9 236.8 241.8 246.5 253.9 259.9 269.5 279.7 292.3 309 322.6 340 354.9 361.6 363.6 360.7 356.5 345.7 348.4 360.3
108.1 109.3 110.9 113.7 116 119 127.7 134.3 141.8 149.9 152.1 153.6 151.3 142.3 138.5 140.1 145.8 151.6 159.1 166.2 172.4 175.6 184.4 190.2 197.3 206.8 220.9 229.7 230.9 232.4 235.1 239.7 246.7 252.2 259 266.5 266.5 264.3 251.8 235.4 213.6 194 182.4 178.6 173.4 166.2 166.3 166.4 164.2 155.4 153 150.8 148.4 146.3 144.9 143.6 143.3 143.9 145.6 148.2 143.4 139.2 138.7 142.7 144.1 142.3 142 142.4 144.4 146.6 147 146.4 145.2 143 143.7 144.3 143.7 143.2 141.8 141.7 142 143.2 144.3 144.5 143.8 145.5 144.8 144.3 143.5 142 140 139 139.1 139.3 139.3 139 136.1 139.3 142 143.4 143.5 142.8 140.9 140.1 139 140.8 141.8 139.9 135.1 133 132.4 132.2 132.1 133.6 134.4 133.9 134.2 135.2 134.6 132.3 126.5 129.1 129 127.8 126.6 125.8 125 124.1 124 123.8 124.3 123.9 123.5 124.8 125.4 126.8 128.6 131.2 132.9 134.6 136.6 139.7 139.1 141 143 124.7 114.2 142.8 159.9 139 129.5 146.9 167.7 179.8 184.2 185.3 180.4 165 141.2 139 154.5 159.3 163.3 168.4 173.5 175.1 178.3 181.7 181.5 183.3 185.7 188.6 190.1 191.5 195.3 198.2 202.4 207.5 215.8 223.9 230.8 245.2 253 262.1 262.6 267.3 277.7 290.4 307.9 328.2 344.8 350.8 357.8 358.9 357.9 354.1 349.9 342.5 342.7 355.9
108.7 110.3 112 114.4 115.7 121.1 129.2 136.4 145.4 152.4 155.8 156.6 149.5 142 139.6 141.2 148.1 155.7 163.3 171.4 178.9 178.7 179.6 186.5 195.5 208.9 223.5 237.4 238.2 242.1 245 248.4 252 257.4 265.7 266.5 266 263.1 255.1 241 211.3 195.2 185.3 181 175.1 170.6 174.7 178.2 176.8 169.9 162.4 155 149.9 146.8 144.6 143.2 142.5 142.5 143.9 146 145.2 140.2 140.1 144.5 143.1 142.1 142.3 144.8 147.4 147.8 147 146 145.7 145.5 145.2 145.1 145.5 145.2 145.5 145.6 145.2 146.8 146 144.5 144.9 146.2 147 144.7 142.8 141.5 140.1 139 138.6 138.1 137.6 137.4 137.1 140.5 142.4 143.2 143.4 143.2 142.1 140.6 139.6 140.4 141.8 139.3 134.1 132.4 132.1 133.9 136.7 139.2 139.5 138.6 138.1 136.7 134.7 127.9 130.5 132.2 131.4 129.1 127.4 126.6 125.8 125.2 126.2 125.8 126.1 125.2 124.3 124.4 126.1 127.5 129.3 131.9 134.1 135 136.5 138.4 139.5 140.4 142.3 118.9 115.7 142.4 132.3 116 116.6 115.8 137.8 169.9 183 184.4 172.8 158.9 134.5 141.4 154.7 160.3 165.5 170.3 173.7 175.5 178.3 181.8 180.9 181.1 182.7 185.4 184.7 188.7 193.6 197.1 200.8 206.7 217.1 230.8 238.6 242.6 254.2 269.2 276.4 278.5 286.3 302.8 325.4 343 354.3 353.8 354.7 357.2 351.4 347.8 344.3 338.4 339.7 351.8
109.5 110.7 112.9 114.3 116.1 122 131.6 141.5 147.8 152.1 155.4 152.6 147.7 142.6 141.6 146.1 152.2 161.4 170.8 178.1 184.1 184.2 182.4 186.9 196 212.3 225.8 240.9 246 249.6 250.6 255.2 258.1 259.8 264.2 265.8 270 265.1 251.2 238.5 216 200.9 189 184.5 182.6 174.3 178.8 183.2 182 177.7 169.9 161.1 154.4 149.3 144.8 143.3 142.4 142.1 142.5 143.8 144.4 141.9 141.9 143.4 144.5 143.5 144.6 147.5 150.2 151.2 149.6 147.1 146.5 147.1 147.7 148.1 149.2 149.4 149.4 149.9 149.7 148.1 146 144.5 144.4 145.4 146.3 144 141.9 139.6 138.5 138.1 137.6 136.9 136.4 136.6 137.6 140.6 141.5 142.1 142.4 142.3 141.7 141.1 139.8 138.9 139.6 138.5 134.9 133.2 134.1 137.6 142.2 143.2 142.4 140.7 138.7 136.6 133.1 128.8 133.9 134.5 133.3 131.9 130.2 128.7 127.2 126.1 126.8 127.3 127.1 126.2 125.3 126 126.6 126 129.2 131.1 133.8 135.7 137.3 138.3 140.2 142.7 142.8 114.2 115.4 138.9 116.1 116.3 117.1 117.3 117.3 151.7 182.4 180 168.7 156.8 142.4 136.7 154.5 159.7 164.4 171 175.2 176.5 179 179.5 178.8 175 177.5 181.3 182.4 188.8 192.7 197.1 201 206.4 220.7 236.1 251.1 255 254.6 269.7 284.1 290.9 298.9 311.5 326.4 340.5 348.8 351.1 347.8 345.3 344.2 342.2 338.5 330.5 338.7 346.3
110.2 111.1 112.6 113.7 118.1 122.6 130.5 139.2 146.4 150.5 152.6 150.1 146.3 144.3 144.3 148.5 158.9 168.1 177.3 185 189.6 187.5 187.5 191.1 198.8 214.7 227.8 243.9 251.8 254.8 257.8 263.4 266.7 264.9 269.6 275.1 277.3 269.4 254.3 240.8 224.9 209 192.9 187.7 185.2 179 180.6 187.3 186.3 182.1 173.8 164.5 155.9 150.5 146.3 144.3 142.9 142.6 143.4 142.5 142.5 141.9 141.9 141.9 142.5 145.2 147.5 150 152.7 154 152.8 149.9 148.5 149.9 151 151.6 151.6 151.2 150.6 150.8 149.9 148.2 146.1 144.5 144.3 144.7 144.2 142.8 140.5 139.2 138.6 138.7 139 139.6 137.8 137.5 138.2 140 141.7 141.4 141.7 141.8 142.5 141.9 140.1 138.8 137.6 136.5 135.5 135.4 135.8 140 144.2 143.7 142.2 140.7 139.2 137.4 135.5 133.6 131.3 135.7 135.4 134.2 132.6 131 129.3 127.5 126.7 126.2 126.2 126.4 127.4 128.6 129.4 126.7 128.8 130.8 133.4 136.6 138.9 139.3 141 144 143.2 115.5 114.9 116.9 116.4 119.1 120.7 119.5 116.8 142.4 179.5 175.9 167 158.2 150.1 132.2 153.8 158.7 164.4 171 176.9 178.3 179.3 174 172.4 179.9 184.4 188.2 188.1 190 193.8 198.2 202.1 208.1 221.6 238.7 256.6 265 266.8 277 289.9 300.4 311.4 322 335.8 344.4 351.6 356.6 343.9 336.8 333 334.7 330.4 326.9 334.9 342.1
110.6 111.4 112.9 116.2 122.1 120.4 123.5 134.6 144.1 148.5 149.9 144.6 142.4 144.8 146.3 151.8 161.5 169.8 180.6 190 190.1 190.1 193 196.9 206 213.9 228.6 243.4 252.4 255.6 258.9 264.2 264.9 269.6 276.5 280.9 280 269 258.4 242.3 230 216.9 202.2 192.4 188.5 184 181.7 187.6 189 186.1 177.9 169.6 157.7 151.5 147.9 146.1 145.2 146.9 145.4 143.6 141.9 141.9 141.9 141.9 142.5 146.8 151.5 153.7 155 153.9 152.1 151.4 151.3 151.4 150.6 150.5 150.4 150.1 149.9 149.3 149.2 147.1 145 144.3 143.7 142.7 142.1 141.3 140.1 139.4 140 141 141.1 140.4 140.7 140.3 140.5 141.7 143.1 142.4 141.9 142.2 142.4 142.3 140.2 139.4 139.2 138.6 137.9 137.8 138.5 140.3 143.4 143.6 142 140.5 139 138.4 137.5 136.5 131.3 136 136.3 135.6 133.6 132 130.4 128.8 127.5 126.8 126.5 127.5 128.5 129.9 129.8 129.6 128.6 130.5 133.1 136.3 138.3 139.2 141.2 145.1 145.6 132.9 115 136.3 138.5 135.2 129 122.6 116.2 134 177.1 172.5 165.4 153 138.1 139 154.3 159.1 164.7 171.2 177.8 178.2 173.6 169.9 175.5 181.9 187.3 190.3 190 192.5 196.3 199.7 203.9 209.5 221.8 235.7 252.4 266.6 274.5 285.6 299.3 311.2 321.2 330.6 343.4 349.5 355.9 359.7 357.4 336 326.5 325.6 322.8 326.3 333.5 337
110 110.5 114.7 121.1 127.7 130.6 122.7 133.9 142.6 145.3 138.7 136.9 140.7 144.8 146.5 152.9 159.8 168.7 180.2 184.4 188.2 192.8 197.7 205 212.7 220.5 230.2 240.3 247.1 253.1 257.2 258.8 264.1 273.3 282 285.1 284.1 268.8 257.7 243.1 233 221.7 207.6 195 190.2 185.5 182.9 186.6 188.4 188.1 181.1 171.2 159.2 152.5 149.5 147.7 148.2 148.3 148.3 146.7 144.3 142.7 141.8 141.9 142.8 146.7 152 153.7 153.1 151.7 151 150.1 148 148.2 148.2 148.7 148.2 148 148.8 147.5 146.8 145.1 145 146.2 145.3 144.2 143.2 142.3 140.3 139.9 140.9 142.6 142.2 141.7 142.3 143.6 143.5 144.4 145 144.7 143.4 143.2 144.1 144.2 141.6 141.9 141.4 141.3 140.4 139.7 140.1 141.8 142.1 142.5 141.8 140.3 139.8 139.7 139.1 137.1 132.1 135 136.8 136.6 134.6 133.1 131.9 130.8 129.5 127.7 127.2 127.9 129.9 131.4 131.4 131.2 131 130.4 132.7 135.1 136.5 138.5 142.2 146.2 147.9 148.7 148.6 156.7 158.1 155.5 136.4 123.5 116.5 127 174.5 167.8 153.9 139.7 128.6 142.9 154.4 160.6 165.5 171.3 176.1 174.8 167.6 172.1 176.6 182.1 188.1 191 191 194.6 197.8 201 205 211.3 227.4 242 262.1 273.1 280.4 289.9 305.7 319.2 327.8 336.7 347.4 350.5 354.1 354.5 349.5 345.3 330.4 318.3 316.1 323.9 326.6 331.6
111.1 112.9 120.1 126.1 133.7 137.5 125.7 127.7 137.1 132.8 136.2 139.3 145.5 152.3 150.1 155.3 161.6 167.4 176.8 182.8 189.8 196.9 204.1 210.9 222.8 232.2 239.9 242.8 247.8 253 256.2 259.3 265.4 279.1 289 288.5 278.4 266.6 255.7 243.3 234.2 217.5 206.1 198.4 191.1 187.5 187.2 189.8 189.5 188.2 183.2 173.8 162.2 155.3 153.2 151.3 150.2 149 147.8 146 144 142.6 141.5 141.3 144.7 147.2 149.6 150.6 150.4 149.8 149.5 149.8 148.4 147.1 146.4 146.5 146.9 145.5 147.4 147 145.2 145 145.6 147 147.9 147.2 145.5 143.8 141.2 139.7 141.1 142.7 142.7 142.2 143.8 145.9 146.8 147.6 147 146.6 145.2 144.3 145.6 145.7 144.9 144.2 143.5 143.3 142.2 142.7 141.9 142.1 141.7 141.3 141.2 139.8 138.5 137.7 137.1 133.6 136.5 136.8 137.2 136.8 136.1 134.8 133.7 132.6 131.3 129.2 128.5 128.5 130.5 132.6 133 132.8 132.6 132.1 132.9 134.2 135.8 138.5 142.8 147.9 150.9 152.7 153.4 159.2 162 162.6 142.6 118.1 117.5 135.6 166.6 152.3 139.2 127.9 132.5 142.2 154.9 159.6 166.6 173.2 176.2 167.3 160.1 168.1 172.4 180 185.2 188.9 192.1 195.9 199.1 202.4 207.1 213.9 230.8 244.6 265.3 278.3 285.5 293.5 310.5 326.6 334.6 341.1 349.8 347.8 346.5 346.4 339.9 341.6 329.5 315.3 313.5 317.2 321.8 328.1
111.3 116.7 123.5 131.6 140.5 140 133.2 128.7 130.5 134.8 138.9 147.2 155 158.7 152.8 160.2 167.5 175.6 184 189 194.7 203.5 210.1 223.1 238.5 243.9 247.4 247.6 250.1 254.9 258.8 262.8 271.6 291 291.6 287.4 275.8 267 253 243.6 235.8 219.8 206.9 199.7 196.8 193.1 193.5 195.7 193.5 191.8 188.7 180 172.1 162.3 157.8 155.7 153.1 151.1 148.9 146.3 143.6 141.3 141.3 142.2 147.7 147.8 147.2 148.3 148.6 148.2 148.6 150.3 148.8 147.3 146.2 147 147.3 148.6 147.4 145.8 144.8 144.8 145.5 147 148.2 148.9 146.9 144.6 142.2 140.4 141 142.5 142.7 143.9 146.7 148.1 150 149.6 148.8 147.6 147 146.1 145.8 145.4 144.7 144.5 144.3 145 146.2 147 145.2 143.4 141.5 140.8 140.4 138.3 136.3 135.1 133.5 134.4 136.7 137.1 137.6 138.1 137.4 136.4 135 133.9 132.5 130.6 130 129.8 129.9 131.3 132.9 133.9 134 133 133.6 135 136.8 139.3 143.2 147.3 150.7 153 155.8 158 158.2 154.9 132.5 118.4 118.2 147.4 150.4 130.8 127.5 129.2 141.3 136.6 135.9 153 162 169 173.2 161.2 164.3 172.7 177.6 180 179.9 187.4 192.7 197.1 200.6 204 209.4 214.6 230.5 245.1 265.1 277.7 285.5 294.8 312.9 332.1 337.2 343.9 346.6 345 342.4 334.7 327 331.5 322.6 311.2 308.8 313.4 322.3 325.5
113.7 121.5 128.6 140.8 143.8 142.2 138 133.4 134.8 139.5 149.7 158.5 163.4 163.2 156.9 165.8 174.5 183.1 190.1 196.6 204.8 209.1 218.8 233.5 244.2 249.2 251.8 251.5 254.1 257.6 262.3 272.9 288.6 298.3 296.1 284.3 275.1 267 252.1 254.1 243.9 226.3 211.8 204.9 201.6 199.5 198.3 200.6 199.3 198.2 194 184.9 176.8 170.4 165.9 162.5 157.4 154.6 151.8 147.6 144.4 141.4 141.3 141.4 145.3 146.3 146.1 146.8 147.7 148 148.1 148.5 148.6 147.7 146.6 146.8 149.6 151.7 149.2 146.9 145.5 145.5 146.6 148 148.4 147.5 146 144.6 143 141.5 141.2 142 142.7 145.6 148.7 150.6 151 150.4 149.1 149.2 148.7 147.5 147.1 146.2 144.6 144.1 143.8 147 148.7 148.9 148.3 145.1 143.6 141.8 139.3 136.8 134.5 133.9 132.8 134.3 135.6 136.8 137.9 138.2 138.1 137.2 136.2 135.1 133.7 132 131.6 131 130.5 131.1 133.4 134.5 134.5 134.2 134.1 135.7 137.7 140.1 143.6 147.2 150.7 155.7 157.5 158.9 154.5 135.6 118.7 119.5 124.6 142.9 125.3 126.7 129.8 133.2 145.5 147.1 141.8 145.4 154.5 163.4 164.7 155.9 169.2 175.9 181.4 185.8 187.7 188.1 193.7 198.3 202.2 206 209.7 217.1 232.3 244.6 261.1 275.5 285.2 295.4 314.1 330.7 336.7 340.4 343.7 343.2 339.1 327.3 315.8 320.4 316.2 305 307.8 313.4 321.2 323.1
121.2 127.9 138.1 147.3 146.5 143.2 138.3 137.2 140.5 150.9 161.3 168.2 168.3 162.9 162.8 171.9 181.4 189.8 195.9 203.1 212.7 216.1 225.8 239.2 243.8 253 255.7 258.3 260.3 262.1 270.6 288.7 303.2 305 295.8 285.4 276.1 268.1 258.8 263 251.3 234.1 218.9 210.3 205.8 204.9 203.7 205.5 205.9 205.6 201.1 193 184.4 175.5 171.2 167.2 163.3 160.3 158.1 154.9 149.5 145.9 141.3 143.3 143.4 143.8 145.1 146 147 148.2 148.4 148.6 147.9 147.3 147.2 147.1 148.4 150.4 149.4 147.8 147 146.3 147.2 149.7 148.6 146.9 145.3 144.7 144.1 142.7 141.5 141.6 142.6 146.4 149.4 150.1 151 150.7 150.4 150.3 150.9 150.7 149.4 147.3 145.3 144.7 146.9 149.7 150 148.7 148 146 144.4 142.6 139.8 137.5 135.3 133.9 134 134.7 134.9 136.1 136.9 137.3 138.4 137.9 136.9 135.5 134.5 133.4 132.9 132.2 130.9 131.5 133.8 134.9 134.9 134.7 134.9 136.7 138.8 141.1 144.7 148.2 151.8 156 157.1 156.2 150.4 124.8 119.7 121 127.2 123.2 130.2 147 149.2 145.3 146.1 154.2 152.1 153.2 155.2 156.9 159.9 163.3 172 177 183.5 189.3 191 189.2 194.5 198.5 202 207.1 211.4 215.7 233.5 247.5 263.5 282.6 291.3 298.6 313.7 328.4 334.6 336.9 339.7 339.5 338.2 326.1 309.6 309.3 306.7 302.8 307.4 314.3 320.1 324.2
126.6 136.4 146.7 151.5 149.2 143.4 144.5 147.5 153.1 163.3 171 170.5 166.1 168.4 173.2 175.9 187.6 194.7 202.5 209.8 219.4 223.9 230.8 236.6 242.5 251.6 257.5 262.2 263.7 268.7 287.4 304.2 311.7 306.4 295.9 286.7 280.3 274.2 267 269.1 259.2 244.2 226.4 218.3 211.2 210.3 208.9 209.6 211.9 212.8 211 205 194.6 185.6 177.9 171.9 168.8 165.6 163.5 159.8 154.3 149.2 147.1 147.7 147 145.2 143.4 144.6 146.3 148.1 148.7 148.5 147.8 147.2 147.2 148.2 149.7 149.4 149.4 149.1 148.2 147 147.5 149.4 148.9 146.6 145.6 146 145.3 144.3 142.7 141.9 142.9 144.2 146.9 149.2 151.1 151.3 151.4 151.5 152 152.4 152.8 150.6 148 147.6 150.4 151 149.9 148.5 148 146.5 144.8 143.4 140.8 139.3 137.3 135.8 135.4 135 134.1 135.1 135.8 136.9 138 137.7 137 135.6 135.6 135.5 134.5 133 131.9 132.1 134.9 135.9 135.4 135.3 136.6 137.8 139.5 141.8 145.1 149.1 153 156.1 157.4 155.7 146.7 127.6 119.2 120.6 130.3 139.9 145.5 151.8 155 154.2 149.1 157.1 161.1 164.8 165.6 165.9 167.2 167.9 172.5 178.8 184.1 190.2 192.7 190.6 193.6 197.8 202.2 207.5 211.5 218.1 230.9 245.2 259.4 276.6 284.1 295.7 314.5 330.7 337.1 335.2 333.9 335.2 332 320.2 307.7 301.6 298.5 302.1 307.9 313.3 313.6 320
130.2 139 153.5 155 149.1 151.8 152.6 154.9 163 170.2 171.5 171 169.6 175.6 179.5 181.7 190.8 199.7 208.6 219.7 220.8 227.9 235.3 239.2 242.7 247.3 254.4 261.7 266.7 283.6 300.9 314.5 316.4 303.9 294.9 292.4 287 280.4 276.5 275.7 272 258.5 239.3 225.3 217.4 214.8 213.1 211.7 213.5 213.1 212.3 208.9 200.8 192.4 184.8 177.4 172.6 168.8 165.2 161.2 155.8 149.4 147.6 147.8 148.1 144.5 142.6 142.9 145.8 148.1 149.2 149.1 148.4 147.6 148.4 149.2 149.5 149.2 148.9 148.8 148.4 147.9 147.1 148.7 149.6 147.1 146.8 147.2 146.4 145.1 143.9 143.3 143.8 144 147.2 150 152.1 153.2 153.5 152.9 153.2 153.6 154.2 154.5 152.3 151.3 152.7 150.6 149.1 148.4 147.9 147.2 145.8 144.4 143 140.6 138.4 136.8 136.5 135.8 134.9 134.5 135.3 136.5 137.7 138.6 136.5 136.9 137.1 137 135.7 134.1 133.1 132.8 134.8 137.7 137.6 137.2 138.2 138.7 140.2 142.4 145.6 148.9 153 156.1 157.2 156.5 148.4 131.3 119.5 125.8 141.7 146 151.2 155.1 158.7 159.6 159.6 153.7 166 171.8 172.1 171.2 171.6 173.6 173.1 178.1 183.3 187.9 192.2 192.5 194.9 198 202.7 207 211.9 219.6 230.4 245.2 255.2 269 281.9 293.1 311.5 328.8 332.7 330.5 328.8 328.5 325 317.4 304.7 298 297.3 303.8 317.5 319.1 316.5 313.6
133.4 144.2 159.2 155.5 150.1 156.1 157.8 162 168.4 177.1 174.8 169.7 173.8 178.7 182.7 183 191.7 201.1 207.7 213.4 218.4 225.9 233.6 239.9 243.9 247.2 255.5 264.2 272.8 290.8 311.1 317.3 311.3 300.3 298.4 297 291.2 284.5 284.7 283.1 279.8 266.9 252.3 236.2 224.3 220.1 217.8 215.5 213.5 212.3 211.2 208.8 202.6 195.4 189.8 185.2 179.5 172.9 167.4 163.2 156.4 151.4 147.5 147.2 147.1 145.4 143.8 144.1 146.7 148.3 149.2 149.6 149.3 148.6 148.7 148.3 147.8 148.5 148.4 148.6 148.8 147.9 147.2 148 149 148.5 147.3 147.5 147.5 145.5 144.9 147 149 147.9 148.2 154.9 154.9 155.6 155.8 155.1 155.1 155.5 156.1 157.2 155.7 154.1 152.5 149.9 149 149.1 149.4 148.6 147.2 145.3 143.2 140.6 138.8 137.5 136.9 136.1 135.6 135.1 136.1 137 137.7 138.1 137.9 138.3 138.6 138.3 136.7 134.8 134.4 133.9 135 137.6 138.6 138.8 139.2 139.7 141.1 143.1 146.2 149.4 152.9 155.7 158.4 157.9 152.1 133.1 119.8 124.8 142.7 150 153.4 157.6 160.9 163.9 167.5 160.9 165.6 173 175 176.3 176.1 175.7 174 177.1 181.8 186.2 190.6 193.7 196.1 199.3 203.4 207.4 212.7 221.4 234 249.4 265.7 284.9 293.3 301.2 314 325.8 328.5 325.2 323.7 322.5 320 314.4 302.1 295 297.7 312.2 317.9 320.5 322.2 318.7
138.8 153.1 162.6 154.6 156.5 159.9 162.3 168.7 177.9 179.3 174.7 171.8 175.7 179.9 185.4 191.8 198 200.6 202.4 205 213.7 222.1 228 234.8 241.5 248.1 256.8 267.5 277.4 294.2 305.4 305.2 300.8 303.7 304 302 297.4 291.1 291.5 287.1 285.2 276.4 262.1 245.2 233.7 226.3 221.7 217.6 214.6 212.3 211.1 210.3 207 201.8 196.8 191.3 186.4 181.1 173.4 166.8 159.3 153.2 152.1 150.6 148.2 146.6 145.1 145.3 147.6 148.5 148.1 148.1 148.4 148.1 147.2 146.8 146.1 148 149.8 149.8 149.2 147.9 147.2 147.7 148.9 149.7 148.8 149.3 147.8 146.3 148 149.5 150.2 148.9 150.6 155.8 158.7 158 157.2 157.3 158.6 158.8 158.5 158.6 157.9 156.2 153.8 151.6 151.1 152.1 151.8 149.1 147.5 145.2 142.1 139.5 138.7 137.5 137.2 135.7 135.6 135.4 136.1 136.9 137.7 138.3 138.8 139.6 139.7 139.2 137.3 136.1 135.4 134.5 135.8 137.8 139.1 139.4 139.8 140.7 141.9 144 146.8 150 152.9 155 158.4 158.9 151.6 137.3 119.3 127.1 146.6 153.2 155.9 159.4 163.5 166.1 170.1 169.3 164.8 174.2 176.3 177.4 178.3 176.9 178.3 179.7 184 186.9 190.2 194.3 197.3 201.1 205.3 209.1 213.7 220.8 235.7 250.4 267.8 287.9 297.4 304.2 315.7 327.2 328.1 324.9 319.6 317.1 315.4 313 302.5 294.3 295.2 313.3 319.8 322.1 323.7 321.8
146.8 158.2 159.3 158.1 161.9 164.5 171.1 178.5 181.5 176.6 173.6 174.5 178.4 185.8 190.8 197.9 206.1 213.3 217.9 221.4 220.7 219.9 225.3 229.6 236.6 244.9 253.9 265.3 278.7 290.9 298.5 297.1 298 306.4 308.3 307.3 304 296.4 295.2 291.5 284.9 276.4 262.7 250.1 238.5 230.2 224.7 220 215.5 212.4 211.8 211 210.6 207.6 203.8 199.1 194.7 188.3 179.8 171.7 166.6 163.5 157.8 155.1 151.1 147.6 145.6 145.2 145.5 147 146.2 146.3 147.1 146.3 145.7 145.6 146.2 148.6 151.7 151.8 150.2 148.7 147.4 148 149.3 150.7 150.5 149.6 147.9 148.6 149.8 151 150.6 150.2 152.5 157.4 159.5 158.8 159.2 160.8 162 161.8 160.4 160.2 160.1 158.3 157.3 156.4 155 155.6 154.6 150.7 148.1 144.4 140.8 139 138.2 137.8 138 137.1 136 135.9 136 136.7 137.5 138.1 139.4 140.2 140.1 139.7 137.9 136.8 136 135.1 136.4 137.8 139.1 140.5 140.9 141.9 143.2 145.1 147.3 150.3 152.2 154.6 157.3 157.8 149.5 136.3 119.1 132.6 149.2 155.9 158.7 161.6 164.7 168.3 170.6 171 165.5 172.3 175.1 176.2 176.7 178.6 180.4 183.4 186.3 189.1 191.5 194.7 199.4 202.2 205.6 209.4 213.6 221.6 235.3 251.5 270.8 286.8 299.4 306 314.5 323.5 322.6 317.6 311.7 311.1 311.8 311.8 303.1 293.5 290 306 319.7 324.7 325.5 324
158.2 173.1 165.7 163.1 166.9 171.6 179.1 185.4 178.6 175.2 174.4 177.6 183.8 192.1 198.8 205.9 214.2 221.2 224.7 227 227 227.9 229.1 230.2 235.4 242.6 252.3 265 274 282 289.1 293.9 296.6 305.7 311.1 313 309.5 301.3 299.8 295.3 287.4 276.3 261.7 251 240.4 232.1 226 220.3 214.9 212.1 211.4 210.8 211.6 211.3 208.1 202.9 198.4 189 182.7 175.5 171.8 175 165.3 156.8 151.3 148 146.6 145.8 147 148.8 149.6 148.8 146.8 145.9 145.4 145.5 145.9 148.2 151.1 151.8 151.5 149.9 147.9 147.4 149.3 150.6 150.9 149.3 148 149.6 151.6 152.7 154.3 156.4 159 159.9 160.2 159.4 159.8 163.6 165.1 163.4 162 161.8 162.6 161.8 161.1 159.9 157.8 155.5 153 149.7 145.6 142 140.3 138.4 138.4 138.8 138.2 137.4 136.5 136.4 136.6 137.1 138 138.9 140.1 140.4 140.4 140.2 138.4 137.5 136.8 136.1 136.5 137.7 138.9 140.7 142.1 143.2 144.5 146.3 148 150 152.3 155 157.6 155.4 147.7 135.1 119.3 135.9 153.4 158.4 161.7 164.1 166.3 168.2 170.5 172.1 171.6 170.2 172.6 174.8 175.8 178.6 182.5 185.6 187.6 189.8 191.5 193.9 198.7 202.1 205.5 209.4 214.6 222.7 237.9 254.4 273.6 288.4 302.4 307.2 309.3 311.9 311.5 309.5 308.6 300.6 303.2 308.7 299 292.6 288.6 303.7 320.8 328.1 330.9 328.9
169.3 173.9 169.5 168.5 173.4 180.1 188.7 182 177.3 175.8 177.7 183.8 190.7 197.5 207.1 214.9 221.7 227.3 230 232.9 233.9 235.1 236.2 236.5 236.3 241.3 251.3 260.5 269.1 278.6 289.3 294.7 298 306.6 314.6 316.2 310.5 305.3 300.2 293.2 282.6 271.3 258.9 247 238.2 230.8 224.6 217.6 213.3 209.9 208.3 207.5 207.4 206.1 203.4 198.4 193.2 185.6 181 177 174.4 172 166.6 157.3 152.4 149 148.1 149.6 151.9 154 153.9 151.9 148.1 145.7 145.6 145.4 145.5 147.1 148.9 150.5 151.4 151.2 148.3 146.1 147.1 148.4 149.5 148.8 148.8 148.8 150.4 154.6 158 161 162.7 163 162.4 160.9 161.1 164.2 166.7 163.1 162.4 164.4 167.5 166.4 165.9 163 160.4 156.6 153.3 148.7 144.2 140.8 140.1 139.3 139.4 138.8 138 137.3 137.1 136.9 137.9 138.6 139.4 140.3 140.5 140.6 140.5 140.5 139.7 138.8 138 137.3 137.3 138.3 139.5 140.8 142.8 144.2 145.3 146.8 148.7 150.9 153.1 155.7 158.3 156.2 149.1 135.8 119.2 138.3 152.2 157.3 161.8 165.5 167 167.4 169.4 172.6 173.4 173.4 170.7 172.3 176.1 178.4 182.1 185.6 187.5 188.9 190.1 193.7 197.8 202.1 205.9 210.5 215.5 229.3 248.8 260.9 274.3 286.1 298.6 301.9 302.3 304.3 301.6 305 300.9 292.1 295 296.8 293.6 289.7 290.1 305.7 323.4 331.9 335.6 334.2
178.6 171.4 171.8 175.2 179.9 187.6 187.3 180.8 178.4 179.6 186.9 194 201.4 208.3 215.6 222.4 227.9 232.6 237.4 240.5 241.9 243.5 244.9 246 247.9 248.9 253.3 260.6 271.3 279.3 287 295.8 300.8 309.5 314.2 314.7 308.5 305.4 297.3 285.9 278.6 267 252.9 241 232.4 223.1 217.2 211.9 208.7 206.2 203.7 202.2 201.5 200.7 198.2 193.4 187.9 180.5 172.8 173.3 174 169.8 167.5 159.1 154.9 151.4 150.8 154.8 156.1 158.9 157.1 152.8 148.3 145.8 145.4 145.2 145.3 146 147.2 148.7 149.9 150.2 147.2 145.2 145.7 146.5 147.8 149.2 149.4 148.8 152.9 157 162.1 161.6 162.7 163.6 164.8 164.5 163.5 165.1 167 163.1 162.6 162.4 163.8 164.1 167 168 167.1 162.6 156.9 150 145.5 143.3 141.4 140.5 140.4 139.6 138.8 138.2 137.8 137.7 139 139.4 139.7 139.8 140.4 140.5 140.6 140.7 140.7 140.2 139.9 139.3 138.6 138.9 140.1 141.4 143.1 144.4 145.8 147.5 149.8 152 154.1 156.9 159.3 157.7 151.1 133.5 119 139.6 150.8 155.3 159.8 165 167.9 166.7 168.1 172.1 174.5 173.6 172.7 173.7 176.2 179.9 181 183.8 185.4 186.5 189.7 193.7 198.5 203.4 206.8 211.1 217.8 237.7 258.2 266.2 273.8 281.3 290.7 292.7 297 296.1 289.9 295.3 295 281.5 286.5 285.9 285.6 284.9 295.5 308.4 327.4 336 340.3 340.1
175 172.2 177.2 181.3 186.1 193.8 188.5 182.4 182.5 188 197.1 204.5 211.2 218.4 223.6 228.4 234.3 239.3 243.6 248.9 251.1 252.7 252.9 253.7 254.7 257.9 260.2 265.8 275.3 283.2 292.5 300.1 304.2 311.7 311.1 307.4 301.4 295.3 286.9 280.9 275.8 264.1 245.3 233.2 224.7 219.4 213.9 209 205.3 202.5 200 197.1 196 196.5 194.6 190.1 182.8 173.7 171.7 169.8 169.2 167.7 166.1 165.8 157.6 153.5 152.7 157.1 158.8 160 160 155.7 150.8 148.4 146.9 145.7 145 145.5 146.7 147.6 147.3 147.8 146.1 144.7 144.7 145.7 147.3 151.1 151 149.7 154.9 161.2 165 165 163.3 164.2 164.7 163.6 163.5 164.6 165 161.6 160.5 160.6 160.7 161.1 164.1 167.5 169.4 169.7 164.2 155.4 148.1 145.2 142.9 141.9 141.1 140.3 139.5 139 138.6 138 138.3 138.8 139.3 139.9 140.8 141.1 141.3 141.7 142.6 142 141 140.3 140.4 140.5 141.2 142.5 143.9 145.5 147.1 148.8 151.5 154.2 156.5 159.3 159.7 159.3 151.7 130.4 117.9 142.5 151.1 155.6 159.3 164.2 163.9 163.2 165.2 171.2 174 174.6 174.1 173.6 175.9 179 183.2 183.9 184.6 186.6 189.5 193.8 198.3 202.4 206.4 211.1 224.7 245.5 264.1 270.5 274.5 278.2 281.2 282.2 291.3 285.5 278.5 281 279.4 271.6 276.1 278.2 278 287.8 298.4 313.3 332.6 340.6 345 346.3
171.2 176.4 181.1 186.2 191.4 199 192.8 186.9 189.3 197.4 204.9 211.6 219 223.3 229.5 236.5 239.6 243.5 250.2 257.7 257.9 257.4 259.6 261.4 262.2 265.1 270.4 276.6 278.5 284.1 289.6 299.1 302 300.7 296.1 292.9 285.4 282.1 280.1 276.1 266.3 252.2 241.3 233.1 225.9 219 212.7 207.5 203.7 200.1 197.1 194.4 190.3 190.4 189.2 187.5 183 177.3 171.9 169 167.8 166.5 165.1 166.5 160.8 155.9 154.4 154.7 156.3 158.8 158.8 157.2 152.8 150.8 148.3 146.5 145.4 145 145.7 146.4 145.8 145.3 144.8 145.2 145.4 145.9 147.5 152.8 150.6 150.9 156.8 165.6 167.7 169.1 167.9 164.8 163.3 161.7 161.3 162 161.2 160.5 160.1 160.3 160.5 161.7 163.5 165.9 167.3 168.7 166.3 160 152.8 147.5 145 143.3 141.9 141.1 140.3 139.8 139.1 138.5 138.9 139.4 140 140.9 142 142.8 142.8 142.9 143.5 143.4 142.5 142.1 142.2 142.4 143.2 144.5 145.7 146.7 148.3 150 152.8 155.5 158.2 160.2 160.3 160.1 151.9 125.1 120.1 145.9 150.3 156.4 160.1 161.1 160.4 159.8 162.5 168.9 173.5 174.3 173.6 174 176 178.3 182.1 184 186 189.4 193.1 195.2 198.1 202 205.9 213 233.1 250.5 267.6 274.9 274.3 274.1 273.4 271.3 270.3 273.8 266.3 262.7 260.3 264.8 270.5 283.8 291.2 296.8 303.8 321.7 337 345.6 351 355
174.6 180 185.3 195 203.4 205.8 197.7 197.3 202.8 207.3 212.3 217.5 221.5 225.7 232.8 236.7 239.9 245.5 255.1 261.8 261.1 263.6 266.1 269.3 276.4 277.7 279.7 283.2 284.1 284.5 288.7 295.6 298 294.1 288.7 281.7 278.9 277.6 272.9 265.6 257.5 252.2 247.9 238.7 225 216.2 210.2 206.2 202.3 198.6 194.4 188.3 185.7 184 182.8 180.2 177.6 174.5 171.4 169.1 167.7 166.2 164.8 164.1 164.2 157.8 155.8 155.5 155.6 158 159.2 157.7 155.4 153.2 150.7 148 146.2 145.2 145.5 145.7 145.1 144.8 144.8 145.4 146.1 146.3 146.8 148.7 148.7 152.2 158.2 167 166.7 167.4 170.1 169.5 167.2 164.8 163 161.9 161.3 160.5 159.9 160.1 161 162.4 163.8 164.6 164.4 163.9 161.7 159.8 154.9 150.5 148.1 146.2 144.3 142.5 141.7 141.7 141.5 141.2 140.7 140.4 140.9 141.8 143.1 143.5 143.7 144 144.6 145.1 144.3 144 144 144.4 145.2 146.4 147.7 148.8 149.9 151.3 154.1 157 159.6 161.6 161.8 160.1 150.4 122.6 127.7 141.7 148.1 152.6 157.4 159.6 157.8 158.7 161.5 166.7 172.6 174.4 173.9 175.3 175.1 177.1 180.2 183.6 188.6 193.7 195.5 197.5 200 204.2 208.2 216.4 238.3 253.4 270.6 274.4 272.7 268 260.6 259.4 256.2 254.4 251.5 259.7 273.5 281.2 286.4 288.7 296.6 305.3 312.4 324.1 341.8 350 356.3 360.7
176.5 181 190.8 201.7 212.1 207.9 203.9 213.4 216.7 218.8 221.3 222.9 223.5 227 229.6 231.6 238.6 247.8 257 262.5 266 270.3 273.9 280.2 282.6 280.4 280.4 282.3 291.8 289.8 288.6 290.6 290 285.1 279.5 276 277 279.5 274.5 264 256.3 251.9 245.9 235.6 224 213.7 208.2 204.3 200.4 195.2 194.6 195.9 191.4 190.6 187.9 183.8 180.5 178.2 174.9 170.5 167.4 165.8 164.4 163 162.3 160.6 160.1 158.6 159.2 161.2 164.1 166 160.6 156.9 152.8 149.9 147.2 145.7 145.8 145.6 145.4 145.2 144.9 145.5 146.1 146.7 146.3 146 146.9 150.9 156.9 161.1 163.5 166.1 168.4 169.6 168.4 166.6 164.9 163.1 162 161.1 161 160 161.2 162.5 162.5 163.4 162.7 159.7 156.1 154.6 155.4 154.5 151.2 149.3 147.4 145.7 144.2 144.4 144.3 143.5 142.9 142.4 142.6 142.8 143.9 144.4 143.9 145.2 145.8 146.4 146.3 146.2 146.2 146.9 147.6 148.5 149.7 150.9 152 152.9 155.7 158.7 161.2 163.4 160.2 158.1 147.7 122.8 139.1 144.9 147.2 152.3 156.3 158 158 158.4 161.5 165.3 170.2 174.1 176 176.7 175.3 175.9 179.2 183.5 189.5 194.2 197.5 199.6 201.9 205.5 211.7 217.1 232.7 248 263.4 264.8 264.5 255.1 246.6 243.5 246.6 260.7 270.7 271.7 278.6 294.2 303.4 306.2 307.2 315.1 322.5 330.7 351.9 359.5 362.6 362.9
179.1 188.5 198.6 208.3 209.8 210.6 219.8 225.9 227 226.1 229.9 228.9 227 226.4 227.3 226.2 233.9 246.5 258.6 266.4 269.9 278 284.8 286 282.3 276.4 274 279.1 291.8 296.7 293 287 282.5 276.5 271.4 270.2 274.6 277.4 266.2 260.3 252.9 247.8 239.8 230.6 221 212.2 206.8 202.2 199.4 201.7 200.9 201 198.2 200 196 191.7 187 182.4 177.2 171.4 167.3 165.4 163.9 162.6 161.1 165.3 165.7 162.5 162.5 162.4 164.2 163.8 163.6 161 155.8 151.7 149.2 147.3 145.9 145.6 145.7 145.6 145.4 145.3 145.9 146.2 145.9 145.9 146.6 148.6 152.7 156.9 159.3 161.6 164 167.1 167.6 166.4 164.9 162.7 161.8 161.5 162.2 160.8 160.4 161.7 162.3 162.1 159.5 155.6 152.5 151.3 151.7 154.6 154.8 152.4 150.7 149.1 146.7 147.1 146.6 145.5 144.9 144.3 144.4 144.4 144.7 145.3 145.1 146.4 146.9 147.4 147.9 148.5 148.5 149.8 150 151 152 152.9 153.5 154.7 156.9 160.4 162.5 161.9 157.4 153.9 133.3 120.2 146.7 150.7 151.2 154.6 158.6 161.4 160.3 159.8 161.9 164.9 169.2 173.3 176.4 177 174.7 174.7 177.7 184.5 189.7 194.9 200 200.6 203.3 207.2 212.4 217.4 228.8 239.7 252.4 256.7 253.5 242.6 237.2 249.9 268 281.9 289.1 291 294.2 299.6 314.4 321.4 325 333 342.9 350.2 366.1 369.1 366.8 359.1
181.7 191.9 198.1 206.4 212.1 224.7 226 225.7 226.3 225.5 226.9 230.7 227.9 225.6 222.4 219.3 225 240.8 253.1 263.2 272.2 278.3 282.3 281.2 275.8 268.2 265.2 277 289.9 292.5 291.3 285.1 279.4 273.9 268.7 264 266.1 263.7 257.4 252.7 244.6 239.1 231 223.7 217.7 212.6 208.2 204.7 203.7 207.9 209 208.4 208.4 206.5 202 196.6 190.6 184.1 177.7 173.3 171.3 171.7 168 164.8 161.5 163.1 163.6 162.9 161.9 162.1 161.2 162.2 163.5 167.1 159.3 153.9 150.9 149.2 147.7 145.8 145.7 145.7 145.5 145.1 145.7 145.5 145.8 146.5 146.9 148 150.6 155.1 157.7 160.4 161.6 162 161.8 162.9 161.9 162.4 162.4 162.1 162.1 162.2 161.3 160.7 161.6 161.1 156 152.3 150.2 148.9 149 150.8 153.6 155.4 153.6 151.5 149.7 149.8 149.3 148 146.9 146.3 146.2 146.1 146 146.2 146 146.6 147.8 148.2 148.6 149.3 151 151.9 152.5 153.4 153.9 154.3 155.2 156.1 157.9 160.5 160.6 157.7 145.9 119.9 119.9 131.1 149.9 152.5 155.3 157.7 159.7 162 161.9 161.4 164.1 165.2 168.9 172.5 175.5 175.3 173.4 174.1 176.7 182.9 188.3 193.3 196.6 200.7 203.6 207.1 213.6 221.9 232.6 246.1 250 247 240.7 234.6 248.7 267.5 286 298.9 307.8 315.5 318.6 317.1 321.8 335.7 338.5 350.6 361.3 365 370 368.2 359.6 345.2
190.4 197.2 203.8 208.3 214.9 220.1 223.5 226.2 226.4 222.2 219.3 222.3 222.5 219.2 215.4 213.6 217.4 231.6 243.2 254.2 262.7 264 265.4 262.7 262.6 256.7 258.3 269.2 283.9 289.6 290.4 285.1 279.4 273.5 269.2 261.9 258.4 254.8 253.1 253.5 251.6 247.5 239.2 231.4 224.4 217.5 212.1 209.4 208.8 211.4 212.8 211.6 209.2 205.6 200.8 197.1 191.4 185 181 176.9 175.3 175.4 171.7 166.4 161.2 161.1 162.8 162 161.5 161.6 160.5 160.8 162.5 166.3 164.5 155.9 152.3 149.8 147.7 146.4 145.7 145.6 145.5 145.2 145.2 145.9 146.4 146.5 146.5 148.3 151.2 154.8 158.2 161.5 160.7 157 156.3 158.7 161 161.9 162.4 162.8 162.3 161.3 160.9 161.7 161.6 159.2 154.1 150.4 149.2 148.6 147 147.7 150.2 152.8 153.9 153.9 151.3 150.8 151.2 150.6 149.5 148.3 147.8 147.7 147.3 146.6 146.9 147.5 148.2 148.9 149.4 151.2 152.5 153.3 154.2 155.2 155.6 155.9 156.7 157.7 158.7 160 157.6 151 128.4 121.2 124.6 140.3 157 155.7 157.6 159.7 159.6 161.8 162.6 162.7 164.8 166.4 168.9 172.3 174.2 172.8 171.4 173.2 175.9 180.8 184.9 190.6 195.4 199.8 202.9 208.6 223.9 234 241.5 247.7 245.7 241.6 232.3 241.6 267.2 288.2 305.4 319.7 332.6 342.4 342.8 338.1 327.9 337.4 342.3 347.3 359.5 364.3 364.6 356 342.9 330.6
200.4 206 211.7 215.1 219.7 222.4 229.4 226.7 222.3 213 210.7 212.4 212.7 214.1 210.8 207.4 209.3 220.3 230.7 236.7 238.5 237.1 243.1 248.8 251.5 246.5 248.2 264 282.5 286.7 287 286.2 280.7 275.7 271.7 263.8 258.5 258.1 261.4 264.3 260.7 253.8 246.9 236.8 228.6 219.1 213.6 209.9 209.3 211.4 211.9 210.5 209.4 206.2 202.8 200 195.2 189.8 184.9 181.4 178.4 178.8 174.3 167.2 161.4 157.9 161.1 162 161.4 161.2 159.4 158 157.7 159.5 162.8 158 153.8 150.4 148.5 147.6 146.6 146.2 146.1 145.6 145.5 145.8 146.2 146.3 147.1 149.8 153 155.9 158.4 161.7 158 153.4 152 154.4 155.7 156.9 157.4 158.4 159.4 157.3 159 159.4 157.2 155.4 152.9 151 150.5 150 148.4 145.1 146.6 148.6 150.3 151 150.6 150.7 151.4 151.5 150.8 149.6 148.7 148.2 147.8 147.2 147 147.2 147.9 149.2 150.4 151.9 153.2 154.3 155.3 156.3 157.2 157.5 157.6 157.9 159.2 157.9 154.6 147.8 126.6 121.4 132.4 148.2 159.3 159.5 160.5 161.8 160.9 161 161.7 162.7 164.9 166.5 168.5 171.1 171.8 170.1 170 173.1 175.9 180.2 184.8 191.3 195.5 199.5 203.1 216.5 229 242.9 246.4 245.5 242.4 238.6 230.5 236.2 273.2 289.5 308.8 326.4 341.6 356.1 361 340.7 323.9 327.6 333.5 337.9 341.4 351.4 351.4 340.1 330.7 316.2
209.3 214.4 220 224 226.5 226.9 224.6 219.6 208.1 203.9 203.2 205.3 208.8 210 207.1 202.2 202.1 206.4 212.2 213.6 215.6 220.8 228.7 235.2 234.5 235.2 241.6 254.6 270.2 284.6 284.7 286.1 283.6 279.2 274.2 265.4 260.6 261.6 265.8 269.6 265.5 257.3 249.6 239.7 229.4 219.7 213.2 209.9 209 210.8 212.1 211.3 209.7 207.4 202.1 197.1 192.7 188.3 183.7 178.8 175 174.5 170.4 165.2 161.3 159.5 158.4 157.9 159.2 159.3 156.9 155.5 155 157 163.3 161.9 157.3 152.2 150.7 149.5 148.4 147.6 147.2 147.7 147.1 146.4 146.9 147.5 149 151.3 154.1 156 157.9 159.8 155.5 151.5 150 151.2 150.7 149.8 150 151.2 151.3 150.6 153.5 153.9 154.3 153 152.5 152.2 150.6 149.9 148.2 145.4 141.6 144 145.1 146.6 147.5 148.4 148.8 148.1 147.6 147.3 147.1 146.6 147.7 146.7 145.9 146 146.3 146.6 147.7 150.1 152.8 154.8 156.2 157.2 157.8 158.3 158.5 158.9 157.8 154.7 151.3 146.5 122.5 120.4 136.4 152.3 161 162.2 162.9 163 161.6 160.2 159.2 161.6 164 165.8 168.1 170.2 169.3 168.1 169.8 172.9 175.9 180.2 185 190.5 194.2 198.9 209.1 227.1 233.2 241.4 248.3 244 238.6 233.8 234.2 229.6 268.4 292 311.9 326.4 339.6 359.1 365.7 332.1 313 312.7 327.3 328.3 327.1 340.3 340.2 328.7 315.4 302.7
219.9 219.8 224.8 224.8 223 220.3 213 202.7 198.4 198.7 202.2 205.4 207.4 205.9 202.1 198.8 198.6 200.2 204.5 205.3 207.5 212.3 217.5 220.6 223.6 231.7 241.6 249.2 259.9 276 286.4 285.9 285.4 280.5 273.5 265.5 261.6 261.4 266.4 271.2 267.6 259.1 250.5 239.9 228.3 217.7 210.6 208.1 208.4 210.5 209.1 208 205.5 201.4 197.9 196.5 194.1 189.5 183.4 181 177.8 169.4 167.3 165.2 162.5 159.8 158.4 157.5 156.8 157.5 155.8 155.2 154.4 155.4 161.4 167.1 158.2 154.3 152.7 151.5 150.3 149.4 148.6 148.7 148.1 148.8 149.5 150.7 151.7 153 153.5 155 158.8 157.2 153 150.2 150.4 149 148.4 146.2 145 144.5 145.6 146.4 148.5 151 152.6 153.2 153.9 153 150.4 147.6 144.2 141.4 138.3 138.5 140.5 142.3 142.9 143.8 144.2 143.7 144 143.5 143.3 143.4 143.6 143.5 142.6 142 142.3 142.7 143.5 145 147.9 150.3 152.3 154.6 156 157.1 156.9 155.9 154.3 152 150.2 148.1 127.7 121.8 126.4 149.1 164 163 165.2 165.5 162.7 158.2 157.2 160.2 164.1 166.5 167.6 168.5 167.4 166.5 169.3 173.4 176.8 181.3 186.2 190.8 195.4 203.3 209.2 222.5 234.4 243.9 249.7 251.4 241.9 229.5 234.1 221.2 257.3 286.6 305.2 318 338 358 352.7 314.3 300.2 302.4 317.1 316.2 316.9 328.8 329.8 317.9 304.7 288.6
220.5 219.5 218.2 215.4 210 204.6 197.7 194.3 197.6 203.4 208.7 211.8 209.7 203.4 200.1 197.4 197.2 198.3 200.4 202 204.6 208.3 212.4 218.4 226.1 236.8 244.6 251 256.6 264.1 277.6 277.2 275.6 271.9 270.7 268 263.6 260.7 264.2 267.9 267.2 258.1 247.5 234.7 220.5 211.7 205.6 204.9 206.2 208.4 207.4 206.5 208.3 207.5 203.9 198.9 195.9 191.4 183.5 177.6 171.6 168.8 171.6 170.7 168.3 163.4 159.3 158.1 157.3 156.5 156 155.5 154.4 154 157.7 161.9 161.4 156.7 153.1 152.1 151.7 151.4 150.7 150.3 150.2 150.8 151.4 151.9 152.7 153.1 152.9 156.3 155.8 152.7 150.5 150.2 151.2 149.8 147 144.3 142.8 141.6 141.9 142.2 144.4 146.2 148 149.4 150.5 149.8 146.4 142.7 139 136.4 135.1 134.7 136.6 137.8 138.5 139.2 139.1 138.7 140.5 139.8 139.5 139.4 139.6 139.7 139.4 138.9 139.2 139.5 140.2 141.6 143.5 145.4 147.5 149.9 152.4 153.5 153.3 153.1 152.7 150.1 149.5 149 138.5 125.1 122.4 148.6 169.3 165.6 167.2 165.6 160.7 156.5 155.3 158.7 163.8 167.2 167.3 167.1 165.7 165.3 169.5 174 178.5 182.6 187.1 192.2 197.3 206 211.7 227.5 237.1 244.9 251 256.5 246.3 227.1 233.1 220.5 240.5 271.2 295.1 316.9 330.4 344.6 320.7 295 287.7 294.8 312.1 305.6 309.4 318.7 314.4 304.3 290.7 280.1
208.3 203.6 201.8 201.6 199.2 194.4 189.2 191.5 197.8 205.6 214.1 218.1 211.6 204.9 199.2 196.3 196.5 197.8 199.1 201.1 203.5 207.3 213.8 219.7 228.2 238.6 243.2 248 251.5 256.1 261.3 265.5 268.1 268.1 268.3 268 265.6 261.2 256.1 260.2 263.4 254.9 240.4 225.6 215.5 208.6 202.6 201.1 203.1 205.9 207 207.9 207.2 203.4 200.3 196.1 190.4 185.2 179 172.5 169.4 173.3 175.4 176.2 174.1 168.1 161.7 158.9 157.9 156.9 156.3 155.8 154.8 153.7 152.3 155.5 161.4 158.2 155.5 152.5 153.3 154.2 153.7 153.1 152.8 152.7 152.6 151.8 151.7 152.8 153.2 154.2 151.5 148.8 147.6 149.5 151.1 149.7 146.7 143 141 139.8 139.6 140.1 139.6 141 142.3 143.5 143.5 143.2 141.1 137.8 135 133.2 132.1 132.3 132.7 133.7 134.8 134.9 134.7 135.7 135.7 136.3 136.8 136.8 136.6 136.5 137.2 137.2 137.1 137.3 137.3 138 139.3 140.5 142.2 144.8 148 150.5 152.5 153 151.9 148.2 147.4 148.1 142.7 125.2 122.4 149.6 167.4 167 168.1 165.4 159 154.8 153.1 157.2 161.8 165.9 166.1 165.8 164.1 164.2 169.3 174.3 179.9 184.2 187.5 191.4 197 206.1 212.5 224.5 238.1 246.9 254.4 256.7 242.2 222.4 219.5 216.3 234.1 264.3 281.6 304.2 313.8 321.1 291.7 279.6 275.4 288.5 294.1 297.2 302.2 306.1 300.8 292.1 279.9 272.1
186.8 181 183.1 185.2 180.5 176.8 181.2 188.9 195.9 203.7 213.2 220.5 214.5 206.6 200.5 196.5 196.2 197.6 198.9 199.9 202.4 208.1 214.6 223.5 233.2 235.8 237.9 242.7 246.7 250.4 253.3 255.9 259.5 260.4 259.6 259 259.6 254.1 249.4 254 254.8 245.7 228.7 217.7 209.6 205.2 200.9 197.9 198.6 199.1 200.8 201.6 201 197.8 194.1 189.5 183.9 179.4 173.1 170.4 171.4 172.3 174.9 176.2 174.1 168.4 162.8 159.3 158.3 157.3 156.6 155.9 155.4 154.1 151.1 152.3 157 159.4 156.8 154.1 154.4 154 153.5 153.3 154.2 154 152.3 150.6 150.5 153.2 152.9 150.3 147.6 145.3 144.7 145.9 147.8 148.8 146.8 143.4 140.9 139.2 138.2 138 137.7 138.2 137.9 137.8 137.4 137 135.9 134.4 132.6 131.1 130.2 130.3 130.3 131.2 132.3 132.5 132.3 132.6 132.9 132.7 133.9 134.2 134.1 133.6 135.3 135.5 135 135.1 135.2 135.5 135.2 135.9 137.4 140.9 144.5 148.2 151.2 152.6 149.6 147.1 144 136.9 121.7 120.4 123.6 154.9 166 167.1 167.6 166.2 158.4 153.2 153.4 157.4 161 164.2 165.6 164.9 163 163.1 168.3 173.8 179 183.6 186.9 190.9 196.9 206.2 212.4 223.7 240.7 253.5 262.9 255.3 234.2 222.2 217.4 213.1 230.7 256.3 278.2 295.2 291.1 285.5 268.5 260.7 270.5 288.8 289.5 291.4 299.3 295.7 289.2 280.3 270.8 264
168.8 175.8 176.4 178.6 182.1 189.3 179.8 187.4 193.6 201.1 209.9 212 211.4 206.5 201.2 195.7 196.5 197.5 198.7 200.1 203.1 208.8 216 224.3 231.7 234 235.4 240.9 245.8 249.4 247.8 247.1 248.5 251.3 250.9 251.9 250 243.2 242.9 239.8 235.6 227 218.1 210.8 206.5 202.2 198.6 197.3 192.9 191.6 191.7 192.9 192.9 191.6 188.9 183.8 178.9 175.3 172.1 169.8 169 168.7 170 171.9 171.1 167.1 162.8 159.7 158.7 157.7 156.9 156 155.3 154.5 151.7 149.1 151.4 153.2 154.9 155.5 154.5 153.6 153.7 153.7 153.2 153.7 151 148.9 148.7 149.5 149.4 146.7 143.7 143 142.7 142.8 143.9 145 145.3 143 141.4 140 139.1 138.7 137.4 136.2 135.3 134.1 133.7 133.4 133.1 131.7 130.2 129.4 129.4 129 128.9 128.6 129.5 130.6 131 131.4 130.8 130.9 132 131.7 132.1 131.8 133.3 133.5 133 133 133.1 133.1 132.2 132.9 134.7 138.5 142.5 146.1 148.7 151.2 149.9 146.1 133.3 122.9 121.9 126.8 140.8 158.3 163.8 166.7 166.7 164.3 158.4 152.7 151.7 156.2 159.7 162.6 164.9 163.9 162 162 167.2 172.7 178.2 181.2 185.3 189.7 198.5 209 220.2 232.4 250.3 270.2 274.6 258 235.3 224.2 215.4 211.6 216.3 240.5 265.5 264.8 263.1 256 250.8 250 266.6 281.7 282.3 284.4 292 286.4 280.2 271.6 262.7 257.3
171 181.2 185.1 191.2 196.3 199.1 188 182.9 187.8 194.4 200.8 203 200.9 197.5 193.5 196.8 197.7 198.3 198.7 200.7 203.7 210.2 219.5 226.2 230.6 231.2 230.7 231.3 234.9 239 238.3 241 241.7 246.8 247 246 242 238.2 235.8 229.8 224.5 216.6 209.9 205.3 201.7 198.5 195.4 191.3 188.4 186.2 184.9 183.7 184.5 185.8 184.4 180.4 177 174.2 171.5 169.7 168.3 167.5 166.6 166.1 165.7 163.9 161.8 160.4 159.1 158 157.3 156 155.1 153.8 152.2 149.6 147.6 148.7 150.4 151.7 153.7 153.7 154 154.1 153.9 153.7 150.6 147.9 147 146.8 144.8 142.5 141.2 140.8 140.8 140.9 141.6 143.1 142.9 142.1 140.9 140.8 141 141.5 140.5 139.1 136.7 134.4 132.5 130.6 131 130.1 129.5 129.4 129.3 129.1 128.3 128 127.4 128.2 128.4 128.9 129.9 130.2 130 129.7 130.6 131.1 130.3 131 131.5 132 132.4 130.6 130.5 131.5 132.8 135.9 140 143.8 146 148.9 151.1 145.5 130.2 121.8 137 143.7 151.3 158.1 163.5 166 165.5 162.6 158.1 153.4 150.9 153.5 158 161.2 163.7 163 161.3 162.7 167.2 172.6 176.4 180.4 184.8 192.6 203.8 215.5 233.2 248.3 264.8 278.7 286.6 265.6 245.3 239 222.9 212 208.3 216.4 231.7 228.4 231.1 233.5 236.7 242.8 260.8 269.2 272.5 279.6 283.4 276.7 270.7 261.3 253.5 250.5
173 184.2 189 196.7 206.3 204.4 194.6 185.7 183.7 186.9 188.1 190.4 193.2 195.1 197.2 199.9 200 200.7 200 201.8 203.8 208.2 214.9 220 225 225.1 224.4 222.9 222.7 224.7 228 231.8 236.2 246.2 250.2 249.9 242.5 230.2 225.1 220.6 215.7 209 204.1 199.7 196.9 192.9 191.7 190 190.5 191 188.2 183.8 180.3 179.8 180.9 179.8 176.4 173.9 171.3 169.8 169.2 167.5 166.6 165.4 164.3 163 161.8 160.6 159.6 158.1 157.9 155.9 154.8 153.6 152.7 150.8 149.2 147.3 145.7 147.8 148.5 149.6 150.6 151.1 150.5 149.6 148.9 146.4 144.4 143.2 141.6 139.6 139 139 139.1 139.4 141.3 142.5 142.3 141.7 140.8 141.4 142.7 143 142 140.4 137.8 135.5 132.4 129.9 130.4 131 130.9 131 130.7 128.6 128 127.7 127.1 126.9 127.3 127.3 129.2 128.7 129.1 128.4 129.9 129.9 129.4 129.9 130.6 131.2 129.7 128.5 128.9 129.9 132 134.1 137.4 141.3 144.1 146.5 148.3 140.2 121.7 126 146.4 148.7 153.7 159.6 163.3 164.2 163.3 161 158.1 153.9 150.9 150.3 154.9 159.8 162.2 160.8 161.1 162.9 165.7 171.6 176.3 181.9 187.9 201.1 214.9 231.6 248.6 265.2 279.4 297 286.8 270.9 265.7 257.7 242.2 219.8 212 207.5 206.3 207.6 213.9 222.6 229.1 240.8 255 259.4 266.6 281.4 276.4 266.1 259.8 253.1 244.3 241.5
177.6 187.2 191.7 200 207.3 205.6 198.3 191.6 190.7 192.9 196 198.7 201.9 202.7 203.2 203.2 203.1 202.9 202.7 203.6 205.1 207.5 208.3 211.6 214.4 217.3 218.2 218.9 219.8 221.5 224.1 227.8 234.9 244.2 248.3 241.7 235.9 230.4 220.6 214.5 209 203.7 201.2 199.5 196.6 197.6 197.6 197.5 194.7 192.2 190.1 187.4 182.6 178.6 177.7 177.5 175.3 172.8 171.4 170.4 170.7 168.5 166.6 165.6 164.7 163.7 162.4 161.2 160.8 159 157.9 156.8 154.7 153.8 152.9 151.9 150.7 149.4 148.2 146.9 144.7 145 145.5 146 146.1 146 144.7 143.6 141.8 140.6 139.2 137.9 137.2 137.7 137.6 137.8 139.3 140.7 142.5 142.3 141.8 141.9 142.7 142.1 142 139.5 137 134.9 131 130.2 132.2 132.4 132.6 132.7 131.6 130.5 129.4 127.6 127.4 127.1 127.4 126.2 126.7 127.6 128.1 127.7 128.8 128.8 129.3 128.8 129.1 128.2 127.9 127.6 127.8 128.4 130.8 132.6 134.8 138.5 142 145.1 144.4 122.4 122.2 134.1 146.9 150.7 155.6 160.4 163.5 163.1 160.6 158 156.6 154.9 151.6 149.5 154.3 158.2 160.6 159.1 159.3 162.2 165.5 170.5 176.6 184 198 209.9 224.4 245.6 263.3 276.5 292 295.1 292.1 294.9 288 275.1 258.7 237.2 219 211.1 200.9 203.6 210.5 217.8 225.1 245.9 254.3 255.3 267.4 279 264.8 252.2 246.6 245.2 237.3 232.8
181.7 190.5 193.8 200 206.9 211 206.1 199.8 196.6 199.4 204 209.5 215.2 216.9 213.4 208.4 206.1 205.7 205.7 206.6 206 209.1 211.9 215.7 218 219.5 218.5 219.5 220.4 222.2 225.8 229.8 233.5 239.3 241.8 238.2 232.1 226.9 219.7 212.8 209.3 206.9 205.9 204.6 204.5 203.9 203.2 200.7 198.2 197.8 192.7 188.8 185.5 181.7 182.1 178.9 176.6 174.7 173.5 171.5 172 170 168.1 167.6 167.2 165.9 164.8 164.9 163.6 160.6 157.8 156.3 155.1 153.9 152.9 151.9 151 149.9 148.7 147.5 145.8 145.2 143.9 143.2 143.5 143.4 142.6 142.3 141.1 139.8 138.5 137.2 136.6 136.4 136.3 136.6 136.9 137.5 138.4 139.7 140 140.5 140.3 140.8 139.9 137.7 135.3 131 129.9 131.1 132.4 132.7 132.9 133.2 132.3 131.2 130.2 128.6 127.7 126.9 127.2 126.5 126.7 125.8 126.2 126.7 127.9 128.8 127.6 128.1 127.9 126.9 127 127.2 127 127.3 128.3 130.3 132.3 135.9 139.3 141.3 133.1 121.5 125.1 136.3 146.4 151 156.2 160.5 162.2 161.5 158.2 156.5 155.1 153.6 151.6 150.6 155.6 159 159.8 157.5 158.9 161.3 165.6 169.5 177.5 186 200.7 214 228.8 248.6 262.7 281.8 290 296.3 304.5 310 303.2 284.5 271.6 244.7 223.8 216.5 201.8 199.6 207.7 210.9 223.6 245.9 251.5 251.5 262.3 258.4 249.7 237.9 234 238.2 229.6 224.8
189.4 196.6 201 205.9 211.1 215.5 210.3 204.2 203.1 209.1 215.3 223.7 225.1 223.8 218.7 210.6 208.8 208.8 209.4 210 209.6 210.7 215 220 224.5 226.9 226.2 223.4 223 225.2 229.5 233.4 235.1 237.9 240 238.1 231.9 227.8 224.6 221.8 219.1 215.5 212.8 211.4 210.4 209.2 208.5 206.5 204.3 199.5 193.8 190.1 187.5 188.8 191.2 189.9 185 181.9 179.7 177.4 173.8 172.4 171.1 170.1 168.7 167.9 168.6 169.3 167.1 162.9 157.9 156 154.5 153.6 152.6 151.6 150.5 149.5 148.9 148.1 146.8 145.7 144.2 143.3 142.7 141.9 141.1 141.3 140.5 139.3 138.1 136.9 136.7 136.5 136 135.7 135.1 134.7 134.6 135.7 136.4 137.2 138.5 138.5 137.4 134.5 132 131.2 131.1 132.8 132.8 133.1 133.4 133.7 132.7 131.7 131.1 130.3 129.7 129 127.1 126.2 126.4 126.3 125.7 125.5 127.8 126.7 127.6 127.8 127.8 126.3 126.8 126.6 126.5 126.9 127.6 128.4 130 133.1 136.2 138.3 124.2 122 134.4 138.5 144.9 150.8 155.4 159.3 161.1 159.9 157.2 155.2 153.1 151 149.9 151.7 155.9 158.9 158.7 155.9 156.7 159.8 163.8 169.8 177 187.5 198.3 209.3 224.1 245 259.4 271.9 280.7 297.4 302 307.7 301.5 284.9 270.8 250.6 229.1 217.3 204.7 194.2 204.1 206.1 219.7 241.2 245.1 249.3 253 246.7 239.4 230.1 224.2 221.9 219.1 217.1
199.3 205.8 210 212.9 216.1 217.2 212.8 209.3 211.4 220.2 228.7 229.1 228.5 225 220.9 214.4 213.2 213.2 213.5 214.2 213.8 212.9 216.6 224.6 229.6 231.2 229.4 225.9 224.9 227.9 233.5 235.7 238.3 242.8 245.7 246.2 241.6 236.5 235.4 231 228.1 223.8 220.2 217.8 214.6 216.7 216.3 211.6 207.1 202.7 198.3 194.2 191.3 191.2 192.2 190.2 187 183.5 180.2 178.1 174.8 173.6 172.2 170.3 169.4 169.1 168.7 168.4 165.4 161.6 158.3 156.2 154.5 153.7 152.2 150.7 149.7 148.8 148.2 147.5 146.5 145.8 145 144.3 143.3 142.3 141.4 139.3 140 139 137.9 136.6 136.3 136.3 136.2 135.8 134.5 133.6 133.7 132.4 132.8 134.2 134.9 135.1 134.5 131.2 132.3 132.7 132.6 133.2 132.9 133.8 134.3 134 133.1 132.4 131.9 131 129.2 126.9 127.7 125.9 125.7 125.7 125.7 125.5 125.5 126.4 127.5 125.6 126.5 126.8 126.5 126.3 126.3 126.5 127 127.5 128.3 130.3 133.3 135.2 124.8 121.7 134.4 139.4 143.5 148.5 153.6 158.8 161.1 158.9 155.2 152.4 150.2 148.4 147.8 151.7 155.9 158.6 156.4 153.9 154.4 157.3 161.6 168.4 175.7 185.1 196 205.4 219.2 240.4 254 263.3 282.3 297.2 293.4 297.4 290.7 287.9 275.3 258.7 246.3 227 208.2 196.4 196 204.7 214.2 230.8 238.9 249.9 246.5 241.1 233.5 223 216.9 212.3 208.6 210.6
207.7 212.8 216.8 219.5 221.8 222.7 220.1 217.2 218.5 223.5 226.8 227.3 226.2 223.2 220.7 216.8 219.5 220.3 220.4 218.4 219.9 219.9 216.3 222.1 226.6 227.8 228.2 227.6 228 231.8 237.4 238.7 242.2 248.5 252.8 253 248.4 247 244.3 240.4 235.4 230.6 225.5 222.9 218.7 220.5 219.3 214.5 211.6 205.9 201.5 196.1 192.7 190 188.1 185.9 182.3 177.9 176.1 175.1 174.6 172.9 171.9 169.8 169.3 168 167.5 165.8 163.2 160 158.2 156.5 154.7 153 152.2 150.4 148.6 147 147 146.3 145.2 144.3 143.3 143.7 143.7 142.7 141.4 139.9 139 138.8 137.6 136.3 136.2 135.5 135.6 135 134.7 134.2 133.8 134.8 134.2 134 133 131.2 132.8 134 134.5 133.5 133.5 134.7 134.3 135.3 135.1 134.4 134.1 133.8 132.3 130.1 129.8 127.7 127.1 126.9 125.1 125 125.3 125 124.7 125.5 125.1 124.5 125.3 125.8 125.9 126 126.1 126.3 126.5 126.6 127 129.4 132.1 134.3 126.9 122.4 124.1 138.4 142 146.7 151.6 156.5 158.1 155.8 152.6 149.4 147.4 146.6 147.7 151.4 155.8 157.4 154.5 152.7 152.7 155.5 159.8 166.5 174.5 184.1 191.6 201.9 215.3 233.7 247.1 264.3 283.9 284.7 285 295.6 286.5 286.6 284.9 274.1 263.2 244.1 215.9 199.6 188.8 204.6 212.1 224 237.9 248.8 241.6 235.1 228 217.5 210.7 208 204.8 206.9
213.7 219.3 223.8 228.6 231.2 231.5 228.9 226.3 225.6 228.2 228.6 228.2 228 227.1 225.2 222.4 226.7 228 227.9 223.8 228.1 225.8 221.7 222.3 224.6 226.4 227.9 228.8 230.4 234.4 241.5 244.1 250.7 258.4 263.5 262.9 262.1 257.4 251.7 247 242.6 237.2 229.7 225.5 221.8 221.2 219.5 217.5 216.6 211.6 204.4 200.2 194.5 190.6 187.6 184.6 180.7 177.8 175.3 174.7 173.8 172.2 170.5 169.1 168 166.8 165.3 163.7 161.9 159.9 158.3 156.8 155.6 153.7 152.1 150.7 148.1 147 146.3 145.4 143.9 143.2 142.4 141.8 141.3 141 141 139.6 138.9 138.1 137.4 136.7 136.3 135.6 135.7 134.8 134.9 135.3 134.7 136.3 135.7 135.2 135.2 134.1 135.1 135 135.4 134.8 134.8 134.9 135.1 135.2 135.5 135.8 135.6 135.2 132.8 130.7 128.7 128.6 126.4 127 124.9 125 124.9 124.4 124.1 124.3 124.1 124.1 124.4 124.3 124 124.5 126 126.2 126.5 125.9 126.3 131 132.8 132.2 128.4 123.7 121.8 135.6 139 142.9 147.4 147.7 154.5 152.1 149.4 146.9 145 145.4 147.7 150.9 154.1 156 154.1 151.8 151.4 153.9 158.9 166.4 174.3 183.1 191.9 204.8 219.7 232.3 246 264.6 271.9 281.3 282.4 285.3 285.9 287 283.3 275.5 268.8 253.6 222.6 199.7 188.3 204.3 210.7 220.6 234.8 241.3 229.6 228.9 225.9 214.1 205.8 203.7 201.8 206.9
221.2 226.2 232 235.4 241 240.4 235.8 232.4 231.2 234.1 233.9 232.9 232.7 232.5 228.4 229 232.5 231.8 230.3 229.1 228.9 226.8 224.9 225.6 227.9 230 234.3 233.3 232.8 239.6 245.1 250.7 254.7 264.1 269.7 270.9 269 262.7 257.3 253.3 248.8 242.5 234.3 228.9 225.9 227.2 228.2 227.2 225.2 218.6 212.7 206.3 198.5 192.3 189.6 186.1 181.7 178.2 176.5 175 173.9 172.8 171.2 169.9 168.2 166.5 165.5 163.9 163.1 161.2 158.9 157.4 156 154.1 152.7 150.6 148.4 147.5 146.9 145.5 144.3 143.8 143.3 142.9 142 140.7 140.5 139.1 138.3 137.7 137.5 136.9 136.1 135.5 135.6 134.5 135.4 135.6 135.4 136.6 136.6 136.7 136.5 136 135.8 135.5 135.5 135.2 135.1 135.1 135.1 135 134.8 135.4 135.8 135.7 134.1 132.5 129.7 128.5 127.5 126 125.3 124.6 124.4 124.7 124.9 125.3 124.3 125.1 124.4 124.8 124.3 125.3 126.5 126.3 126.7 126.1 126.2 131.8 134.2 133.3 130.8 123.5 121.7 134.2 135.8 139.2 143.4 146.1 150 148.8 146.8 144.5 143.9 145.8 148.4 151.2 153.5 155 155.1 152.9 149.5 152.3 157.5 164.1 172.5 182 191.5 203 217.1 230.6 241.5 258.6 275.8 284 280.3 272.4 272 281.3 277.1 275.5 272.1 263.8 229.2 200.3 185.3 200.8 208.6 216.5 231.9 229 222.8 225.7 227.6 216.4 204.8 199.5 200.8 204
227.6 233 238.4 242.9 249.6 244.2 239.8 236.2 236.1 238.8 240.8 236.8 235.6 235.1 228.5 234.3 235 233.3 232.6 232.3 230.7 228.3 228.6 229.6 231.6 234.4 237.2 238.1 237.4 242.1 248.6 253.5 258.7 271.1 273.7 278.5 276.1 268.2 262.6 258.4 252.4 246.9 237.9 233.8 233 233.1 234.3 235.4 233.3 228.3 219.6 210.6 202.8 195.9 190.2 186.5 182.9 180.6 178.9 177 175.5 173.4 171.9 170.3 168.6 167.9 168 167.2 165.9 163.1 160.3 158 155.8 153.9 152.6 150.5 149.6 148.7 147.8 146.5 145.7 146 145.1 144.2 142.9 141.7 140.4 139.1 137.9 137.6 137.5 137 136.2 135.9 135.2 135.3 135.1 135.5 135.6 136.4 136.3 136.7 136.8 136.6 136.4 136.2 135.8 135.9 135.1 135.1 135.4 135.2 134.2 134.2 134 133.9 133.5 131.9 130.1 129.3 128.1 125.9 126.2 124.9 125.4 126.4 125.6 126.2 126.6 125.7 124 123.7 124.1 124.3 125.6 126.1 126.8 125.9 126.5 131.5 134.5 134 130.5 124 122.2 132.3 134.5 136.4 140 143.1 145.4 146.7 146.4 143.2 145.2 146.3 148.9 150.7 152.4 153.1 153.9 152.3 148 151.3 156.2 161.7 170.2 181 190.2 200.4 215.3 228.9 250.3 265.4 282.7 287.8 283.8 275.3 266.6 269.6 268.8 274 271 265.7 244.4 204.6 183.8 198.8 205.6 213.2 225.2 221.9 218.2 224.6 226.5 216.6 202.5 198.4 200.1 202.5
224.6 232.7 242.8 245.8 241.7 243.3 242.5 241.6 241.1 240.1 241 238.7 237.9 236.4 233.3 238.2 239.3 238 236.7 235.8 234.2 232.4 235.6 239.2 244.6 246.6 246.9 245.8 242 244.3 248.9 254.5 262.9 275.3 282.7 286 281.7 274.7 268.2 261.1 256.4 248.5 241.4 242.1 243.5 243 242.4 244.6 240.4 232.2 222.4 213.3 205.4 198.4 192.4 188 185.5 183.6 181.5 180.2 178.3 175.6 173 170.7 169.1 169.5 169.4 168.7 168.2 166 163.3 159.8 156.3 154 152.5 151.7 150.9 150.4 149.5 148.1 147.3 147.8 147.6 145.9 144.3 143.1 141.3 138.7 137.7 137.5 137.5 137.3 136.7 136.2 136.1 136.7 135.3 136.3 136.5 136 136.6 136.4 136.5 136.5 136.8 136.8 136.6 135.9 135.3 135.2 135.6 133.9 133.6 132.3 131.3 132.3 131.6 130.5 130.8 129.9 128.2 126.4 126.8 126.1 127.3 126.7 125.7 125.3 124.9 125.3 124.7 123.8 124 124.2 125.5 126.1 126.4 127 123.5 128.2 132.6 133.4 126.7 121.8 124.5 130.9 131.9 134.4 135.2 138.9 140.9 142.8 141 145.8 146.8 146.4 147.9 149.6 151.1 151.5 151.4 149.4 146.8 149.8 154.6 159.4 168.3 182.4 190.7 202.7 216.6 238.6 257 270.6 279.1 286.3 281.3 273.7 260.8 260.2 267.8 269.3 263.8 257 237.2 203.6 184.8 194.7 202.4 210.7 220.2 217.5 212.1 217.3 212.5 215.2 200.1 195.7 198 201.5
222.2 226.1 235.9 238.5 239.2 241.4 244.7 246.9 246.8 246.8 245.8 243.4 242.4 241.1 238.5 242.9 244.1 244.3 243.5 246.9 246.6 245.2 247.8 251.2 256.8 256.4 253.5 249.6 245.6 246.4 253.9 260.5 273.1 284.8 291.3 290.5 284.9 278.5 269.5 265.2 258.3 252.9 250.3 251.7 252.7 251.9 251.4 246.5 239.7 231.6 223.3 214.6 207.6 200.5 194.7 190.9 189.1 187.4 187 184.8 182.1 178.6 174.4 171.7 169.7 168.3 168.1 168.2 168.2 167.6 165.3 161.6 158.3 155.3 153.7 152.9 152.2 152.1 151.7 151.4 150 149.6 148.9 148 146.3 144.2 141.7 139.4 138 137.6 137.3 137 136.9 136.9 136.8 136.6 135.4 136.2 137.2 136.5 136.4 136.9 136.1 135.7 135.6 136.1 136.2 135.5 135.7 136.1 135.6 134.4 133.9 133.7 133.2 131.9 131.3 131.2 131.3 130.6 129.6 128.5 128.2 127.6 127.4 127.5 126.4 126 123.9 125.1 125.1 124.1 123.8 124.6 125.6 126.1 125.7 126.2 125.5 123.9 128.7 125.1 121.1 123.9 130.3 132.1 133.2 133.8 133.4 133.9 136.5 138.5 143 145.6 146.9 146.7 147.7 149.2 149.5 149.2 148.9 147 145.6 147.6 151.5 157.1 166 180.1 189.5 199.2 215.2 238.1 254.8 267.7 275.3 279.1 271.4 262.9 253.9 255.5 262.9 262.2 257.7 250.9 236.8 204.5 183.8 190.6 200.1 206.2 217.4 212.7 204.7 201.7 200.1 196.8 193.8 192 195 201.5
233.7 230.1 238 240.5 242.1 245.6 249 250.8 252.3 256.1 254.4 250.6 248.6 243.8 243.1 249.1 252.4 253.6 251.7 255.4 256.6 257.2 257 258 259.8 257.7 253.9 251.5 251 254.3 260.5 270.6 280.9 292.6 297.4 298.3 292.4 280.5 273.5 270.1 263.8 258 259.9 259.5 259.1 256.3 251.7 246.2 239.9 232.3 224.2 216.7 209.8 203.2 198 194.6 192.7 191.3 191 189 186.2 181.7 178 175 173 172.7 172.3 169.9 168.6 168 166.7 163.8 161 157.8 155.7 154.5 154 154.2 154 153.5 152 151.8 150.8 149.9 149 147.1 143.6 140.9 138.5 138.2 137.8 137.5 137.5 137.5 137.5 137.2 136.4 136.2 136.8 136.9 136.8 136.6 135.8 136.1 136 135.3 136.2 135.3 135.5 135.9 136.2 135.7 135.6 135.7 135.2 133.6 132.5 131.6 131.2 130.8 129.9 130.2 130 128.8 127.3 128.2 128.3 126.7 125 125 124.4 123 123.1 123 123.3 123.7 124.1 124.3 125.1 124.3 122.9 122.3 124.7 129.3 131.1 132 133.5 133.5 133 132.6 133.6 137.3 142.6 145.3 146.6 147.1 148.2 149.4 148.7 147.5 146.7 145.3 144.4 146.4 150.6 155.8 163.3 176 187.3 197.7 210.4 233 250.1 261.8 263.9 265.2 256.9 256.4 255.1 249.2 255.6 254.6 250 246.8 239.9 205.3 180.3 188.8 197.6 202.3 216.1 206.5 200.3 200.3 202.1 192.9 191.4 189.7 193.3 199.5
238.8 235.8 242.9 243.9 245.5 248 252.2 255.6 258.6 260.9 254.9 249.5 250.4 251.4 252.5 256.5 262 264.7 261 263.4 265.8 266.3 266.3 265.7 266.4 267 263.1 261 257.5 263.6 274.1 281.8 288.4 296.9 304.5 301.4 293 283.7 277.3 272.2 266.5 262.7 263.1 262.6 259 254.2 249.4 243.8 239 232.1 225.7 219.2 212.4 206.3 201.5 197.1 194.9 193.7 193 190.4 186.4 182.3 179.8 177.3 175.5 174.7 174.3 172.3 170.8 169.5 166.6 165.2 163 160.9 157.5 156.7 156.6 156.1 155.9 154.6 154.8 154.4 155 154.1 152.9 151 147.2 142.6 140.6 139.2 138.2 137.9 137.9 137.8 137.4 137.1 136.6 136.9 137.2 137.6 137.1 136.5 136 136.9 136 135.5 136.3 135.6 135.6 135.9 136.2 136.3 136.9 137.4 137.2 135.4 134.7 133 130.9 129.6 130.1 130.1 129.3 130.2 127.9 128.5 129 127.4 125.1 124.6 123.4 123.5 123 123.6 122.9 123.1 123.4 123.5 122.9 122.7 121.1 124.2 131 131 131.9 132.2 133.2 133.3 132.8 131.9 132.5 136.1 141.2 143.5 146.5 147.7 148.7 149.6 149.9 146.9 144.4 142.9 142.8 145.3 149.4 154.7 161.3 172 184.3 197.3 209.2 231.3 241.8 247.3 248.5 246.1 250 255.7 250.1 243.6 242.1 245.3 242.6 237 231.2 204.5 175.4 186.7 193 197.9 205.2 196 195.9 197.9 194.8 188 187.9 187 190.6 196.8
237.1 241.1 246 247.3 249.9 252.4 258.4 265.4 264.8 259.7 254.8 255.3 256.7 260.4 265 264.6 271.4 270.3 271.7 274.2 276.9 280.2 281 285.3 285.8 282.5 276.1 268.9 263.6 269.4 277.3 285.4 293.9 300.9 300.7 299.7 295 287.1 282.2 274.5 268.5 262.7 260.2 258.7 255.1 250.4 246.3 241.9 237.6 233 226.9 220.5 213.5 206.4 201.5 198 194.5 191.2 189.7 186.6 183.1 179.5 177.7 176.1 175.9 175.3 174.9 174.4 172.8 172.5 171.6 170 167.5 163.6 159.5 159.9 159.1 158.1 158 158.9 159.7 159.1 158.8 158.2 156.4 153.9 150.4 146.4 142.4 139.9 138.7 138.3 138.1 137.7 137.3 137 136.6 136.9 137.1 136.9 136.9 137.2 137.2 137.1 136.9 135.9 136.3 135.5 136 136 135.9 135.7 136.1 136.4 136.6 136.3 135.1 134.4 133.2 131.5 130.4 129.9 130.3 130.8 128.7 128.8 129.4 127.6 126.5 124.7 124.5 124.8 124.7 124.2 123.1 123.4 123.5 123.5 123.6 123.9 122.6 127.3 132 131.2 131.6 131.9 132.5 133.2 132.8 131 131.9 135.2 139.2 143.3 146.4 148.4 149.1 149.8 149.4 147.3 144.2 142.2 141.2 146.8 149.6 154.1 159.8 169.7 181.5 196.1 206.6 224.7 234.3 235.1 232.1 237.7 252.1 252.1 247 237.1 240.4 232.3 229.9 225.1 219.1 194.8 174.3 176.5 181.2 188.2 193.5 185.3 186.1 186.6 181.1 184 185.4 185 187.1 194.8
238.7 242.2 249.4 253.2 255.7 258.6 262.7 268.8 266.3 261 257.9 260 265.2 273.5 277.3 276.7 278.5 277.5 280 283.7 288.8 293.4 297.6 297.3 295.2 291.3 286 280.1 272.2 275.3 284.2 290.9 296.4 300.2 300.1 301.1 297.9 292.9 286.5 277.5 268.6 260.7 255 253.1 251 247.3 243.6 240.6 237.5 233 228 221.8 215.2 208.5 202.6 197.5 193.4 189.9 186.5 183.3 179.9 177.9 176.4 175.4 175.3 175 174.6 174.7 174.8 173.1 174.1 170.1 167.7 163.4 163 163.2 162.4 162 161.9 163.2 164.4 163.9 162.9 160 158.5 155.6 152.1 147.2 143.5 140.5 138.4 138.6 138.3 138 137.7 137.4 137.2 137.1 137.5 137.4 137.5 137.6 137.4 137.4 137.2 136.6 136.6 135.1 135.7 135.4 135.1 134.9 134.6 134.9 135.1 135.3 134.6 134 133.6 132.4 130.4 130 130.4 130.5 130.1 129.5 129.2 126.4 126.9 126.9 126 125.4 125 124.4 123.4 123.5 123.6 123.7 123.9 124.5 122.8 126.6 131.4 130.4 131.4 131.9 132.2 132.8 131.7 129.4 129.9 133 137 141.1 145.2 147.9 148.1 149.3 147.9 145.6 143.5 140.1 144.1 148.3 150.7 154.4 158.8 166.5 179.2 192.3 202 218.9 226.4 224.7 226.9 237.5 243.9 245.2 239.3 231.8 235.7 228.5 218.1 216.3 213.7 188.9 173.9 167.3 170.5 174.8 176.8 176.4 177.3 179.1 178.6 181 182.9 183.4 185.1 192.8
242.4 243.2 252.2 256.7 259.9 262.8 268.8 273.5 270.2 262.7 263.8 268.2 276.9 281.9 285.1 286.3 285.8 287.5 291 295.9 298.9 303.1 305.7 306 304.4 301.4 299.9 293.8 283.5 285.3 288.1 295.4 298.4 299.9 296.9 298.2 293.2 287.3 282.1 272.8 263.7 255.8 251.3 248.7 247.1 245.4 242.3 239.9 237.4 232.9 228.2 222.2 216 208.5 201.5 195.5 192.2 188.9 185.2 181.8 179.3 177.6 177.5 177.2 175.6 174.6 174.8 175.1 171.7 169.3 168 166.4 165.6 166.2 167.5 166.7 166.4 165.9 166.1 166.8 166.8 166.3 164.7 162.3 160.2 156.7 152.3 145.1 141.5 139.4 138.4 138.9 138.9 138.6 138.3 138.1 138.2 138.2 137.8 137.9 137.9 137.8 137.6 137.6 137.6 137.4 136.9 135.7 135.7 135.4 135.1 134.9 134.6 134.4 134.2 134.6 134.4 134 133.6 132.7 131.2 130.3 129.8 129.6 129.7 129.8 128.9 127.3 127.7 125.8 126 125.3 124.8 124.6 124.1 123.7 123.9 124 124.3 124.8 123.9 121.3 123.3 129.9 132.5 132.2 132 131.9 130.4 127.7 127.7 129.2 135.4 140.4 143.5 146.3 146.9 148.1 145.7 143.8 142.1 138.6 144.4 149.1 152.9 155.3 158.6 166.4 176.2 187.4 199.9 212 216.9 216 223.4 232.1 234.2 232.1 227.8 224.9 220.5 218.4 213.9 215.8 210.8 188.9 172.1 164 173.2 178.8 179.5 177.9 177.3 176.9 177.6 178.5 180.5 181.8 184.9 190.4
245.1 247.9 254.9 259.4 262.8 269.3 278.9 279.9 271.9 268.9 272.2 278.4 285.2 289.1 292.7 293.8 293.7 294.6 297.6 302.1 306.5 309.4 311.4 313 313.5 312.1 311.4 302.8 291.8 295.7 298.9 302.1 303.6 305.7 291.5 284.3 279.4 274.5 270.3 261.9 253.7 247.7 245.5 243.6 244.3 244 241.9 239.7 237.4 232.9 227.9 220.1 212.7 205.7 198.3 192.2 188.9 185.7 182.2 180 180.2 179.7 179.4 179.2 179.5 178.3 174.9 174.7 172 171.1 173.1 174.8 176.2 175.7 173.4 170 168.1 167.2 166.6 166.9 167.3 166.9 165.3 163.9 160.4 154.4 148.5 143.5 140.6 139.2 138.9 139.2 139.5 139.2 139 139.4 139.4 139.2 138.2 138.2 138.1 138 137.8 137.8 137.8 137.8 137.2 136.4 135.6 135.4 135.1 134.8 134.6 134.7 135.1 134.6 134 133.6 133.2 132.9 132.5 132 131.2 130.4 129.4 128.5 128 127.5 127.1 126.8 125.4 125.9 125.5 124.7 124 123.4 124.1 124.2 125 124.5 124.7 125.3 124.9 122.7 129.7 131.8 130.8 129.9 129.4 127.3 125.9 127.9 131.9 137.7 141.7 144.3 145.6 145.4 144.6 142.7 141.1 141.2 144.8 149.3 155 154.9 156.8 162.6 172.5 184.8 193.3 205.2 207.9 212.9 222.2 224.4 226.2 225.9 217.1 210.8 211.7 213.6 208.4 211.2 204.2 185.1 168.9 162.4 170.5 173.8 178.1 179 179.1 178.8 178.5 177.5 178.9 182.1 185.3 190.4
250.1 254.5 254.7 261.1 267.7 274.7 281.7 280.2 273.7 277.3 282.4 288.9 292.9 295.9 297.7 297.5 298.6 300.8 303.3 307.4 311.4 313.8 316.3 319 320.6 319.7 318.8 309.6 300.5 305 307.3 309.2 306.3 296.4 286.1 278.3 273 267.8 261.7 256.5 248.4 242 236.8 235.8 238.4 239 237.1 234.8 232.5 227.6 220.6 213.8 207.6 200.9 193.9 188.8 185.5 182.4 180.8 181.1 180.8 181.2 181.6 181.5 180.5 179.5 177.3 172.8 171.7 174.3 175.7 176.8 177.2 176.8 174.4 171.4 169.3 169.5 166.9 166.7 166.8 167.1 166.1 163.4 158 152.5 146.6 142.4 140.3 139.2 139.3 139.6 139.9 140 139.9 139.9 139.8 139.8 138.6 138.4 138.3 138.2 138 138 138 138 137.9 137.1 136.1 135.7 135.5 135.4 135.2 135.5 134.9 134.3 133.7 133.2 132.8 132.4 132 131.5 131 130.7 129.6 128.4 127.2 127 126.9 125.3 124.4 124.3 124.1 124.2 124 123.7 124.1 124.8 125.5 125.7 126 125.8 126.6 124.8 123.2 126 126.2 126 125.7 125.3 125 126.6 129.2 134.5 138.1 141.1 142 142.5 141.7 139.7 137.6 140.9 143.2 147.6 154.2 154.2 154.5 160.1 167.3 178.3 187.5 194.3 204.3 211.8 218.6 219.3 218 216.1 206.3 203 203 204.7 202.1 201.4 193.6 181 167.6 160.4 162.3 167.3 174.6 177.7 179.2 179.2 178.2 177.1 179 182.3 185.5 189.2
259.2 258.8 262.1 264.1 272.7 280.6 282 278.9 279.2 283.8 290.9 296.9 299.9 301.8 302.3 302.4 303.5 305.7 308.4 312.7 316.2 317.1 320.3 324.2 325.7 326.1 324.8 317 311.5 312.8 313.3 312.2 302 291.9 286.3 276.2 272.3 267.1 260 252.7 245.1 240.1 237.8 232.1 227.6 228.3 227 228.4 225 221.4 215.1 209.5 203.9 197.9 191.9 185.6 182.8 181.4 180 178.1 178.6 179.3 179.7 179.6 178.5 176.6 174.8 175.8 177.4 180 180.8 180.5 180.2 179.2 177.1 173.1 172.2 170.8 167.4 166.9 166.4 165.9 164.8 162 157.9 152.1 146.2 142.4 140.6 139.5 139.6 139.7 140.2 140.2 140.2 140.1 140 140 139.7 138.6 138.5 138.4 138.3 138.2 138.2 138.2 138.2 137.8 136.6 136.3 136.2 136.1 135.8 135.2 134.6 134.1 133.5 132.9 132.3 131.9 131.5 131 130.1 130.3 129.8 128.6 127.5 126.3 126.4 124.8 124.4 124.3 124.2 124.8 124.7 124.2 125 125.5 126.1 126.4 126.6 125.6 125.7 124 122.9 123 123.3 123.2 123.2 123.3 124 125.7 127.8 131.5 135 137.5 138.6 139.5 138.9 138.1 137 138.3 142 145.3 152.4 153.2 153.3 158 163.9 171.5 182.1 195 199.5 204.4 211.2 209.8 203.8 201.5 198.8 197.9 197.3 194.7 188.9 192 186.9 179.1 166.7 159.4 159.4 164.8 171.3 176.9 178.9 179.4 178.1 174.8 178.8 183.7 186.1 189.2
265 262.9 268.3 269.3 270.8 275.5 279.1 281.2 284.1 290.6 297.5 303.4 306.1 307.5 307.4 307.3 308.8 311.2 313.5 316.7 320.8 322.8 327.8 332.1 334.2 333.9 333.4 329 321.8 316.3 311.1 306.5 296.2 290.3 283.7 276.1 271.3 267.2 264.1 257.5 251.3 247.9 243.2 238.8 231 222.2 216.8 218.9 219.9 216.4 211.9 207.2 201.6 195.2 189.6 184.3 181.9 180.5 179.1 177.1 176.6 177.5 177.6 177.7 177 176.4 179.7 182.1 184.7 186.3 189 189.1 185.9 182.2 178.2 174.4 173 170.3 167.9 167.3 167.4 168.2 167.6 162.3 158.9 153 147 142.7 141.3 139.8 139.4 139.9 140.3 140.4 140.4 140.4 140.3 140.2 139.9 139.6 138.7 138.6 138.5 138.4 138.4 138.4 138.4 138.3 137.1 136.9 136.8 136.4 136 135.3 134.5 133.9 133.3 132.7 132 130.9 130.6 129.6 130 130.4 129.6 128 127.5 127.4 125.9 124.9 124.4 124.3 124.8 125.4 125.2 125 124.7 124 126.4 127 126.9 125.3 124.5 124.8 122.7 122.6 122.8 123.2 123.5 123.2 122.9 125.3 127.1 129.2 131.6 133.4 134.3 135.4 136 136.1 134.4 136.6 139.8 143.7 148.9 150.1 151.8 155.6 161.3 168.8 177 189 196.6 195.3 193.6 192.8 193.2 194.4 193.6 191.2 190.2 184.9 176.3 190.1 181.8 172.8 164 158.2 158.7 162.5 170.5 175.7 177.7 178.7 177.6 174.3 177.4 183.1 186.7 189.7
271.4 270.8 273.4 274.3 274.7 277 281.6 287.2 292.2 299.9 305.7 308.9 312.9 312.7 312.5 312.6 314.1 316.5 318.9 321.4 325.1 328.9 334.5 339.5 339.9 339.8 339.6 335.3 328.7 318.6 312.9 307.4 298.3 294.3 287.5 276.9 272.7 270.2 267 262.2 257.6 252.4 246.9 242.2 237.2 231.4 222.7 208 211.4 213.2 210 205.8 199.6 193.1 188.2 183.5 180.3 179.3 178.3 177.1 174.9 174.7 174.8 176.1 177.1 179.9 182.2 185 188.2 190.6 192.4 191.5 187.5 183.3 178.6 174.5 171.9 170 168.3 167.4 168 168.7 167 161.6 159.2 154.9 149.1 144.1 142.4 140.8 139.6 140.5 140.5 140.6 140.6 140.6 140.6 140.3 140 139.7 139.4 138.9 138.7 138.6 138.6 138.4 138.3 138.6 137.6 137.4 137 136.5 136.2 135.7 134.9 134 133.2 132.6 131.7 130.6 129.8 129.4 130 129.5 128.2 127.3 127.6 126.6 125.5 125 124.5 124.8 125.5 125.9 125.8 125.6 124.8 125.1 126 127.5 125.6 124.9 125.9 125 123.9 123.6 123.2 123.2 123.1 122.7 122.5 124.4 126 127.4 130.4 131 130.9 131.6 133.2 133.3 133.1 135.1 137.3 143.2 148.7 149.2 148.5 152.5 157.7 163.1 173.1 184.5 192.8 192.3 188.4 184.7 185.9 187.3 187.3 181.9 180.2 168.8 171.6 175.1 173.1 162.9 160.7 156.6 156.3 160.4 167.5 173.7 176.7 179.4 179.8 176.9 173.3 179.7 183.7 188
278.4 277.4 278.2 279.6 280.7 283 287 293.4 302.3 309.6 315.7 318.7 318.6 317.5 317.3 318.1 319.6 321.9 325.5 328.1 330.6 334.2 339.9 344.3 344.1 343.4 341.8 339.8 331.1 324.2 322.7 316.6 305.4 300.4 290.7 277.6 272.9 269.6 265.7 262.5 258.3 252.4 246.9 241.5 235.6 229.7 223.2 216.1 204.3 207.8 208 203.6 197.5 192 187 181.1 178.2 176.3 175 174.3 173.3 173.9 176.5 177.8 180.3 183.6 186.1 188.9 190.7 192.4 192.7 191.3 188.6 183.6 178.5 174.5 171.5 169.8 168.6 168 167.8 165.9 164.2 161.5 159.2 156.2 151.2 145.5 143.6 142.6 141.3 141.1 141.1 141.1 141.1 141.1 140.9 140.4 140.1 139.8 139.5 139.2 138.9 138.7 138.4 138.2 138.5 138.8 138.1 137.5 137.1 136.6 136.3 136 135.2 134.4 133.6 132.7 132.2 131.1 130.1 129.4 129 127.8 127.5 127.4 127.3 126 125.7 125.2 125.5 125.8 126.1 126.5 126.2 125.6 125.2 126.2 126.8 127 125.3 126 125.9 124.6 125.6 123.6 123.3 123 122.7 122.4 122.8 123.2 125.1 126.4 128.4 129 129.2 129.7 130.5 130.2 132.7 134.1 135.9 139.9 146.1 147.7 145.6 149.6 154.7 159.6 166.5 180.9 187.8 187.8 188.3 183.5 181.8 183.7 180.8 174 167.2 157.2 155.7 155.1 155.4 155.8 155.3 153.8 154 159 164.9 170.5 174.9 178.4 181.2 180.1 177.7 175.2 181.4 185.6
284.9 284.2 284.1 285.6 287.7 290.2 294.5 300.5 308.5 316.3 321.7 324.2 323 321.4 322 322.4 324.3 327 331.2 334 336.5 339.7 342.2 346.8 347.5 344.7 341.5 339 335.3 330.2 326.4 318.9 308.2 300 287.5 276.3 269.7 266.2 262.1 256.7 253.6 249.4 244 239.7 233.6 227.3 221.6 215.7 208 197.9 202.2 199.4 195.7 189.8 184.4 180.3 177.1 175.1 172.3 171.2 172.9 176.6 179.5 181.1 184.3 186.9 189.7 191.8 192.7 193.8 195.2 193.3 190.6 185.9 179.5 174.8 171.8 169.5 169 167.6 166 164.9 162 159.8 157.9 156 151.7 147.5 145.2 143.2 142.3 142.1 141.9 141.7 141.7 141.6 141.3 140.8 140.3 140 139.7 139.4 139.1 138.7 138.1 138.3 138.4 138.9 138.4 137.7 137.2 136.8 136.5 136.1 135.6 134.7 133.9 133.2 131.9 131.1 130.2 128.2 127.7 127.6 127.5 127.4 126.6 125.9 125.4 125.4 126.1 126.6 126.8 125.6 126.5 127.4 125.8 125.8 126.1 125.7 125.1 124.8 124.8 124.8 124.7 123.5 123.6 123.6 123.3 122.7 122.9 123.5 124.2 125.5 126.2 127 127.5 128.2 128.6 130.1 132.5 137.4 135.7 138.1 141.6 145.2 143.5 144.5 150 154.1 160.9 175 182 182.6 182.9 178.7 174.9 174.8 171.2 165.4 155.2 151.5 149.6 149.7 150.9 152.1 152.1 151.6 152.7 157 162.7 167.2 172.4 176.9 180 182.2 179.6 175 176.5 181.3
290.1 290 290.2 293.2 296.4 299.7 302.6 305.4 312.4 320.9 325.9 327.5 326.6 325.3 324.9 325.6 328.1 331 335.2 338.9 341.4 344.2 346.1 347.1 347.1 345 342.7 337.1 330.9 326.8 320.1 313.9 307 298.5 286.9 274.2 265.7 259.5 252.6 249.2 246.9 244.1 240.5 235.5 230.1 225.6 219.9 214.7 209.3 202.4 196.2 191.4 188.8 184.9 183.9 179.2 176.6 173.9 171.1 170.8 175.7 179.9 182.7 183.6 186.9 189.7 192.5 195.9 197.7 199.1 198.7 195.9 192.3 186.8 181.3 176.4 172.6 169.1 167.6 166 164.7 163.8 160.7 158.8 157.5 154.8 151.8 147.7 145.5 143.6 143.4 143.2 143 142.7 142.4 142 141.6 141.4 140.7 140.1 139.8 139.5 139.4 139.3 138 138.1 138.2 138 138.2 137.9 137.3 136.9 136.6 136.3 135.8 135.1 132.9 131.8 130.5 129.1 128.4 128.1 127.5 127.3 127.5 127.5 126.2 125.7 126.2 126.5 126.3 126.7 126.8 126.7 126.8 127.5 127.3 126.7 126 125.4 125.3 125.2 124.8 125 124.8 124.3 123.1 123.2 122.5 123.3 122.8 123.5 124.2 124.3 124.6 126.2 126.7 127.5 127.7 129.8 131.8 133.4 135.2 136.2 139.7 143.8 145.3 140.9 144.3 149.2 155.9 164.8 176.1 176.2 177.5 172 166.6 163.4 158.9 153.2 149 146.4 147.5 149.3 150.8 149.1 149.2 150.8 152.3 156.5 160.7 163.7 167.5 172.1 177.4 180.9 183.4 177.5 168.7 176.9
293.4 294.9 297.9 302.4 305.5 308.1 308.6 310.8 314.1 323.9 328.7 330.1 330.3 327.6 327 327.8 329.8 333.4 337.9 340 344.3 347.7 351.1 352 350.1 347.5 343 335.1 327.3 318.6 312.4 306.6 300.2 293.3 284 270.1 262 255.5 248.3 243.4 239.6 237.7 234.8 231.4 227.3 222.9 217.6 212.8 207 201.2 198.1 194 191.4 190.7 185.8 181.4 176.3 172.5 169.9 170 175.8 180.3 182.1 182.5 187.3 190.6 193.7 195.9 197.7 199.4 198.9 197.2 193.6 189.6 185.2 180 174.4 169.4 167.1 165.6 164.9 164 162.3 160 157.3 155.9 153.5 149.1 145.8 144.4 144 143.7 143.4 143 142.7 142 142 142 141.3 140.6 139.9 139.8 139.8 139.6 138.1 137.9 137.4 137 137.3 137.2 137.2 136.7 136.2 134.7 133.4 131.5 129.3 129 128.4 128.1 128.1 128.1 127.4 127.4 127.4 126.8 126.9 127.4 128.3 127.6 128.1 128.2 128.2 128.1 127.8 128.1 127.2 126.9 126.6 126 125.6 125.4 125.2 125.2 124.8 124.3 123.8 123.5 123.1 123.5 122.4 123.3 124.2 124.1 124.7 125.5 126.2 126.7 126.9 128.6 130.1 131.4 132.8 133.4 137.6 142.5 148.9 139.9 139.8 144.1 149 155.2 161.1 163 163.1 159 153 152.8 149.2 146 142.5 144 146.9 148.8 147.7 146.5 146.9 149.1 151.5 154.7 156.9 159.2 162.5 166.1 171.8 177.9 181.3 179.7 168.2 172.7
296.5 300.7 302.4 304.4 308.7 313 312.8 312.7 314.6 322.7 327.3 328.3 328.7 327.3 325.6 325.8 329.9 335.2 338.2 340.6 343.2 347.6 352 352 349.9 345.9 338.7 330.3 324.3 315.3 307 298.7 292.8 286.6 275.6 265.4 259 252.4 247.6 241.4 236.1 232.4 230.6 227.6 224.1 219.3 214.9 209.8 202.9 198.5 196.3 193.9 192 189.6 186.4 182.6 176.6 171.7 169.2 167.7 172.1 175.6 177.6 180.5 184 187.1 189.3 191.8 194.7 197.4 197.5 196 193.9 189.9 184.7 179.6 175 169.6 166.3 164.9 164 162.6 161.3 159.2 157.2 154.5 152 148.9 146 145.1 144.6 144.2 143.7 143.4 143 142.2 142.1 142.2 142.1 141.5 140.4 139.9 140.1 139.8 138.2 137.2 136.2 135.4 136.8 135.9 134.9 132.9 130.9 130.8 130.5 129.5 129.2 128.7 128.5 128.2 127.9 128 126.9 128.3 127.3 127.7 128.7 127.9 128.4 129 128.9 128.9 128.9 128.8 128.5 128.1 127.1 126.1 127.1 126.6 126.2 125.8 125.5 125.4 124.8 124.1 123.8 123.1 122.5 122.5 122.5 122.7 122.8 124.1 124.4 124.7 126.3 125.2 125.6 127 128 128.1 128.9 129.8 133.1 139.1 142.1 137.1 135.8 138.1 142.9 149 149 146 140.1 139.5 139.1 139.8 140.8 140.5 140.8 142.3 144.3 145.2 145.1 144.1 145.8 147.8 151.3 153.3 153.2 155.5 157.7 161.3 165.7 173.4 175.3 170.3 164.2 166.3
301.8 304.2 304.9 307 311.1 312.5 311.3 309.4 311.8 314.9 316.9 317.3 317 316.2 317.5 321.3 327.3 332.9 335.1 336.1 338.6 345.4 349.6 349.1 346.1 341.9 335.5 326.7 320.1 312.9 305.1 295.1 286.5 281.1 274.1 263.8 255.9 251.3 247 240.4 232.9 225.7 224.6 223.2 218.7 212.6 206.4 201.2 195.8 193.4 191.2 189.9 188.4 186.4 183.3 178.4 174.3 170.5 168.6 166 167.9 172.3 175 176.7 178.7 182 183.5 186.5 188.8 190.1 189.9 189.3 188.3 186.1 181.9 177.9 173.4 169.9 166.8 164.2 162.6 161.2 158.2 157.9 156.4 154 151.6 148 146.4 145.9 145.3 144.9 144.4 143.9 143.5 142.5 141.6 141.9 142.1 142 140.7 140.2 139.6 139 137.5 137.4 136.6 135.7 135.3 134.5 133 131.3 130.9 130 129.9 129.3 129 129.1 128.8 129.1 128.7 129.2 129.1 129.9 129.9 129.6 129.8 128.8 130 129.5 129.5 129.4 129.2 128.6 128.3 128.1 127.6 126.3 127.2 127.3 127.1 126.7 126.3 125.2 124.5 123.9 124 123.1 122.7 122.4 122.4 122.6 123.1 124 124.1 124.3 124.4 126 125 125.3 125.8 125.7 125.5 125.8 128.6 135 136.8 132.3 131.1 132.4 137 155.1 152.1 138.4 133.5 132.1 134.1 135.9 137.2 137.5 138.7 140.4 141.8 142.9 142.2 143 146.8 149.4 151.7 150.8 150.7 152.2 153.8 156.7 160 164.2 165.1 165.1 162.4 160.4
307.5 309.2 310.8 310.8 311.1 309.8 306.7 304.7 305.7 306.6 307.1 308.2 309.3 308.6 311.7 320.3 328.2 333.1 334.4 334.9 336.2 345 347.6 345.8 342.1 337.6 330.4 323.5 317.6 310.2 301.5 291.2 282.5 275.5 268.3 261.1 261.7 258.5 248 239.6 233.3 227.3 220 215.4 212 208.1 206.4 202.3 198.6 191.8 187 184 182.8 180.7 178 174.6 171.8 169.4 167.6 166.2 163.4 167.1 169.9 171.3 173.4 174 178.8 181.5 183 184 183.3 182.4 183 180.5 178.5 176 175.3 173.2 169.1 166 164.4 162.2 160.5 158.5 156.3 154 151.7 148.8 146.9 146 146 145.4 144.7 144.1 143.3 142.4 141.3 141 140.6 141.4 139.9 138.6 138.4 138 137.5 137.3 137.1 136.7 135.8 133.5 131.2 130.7 130.8 130.1 129.6 129.5 130.4 131.7 132.1 131.9 131.5 131 130.4 130.7 131.2 130.8 130.2 130.5 130.4 130.1 130 129.7 129 128.4 127.9 127.8 127.8 126.7 127.1 127.5 127.4 127.2 127 126.3 124.3 124.3 124.7 123.8 123.1 122.4 122.5 122.7 123.1 123.5 123.2 123.3 123.4 125 125 125 124.7 124.4 124.1 124.4 125.2 128.9 131.7 129.3 128.7 128.7 130.3 132.4 132.3 130.9 130.5 130.8 132.5 133.7 134.5 135.7 137.1 138.3 140.4 141.5 142 144.5 146.9 148.9 149.8 148.8 149.2 150.6 152.1 153 155.4 157.3 159.4 159.9 158.2 155.3
312.2 313.5 314.8 315.1 311.8 308.5 304.9 300.2 299.2 300.1 300.2 302.2 302.8 300.8 309.6 319.9 329.1 333.9 335.5 336 337.1 341.6 344.9 343.1 339.4 335.7 327.5 320.8 313.5 306.1 297.2 287 279.6 272.9 267.4 263.4 263.5 258.3 248.9 239.5 232.8 227.5 222 214.9 211.8 208.6 204.3 198 194.3 189 184.6 181.1 179 177.6 175 172.7 171.1 169.5 168.7 168 162.6 160.8 163.6 166.1 169.6 171.7 175.4 178.8 179.2 179.5 179.6 174.9 177.9 176.2 174.4 173.6 174.7 172.3 169.2 166.3 163.6 161 158.6 156.5 154.6 152.9 150.8 148.7 146.5 145.9 145.4 145.2 144.5 143.7 142.9 141.9 140.9 140.6 140.3 139.9 139.3 139.2 138.8 138.4 138.1 138.1 137.5 137 134.4 132.3 130.3 131.1 130.7 130.9 131.4 132 132.4 132.9 133.1 132.8 132.5 132.1 131.6 132 131.8 130.7 131.3 130.5 130.2 130.6 130.1 129.5 128.8 128.2 127.6 127.6 127.8 127.2 127.2 127.4 127.6 127.5 127.1 126.1 124.8 124.4 124.4 123.6 123.5 123.3 122.4 122.2 122.3 123.2 123.3 123.2 123.3 123.9 124.5 123.6 123.5 123.4 123.4 123.4 123.8 124.4 125.9 126.2 126.8 126.4 125.9 127.2 128.7 129.4 129.6 130 131.1 132.5 133.5 135.1 135.5 137.2 138.3 137.5 141 143.4 144.9 146.6 147.8 147.8 148.4 149.6 150.4 151.2 152.3 154.4 155.4 155.8 154.4 152.8
315 318.2 318.4 316.7 312.9 307.6 301.6 296.6 294.6 294.1 294.5 295 294.7 294.7 306.8 315.5 323.7 335.1 342.4 341.7 343.3 344.5 343.1 340.4 338 333.3 323.1 315.7 309.9 303.8 294.6 287 281.1 274.2 267.7 262.2 256.6 252.1 242.9 235.6 229.6 223.4 219.4 214.5 209.7 203.3 198 193.4 188.1 184.1 180.3 178 176.7 175.4 174.1 172.9 173 171.9 170.6 168.6 164.6 162.3 158.9 160.8 166.1 168.3 171.5 174.1 175.3 173.9 171.2 167.2 166.3 166.1 167 167.1 168.1 166.9 165.5 164.1 162.3 160 156.6 155.2 153.5 151.7 149.6 148.2 146.4 145.8 145.4 145 144.2 143.4 142.5 141.5 140.9 140.2 139.9 139.5 138.4 137.7 138.2 138.3 137.8 136.4 135.8 131.6 131.7 131 131.3 131.6 131.6 132 132.4 132.9 133.4 133.4 133.1 133.1 133.1 133.1 132.8 132.3 132.3 131.7 131.1 130.4 130.7 130.5 130 129.3 128.6 127.9 128 128.2 127.9 127.7 127.9 127.7 127.8 127.6 126.7 125.7 125.1 124 124 123.2 123.1 123.1 122.5 122.9 122.8 122.9 123.4 123.5 123.3 123 123.2 123.6 123.7 123.3 123.3 123.5 123.8 123.9 124.4 125.3 125.5 125.3 125.5 127.3 128 128.6 129.5 129.3 130.2 131.4 132.6 133.2 134.8 136.5 137.2 137.4 140.4 140.9 142.1 143.7 146.4 147.4 148.4 149.6 149.1 150.1 150.8 151.6 153.3 153.4 152.1 152.1
314.8 318.1 317 315.9 309.6 302 296.1 291.2 288.1 287.7 286.6 281.8 291.2 305.1 313.5 325.5 333.8 343.6 344.9 344.1 346.7 345.3 342.4 339.1 335.6 328.6 321.4 315.8 307.2 301 292.3 286.4 280.4 273.4 266.8 260.1 253.7 244.1 236.1 230.8 223.7 218.8 216.7 211.1 204.2 197.4 191.1 186.3 182.2 179.3 176.4 174.8 174 173 172.8 174.6 173.8 171.8 170.2 168 165.8 163.8 158.5 157 160.9 164.7 165.7 167.2 169.3 169.1 165.2 162.3 159.5 159.8 158.7 159.4 159.9 161.4 161.9 161.3 160.9 156.2 156 154 152.4 150.4 148.7 147.9 146.8 145.8 145.4 145 144.1 143 142 141 140.4 139.8 139.5 137.3 135.9 134.1 136.6 134.6 134.1 131.4 131.6 132.1 132 130.5 133.1 133.9 134.1 133.8 133.5 133.9 133.8 133.5 133.1 133.1 133.1 133.1 133.1 132.8 132.8 132.4 131.3 130.7 130.5 130.2 130 129.3 128.5 128.3 128.5 128.7 128.6 128.4 128.4 128.4 127.9 127.3 126.3 125.5 124.8 124.2 123.5 122.8 122.8 122.9 122.8 122.6 122.5 122.4 123 123.7 123.6 123.4 123.1 123.5 123.1 123.2 123.3 123.5 123.7 123.8 123.9 124.6 124.2 124.4 125.2 126.7 126.2 126.9 128 128.2 129.9 130.7 131.3 131.8 134.2 134.7 135.9 136 138.2 139.3 140.1 142.4 143.8 145.6 147.3 148.4 149.4 150.4 150.8 151.4 152.2 151.2 149.7 150
309 311 310.6 307.5 301.7 295.2 289.6 283 281.9 281 274.3 281.3 296.1 312.2 321.5 331.1 338.5 344.8 347.6 346.6 345.1 342.8 338.1 333.8 330 326.5 320.4 316 304.4 296.2 288.9 282.9 277.7 271.1 264.2 258.5 252.5 247.1 237.2 225.8 215.7 209.2 207.9 203 196 190.3 185.6 181.3 178.8 176.2 173.6 172.1 171.6 170.6 170.2 170.2 169.6 167.8 166.2 164.5 163.3 160.8 157.1 155.6 155.8 158.1 159.1 159.5 156.7 159.3 154.7 154 154.5 152.9 153.6 154.1 154.6 155.5 156.4 155.8 156.8 156.1 154.7 152.8 150.3 148.8 148.1 147.1 146.3 146 145.4 144.5 143.4 142.6 141.6 140.6 139.9 137 135.7 135.2 133.5 131.9 131.9 131.9 132.9 131.9 132.4 134.2 134.4 134.9 135.3 134.9 134.6 135.3 135.2 134.4 133.9 133.5 133.2 133 133.1 133.1 133.1 132.6 132.5 132.3 131.4 130.6 130.3 130 129.8 129.5 128.5 128.9 129.3 129.4 129.4 129.1 128.8 128 126.8 126.5 126.1 125.2 124.3 123.5 123.1 122.8 122.9 122.9 122.8 122.7 122.5 122.4 123 123.6 123.6 123.4 123.2 123 123.1 123.2 123.3 123.6 123.6 123.7 123.8 123.8 124 124.4 125.1 125 124.5 125.6 127 128.2 128.7 129 129.8 132.2 132.3 133.5 134.3 134.6 136.7 137.2 139.2 140.1 141.8 143.1 143.9 143.9 146.5 149 149.1 150.4 151.6 150.5 148.3 147.4
302.3 303.1 302.7 299.6 294 287.8 276.8 270.9 274 269.9 270.8 279.8 301 316.5 327.4 336 341.7 347 350.5 349.2 344.4 337.8 333.3 328.1 320.3 312.6 311.3 306.5 296.3 291.3 285.6 278.5 273.6 267.8 261.7 251.1 246.2 240.7 233.9 224.5 211.8 206.7 201.1 193.3 186.6 184 180.6 177.7 175.2 172.7 170.8 169.7 169.5 168.4 167.5 166.7 166.2 165.2 163.6 161.3 158.9 156.8 155.5 154.5 153.5 153.8 153.2 152.5 152 152.1 151.8 151 151.3 150.5 150.9 150.9 151.3 151.5 151.5 151.1 152.4 152.9 150.3 149.7 148.8 147.1 146.2 146 146.3 145.2 144.9 143.3 142.1 141.7 140.6 138 136.3 135.3 134.5 133.8 134.1 133.8 134.8 134.9 133.4 133.4 135.2 136.4 136.6 136.9 136.6 135.7 135.3 135.8 136.1 135.1 134.1 133.6 133.3 133 133 133.2 133.1 132.5 132.3 132 131.6 130.8 130.2 129.9 129.8 129.7 129 129.4 129.9 130.3 129.4 128.9 128.5 127.6 127 126.6 125.7 124.5 125.6 125.3 125.2 123.6 123.1 123 123.1 123 123 122.8 123.3 123.4 123.4 123.4 123.8 123.2 123.1 123.2 123.3 123.5 123.6 123.7 123.8 123.7 123.5 123.8 124.1 123.9 124.4 125.2 126.3 127.1 127.4 127.8 128.1 129.3 131.3 132.1 132.2 132.7 134.9 135 136.4 138 139.1 140.4 141.1 141.4 144.6 145.4 145.8 148 148.3 148.3 145.8 145
289.5 291.1 290.7 287.4 282.5 275.8 265.5 256.9 258 258.6 270.2 284 303.1 317.2 329.4 338.4 344.6 350 352.5 350 345.8 340.3 332.3 323.2 315.2 305.5 302.8 297.6 288.9 283.1 279.3 272.2 268.1 264.3 261.6 253 239.5 232.6 229 226.7 219.2 208.6 201.8 192.4 187.1 180 177.3 174.6 172.1 170.1 168.9 167.8 166.7 166.1 165.3 164.4 163.6 163.2 161.7 159.6 157.7 154.8 153 152.2 152.1 152.7 152.2 150.8 149.6 148.9 149.1 148.5 148.3 148.2 148.6 148.7 148.8 148.4 148.3 148.4 148.8 149.6 148.5 147.5 146.5 146.6 145 144.5 143.7 143.1 141.8 139.9 138.6 137.5 136.7 135.3 135 134.8 134.7 136.1 136.7 136.3 137 135.5 135.6 135.6 137.8 137.9 137.9 137.6 136.8 136.5 136.1 136.5 136.4 135.7 134.6 133.9 133.4 133 133 133.3 133.2 132.6 132 131.7 131.1 130.9 130.1 130.2 130.2 130.3 130.3 130.2 130.3 130.4 129.4 128.6 128.2 127.3 127.5 126.8 126.2 126.6 126.5 125.9 125.1 124.4 125 123.5 123.4 123.4 123.7 123.2 123.2 123.2 123.2 123.2 123.4 123.7 123.5 123.2 123.3 123.4 123.5 123.7 123.7 123.5 123.3 123.1 123.6 124 124.3 124.5 125.5 126.2 126.4 126.6 127 128.2 129.3 130.2 130.7 131.3 132.5 132.6 132.9 135.2 136.8 137.9 138.3 139.1 141.2 141.4 144 146.3 146.9 146.4 143.9 143.3
274.7 275.7 274.6 271.9 269.7 259.9 248.3 242.7 246.8 256.5 270.2 286.7 302.6 315.5 330.9 337.8 344.4 350.1 352.8 349.7 345.6 340.5 333.5 324.6 314.1 302.6 296.9 292.9 284.7 281.7 279.3 278.8 276.7 273.2 266.1 250.6 241.4 238.4 230.2 220.5 211 201.8 194 187.1 180.3 176.4 174.2 172.5 170.3 168.6 167.2 165.6 164.3 163.7 163 162.2 162.1 161.2 160 158.7 155.7 152.6 151.6 151.5 151.4 151.3 151.2 149.6 148.7 147.8 146.9 146.5 146.4 145.8 146.8 147.2 147.5 147 146.5 146.5 146.8 146.5 145.7 144.3 142.8 142.8 142.1 140.3 138.8 137.9 137.4 137.6 137.3 137 135.7 137.2 136.9 138.1 139 139.1 139.1 138.8 138.5 138.5 136.2 136.9 138 137.9 137.4 137.1 136.9 136.6 136.4 136.6 136.7 136 135.2 134.4 133.7 133.1 133.1 133.4 133.2 132.6 131.8 131.7 130.8 130.9 130.5 130.6 130.7 130.7 130.7 130.4 130.3 130.4 129.5 128.8 128.1 128.4 128.6 127.5 127 126.7 127.2 126.6 125.6 124.7 124.5 124.5 124.7 124.4 123.9 123.3 123.2 123.2 123.2 123.2 123.2 123.3 123.5 123.8 123.3 123.4 123.5 123.7 123.5 123.3 123.1 123.2 123.5 124.2 124.9 124.3 125 125.3 125.5 125.8 126 127.2 128.4 129.3 129.8 130.2 130.4 130.3 130.5 131.2 134 135.2 135.6 136.2 137.9 138.8 140.8 142.1 143.7 144.3 141.1 141.1
