ncols 200
nrows 83
xllcorner 330000
yllcorner 223250
cellsize 50
366.1 388.5 419.6 443.5 465.3 479.7 488.8 499.9 509.8 517.7 520.7 527 530 517.4 489.2 457.2 428.8 396.5 371.8 354.7 335.6 320 309.5 303.5 295.9 288.2 280.7 272.5 259.4 246.4 235 224.4 216.1 208.3 200.3 192 184.4 176.6 169.9 164.7 158.4 150.8 144.5 140.8 137.5 133.7 131.5 129.3 127.1 125 123.9 123.4 123 121.5 127.8 139.5 147.7 152.5 158.1 164.6 171.4 178.9 186 193.9 202.6 214.4 222.7 232.5 243.2 253.2 264.1 278.9 288.6 294.8 299.3 301.7 304.1 305.3 304.9 304.2 303.2 301.5 298.9 294.9 288 282.5 273.8 265.5 256.3 248.7 242.1 235.2 231.2 227.9 224.1 223.4 222.5 220 217.6 213.4 211.2 210.7 209.2 207.9 206.9 207.6 207.6 208.2 208.6 209.2 210.3 209.3 208.9 208.5 208.6 209 206.3 203.3 199.9 197.3 195.4 192.9 190.2 188.7 188 186.5 184.6 181.5 177.1 172.9 167.9 163.4 155.5 144.2 129.8 121.3 120.1 124.9 133.5 141.8 150.7 162.6 173.9 176.8 175.5 171.5 167.4 166.6 166.2 169.4 170.2 170.7 167.9 167.2 167.6 166.2 163.7 160.4 156.8 150.7 144.9 137 128 120.7 114.1 107.3 99.5 95.6 97.2 96.5 95.6 89 85.3 85.4 82.8 86.4 86.2 85.2 83.8 81 77.3 75.7 74 72.3 71.2 70.7 70.3 70.2 69.7 66.2 67.2 68.7 69.8 70.9 74.9 76.6 79.2 81.8 87.3 92
349.7 370.8 395.8 420.1 442.9 462.4 476.4 485.4 492.4 501.5 510.4 517.1 523.9 525.2 499.4 470.6 437.5 406.6 380.1 358.1 338.7 322.5 311 304.2 297 289.4 280.8 271.6 258.3 244.7 233.7 223.5 214.9 207.7 200.1 189.9 182.1 174.7 168 160.3 153.8 146.8 143.2 140 136.7 133 130 127.6 125.4 124 123.1 122.6 122.2 123 128.5 139.1 145.4 153.3 159.8 166.7 174.1 182.4 189.1 197.6 208.8 218.5 225.2 235.8 246.5 257.2 269 283.9 290.9 295.9 299.4 301.8 303.3 304.4 304.2 303.5 302.8 301.6 299.3 295.7 290.8 285.7 280.5 273.7 265.7 259.3 253.2 248 242.4 238.7 234.1 230.4 226.8 223.7 220.7 217.6 217 216.5 217.4 215.2 214.4 214.7 212.7 213.5 212.6 213.3 213.5 212.2 210.5 209.6 209 208.5 206.2 203 199.8 197 195 192.3 190.4 188.4 187.5 186.7 184.7 181.1 176.7 172.2 167.7 163.1 158.3 150.7 138.3 127.9 117.4 116.7 125.6 132.7 141.3 152.3 165.3 172 172.6 169.1 164.8 163.1 162.1 164.3 164.9 165.2 163.9 164.4 164.7 163.4 162 158.1 154.1 149.7 142.1 133.3 125.3 118.3 113.8 109.2 102 101.3 97.7 94.8 91.6 88.3 92.2 93.1 90.6 93.6 92.9 93.1 89.3 84.6 81.6 78.4 76.4 75.6 74.3 70.9 70.6 70.4 70.3 67.7 68.9 69 68.9 68.1 70.1 70.8 72 74.3 79.8 87
339.3 355.3 375.8 399.8 421.4 442.4 460.5 471.6 478.6 486.8 496 505.5 513.5 520 508.8 480 447.4 418.3 388.5 362.5 341.7 324.4 312.2 303.2 296.1 289.1 280.1 270.7 256.4 243.4 232.9 223.2 215.7 207.8 199 190.1 180.7 173.3 163.6 158.2 150.5 146.6 142.2 138.7 134.9 131.5 128.4 126.2 124.3 123.5 123 122.5 121.6 125.5 128.9 140.2 148.3 154 161.1 169.3 178.1 185.9 195.9 205.7 215.8 223.5 230.1 240 251.7 263.3 275.9 285.7 291 296 299.3 301.4 302.2 303.1 303.3 302.6 302.1 301.5 299.1 296.7 292.1 287.1 282.4 277.1 270.9 265.5 260 254.3 249 243.8 240.2 234.4 230.9 227 222.8 223.2 222.3 221.9 222.6 221.6 220.7 219.8 219.1 218.2 216.7 215.8 214.7 212.4 210.9 209.7 209 208 205.2 201.7 198.3 194.7 192.5 190.2 188.1 187.1 186.5 185.3 182.3 178 173.4 168 163.9 159.2 154 149.4 137.8 128.8 119.5 113 117.8 125.9 131.9 141.2 152.1 160.5 166.7 165.3 162 159.7 158.4 160 161.6 161.6 161.1 161.3 161.9 160.8 159.7 156.4 152.8 148.9 143.4 134.8 128.1 122.6 116.9 113.5 107.6 101.3 97.6 95.3 91.9 96.2 98.8 99.9 96.7 97.8 99.7 97.2 91.4 86.2 85.3 83.2 80 80.2 79.3 73.1 70.3 70.4 70.4 69.7 66.4 69.3 68.9 67.9 75.6 68.2 68.5 70 73.6 82.3
329 344.1 359.8 380 400.2 424.5 438.4 452.3 465.5 473.4 483.4 491.5 500.5 510.5 512.9 487.1 457.5 427.3 395.2 367.9 345.7 327.7 313.1 303 295.7 288.5 280.5 269.6 256 242.1 232.6 224.2 214.5 206.4 198.2 189.5 179.8 171.7 161 153.6 148.1 144.3 139.8 136.7 133.6 130.6 127.7 125 123.7 123.5 122.7 119.1 122.1 124.7 132.7 141.6 148.4 154.2 161.3 168.4 179.8 189.4 200.3 211.1 219.2 227.1 234.9 246.3 257.7 269.4 280.4 289.5 294 296 299.2 300.3 301.1 301.9 302.5 301.9 301.6 301 298.9 296.3 291.8 287.7 283 278 272.6 266.9 261.2 256 250.9 245.5 240.9 236.5 233.1 229.5 227.7 227.5 226.5 226.3 226.8 225.9 224.8 223.8 222.3 220.6 218.5 216.7 214.7 212.2 209.1 207.1 206.1 203.7 201.1 198.1 195.7 192.4 190.9 188.5 186.1 184.3 183.6 181.3 176.7 172.7 167.5 162.7 156.9 151.2 143.3 135.1 129.4 123.3 118.4 113.9 112.5 121.7 126.3 133 140.4 150 156.7 158.7 158.4 156.3 155.4 157.4 159.1 159.2 158.9 158.1 158.6 158.4 157.2 154.7 152.3 148.9 144.2 139.5 133.9 128 122.6 117.4 112.2 105.7 100.2 97.1 97.3 100.3 105.5 105.9 100.7 102.7 103.8 99.9 93.1 91 90.6 88.9 85.7 85.4 85.4 79.6 68.8 70.4 70.9 70.7 69.3 66.4 68.8 68.4 75 67.9 67.9 69 69 77
319.1 331.1 345.3 363.2 379.5 401.3 418.3 431.9 445.6 459.2 469.1 479.4 490.2 501.6 508.6 490.1 465.8 434.7 402.2 372.2 350.6 330 312.8 302.7 295.3 288.1 279.4 267.5 255.5 241.3 231.2 221.7 213.9 205.9 197.8 188.6 178.7 171 161.6 152.9 147.5 143.1 138.9 136 133 130.1 127.7 125.2 122.6 121.9 120.3 119.1 121.7 124.8 131.5 140.4 147.6 154.2 162.3 170.5 180.8 190.9 202.4 214 223.1 231.3 239.9 251.2 265.3 278.4 285.2 291.7 295.9 297.6 298.6 299.4 300.1 300.9 301.7 301.4 301.2 300.1 297.7 295 291.6 288.1 283.6 278.2 272.8 266.2 259.3 255.5 251.1 246.2 241.7 238.1 235.3 232.9 231.2 229.4 228.5 228.1 228.3 227.9 226.6 225 224.1 221.7 219.5 216.4 213.5 210.9 207.5 204.9 201.4 198.8 196.6 194.2 193.8 191 188.8 186.3 184.1 182.2 179.9 175.6 169.5 164.9 158.9 153.4 148.6 139.8 135.7 134.9 130.8 125.3 120.8 116.8 112.2 115 120.3 126.1 132.4 140.1 147.6 153 153.7 152.8 152.8 154.8 156.1 156.6 156.5 156 155.5 155.5 155.3 154 152.7 150.5 147.9 145.3 140.2 134.9 131.6 124.9 118.7 111.9 105.5 103 103.9 103.9 110.3 111.6 109.2 108.6 105.2 102.4 99.3 96.3 94.8 91.9 89.7 89.7 87.3 81.6 80.8 77.2 74.2 72.9 72.2 70.4 66.5 68.7 70.7 67.5 68.2 67.7 67.6 72.3
311.4 321.1 333.7 346.8 363.4 377.8 400.9 411.4 426.5 439.2 454 468.6 481.4 493.7 504.7 499.6 473.8 442.8 410.8 377.6 354.9 335.2 316.1 303.3 294.2 286.4 277.1 266.4 253 241 230.1 220.3 212.1 203.6 196.3 189 179.3 170.8 164.1 154.5 147.7 141.7 138.5 135.8 133.3 130.2 128.3 125.8 122.8 121.5 118.6 120.9 122.7 124.5 130.3 139.6 147.3 154.1 161.2 169.7 180.9 191.8 204.1 214.9 224.6 233.2 244.6 257.2 271.8 283 288.5 293 296 297.4 298.5 299.3 300.1 300.8 301.5 301.3 300.6 299.2 296.5 293.6 290.7 287.8 282.7 277 272 266.3 260.1 254.2 250 245.6 242.2 239.1 236 233.8 232.2 230.2 229.1 228.5 228.7 228.9 226.9 225.5 223.9 222.3 219.2 215.6 212.4 209.6 206.6 201.8 197.7 194 190.7 189.7 188.7 187.6 185.8 184 181.6 178.4 173.5 167.5 161.1 154.9 152.3 153.2 152.4 151.4 148.3 145.6 142.7 135.4 129.2 121.7 114.6 104.6 113.3 117.8 124.2 132 139.9 147.8 151.7 148.6 150.1 152.2 152.9 153.2 153.3 153.3 152.9 152.5 153.3 152.6 152.9 152.2 150.1 148.4 145 142.3 139.4 134.1 125.9 119.2 114 110.6 111.5 113.8 118.1 120.3 116.7 114.5 112.3 109.3 105.7 103.1 99.3 96.2 94.8 93.2 90.9 85.1 87.1 83.1 80.7 78 76 73.4 72.8 71.2 69.5 66.2 67.9 67.4 68.1 70.1
302.6 312.4 321.4 333.9 344.5 357.8 373.6 388.9 408.8 421.7 441 459 473.7 487.3 498.8 503.7 478.2 447.7 414.9 382.8 356.5 336.9 316.9 301.6 292.3 285.5 276.3 265.4 252.8 240.1 229.3 218.4 210.6 202.5 196.3 187.4 178.1 172.5 163.9 154.3 147 141.3 138.1 135.4 132.8 130 128.2 126.4 123.4 120.3 119.4 120.9 121.5 124.1 130.8 137.1 146.3 152.7 159.7 169.3 179.2 189.2 203 214.6 225 233.3 245.4 257 277.8 283.9 289.8 293.6 295.4 296.8 297.4 298.7 299.7 300.5 301.2 300.5 299.4 297.9 295.6 292.5 289.4 285.7 280.9 275 271 264.3 258.4 253.3 249.2 244.6 241.6 238.4 235.5 232.4 231.1 229.6 228.7 229 229.2 229.1 227.1 225.6 224.2 222.7 219.5 215.5 213.1 210 206 201.8 198 192.8 189 184.9 182.6 180.9 180.3 179.8 177.9 171.5 164 164.4 163.5 164.2 162.9 163.5 163.8 161.9 159.6 157.4 154.7 151 143.2 132.5 120.4 111.7 105.5 109.6 116.9 125.9 135 142.2 145.4 144.5 145.4 148.3 149.8 151.2 150.1 149.7 149.3 149 150.3 153.1 153 152.8 152.7 151.8 150.5 148 145.4 141 135.6 130.6 126 122.2 121 123.3 128 127.7 126.6 124.3 121.9 118 113.5 108.9 106 102.8 101.2 98.9 94.5 92.8 90.4 87.5 83.8 79.6 78.3 78.2 78 76.6 73.8 70.4 68.2 67.8 67.2 64.5
294 302.7 311.1 319.5 330.2 342.3 355.5 369.3 389.1 408.3 432.7 450.9 468.5 481.2 492.7 499.4 478.2 448.3 416.5 385 355.9 333.7 318.3 300 292.5 284.2 276.5 262.6 250.4 238.4 226.4 216.5 208.2 200.5 194.5 187.1 177.4 170.4 163 154.9 146.1 140.8 138.1 135.3 132.4 129.8 128.8 127.1 124.6 119.2 121.4 120.9 121.6 125.3 126.8 134.1 142.6 150.8 157.1 166.5 176.8 187 198.3 213.5 224.3 232.2 243.8 255.1 272.4 283.1 287 290.8 293.8 296.2 296.1 297.5 298.8 299.4 299.6 299.1 297.9 296.1 294 291.2 287.4 282.5 277.5 272.6 268.4 260.9 255.7 251.3 247.2 242.9 239.8 236.5 233.5 231 229.5 228.3 228.2 227.9 228.6 228.3 226.7 225.5 224.1 222.9 221.5 218.1 215.2 212.1 208.7 203.9 200.6 195.7 192.7 189.4 186.1 183.9 181.7 177.6 175.1 175.3 174.9 175.3 174.6 174.8 173.5 172 169.8 166.9 164.6 161.7 158.3 155.6 150.9 141.1 127.9 116.1 108.3 103.9 110.2 121.3 131.5 137.3 140.3 139.5 140.9 144.6 147.4 148.2 148.4 146.4 145.6 146.4 150.4 154.2 155.1 154.5 154.7 154.6 153.5 151.9 149.2 146.5 143.1 140 136.4 132.9 132.2 133.3 134.6 134.4 133 130.5 128.3 124.6 120.6 116.8 114.8 112.7 107.8 103.6 99.8 98.2 94.7 90 85.8 82.1 82.1 81.5 79.9 76.9 74.5 72 69.5 68.3 67.5 65.3
284.6 292.6 301 308.7 318.5 330.1 341.2 353.9 374.2 399.7 421.9 445.5 465.3 476.5 490 495.7 479 447.2 414 382.8 355.7 329.9 313.1 299.9 290.4 282.3 273.2 261.9 247.5 237.3 224.3 215.1 206.1 199.5 191.9 182.4 175.1 169.2 161.8 153.4 146.2 141.4 138.9 136 133.5 131.1 129.6 128 125.4 119.5 120.7 120.4 121.6 123.3 125.1 131.3 139.4 148 154.5 163.3 173.8 182.2 193.7 206.2 219.5 228.1 238.2 249.3 263.5 277.4 283.5 287 290.1 291.6 293.7 295.5 297.4 297.9 298 297.1 296 294.3 292.1 288.4 284.2 279.8 274.7 268.9 264.3 257.9 252.9 249.1 244.9 241.1 237.9 234.6 231.5 229.7 227.8 226.5 226.6 227.1 227.7 226.5 226.3 225.1 224.2 223.2 222.2 219.7 216.5 213.4 211 207.5 205.1 200.8 196.3 193.9 190.7 188.4 185.6 184.2 182.8 181.8 181.8 182.8 183.2 181.9 179.4 176.2 171.7 168 165.4 162.3 159.3 156.9 153.1 145.8 135.7 120.8 110.2 104.4 107.4 115.5 125.4 131 134 132.8 137.8 142.7 146.1 146.8 145.9 143.8 144.7 146.5 150.2 153.4 154.4 155.5 156.2 156.5 155.1 153.4 151.3 149.3 147.3 145 142.2 139.7 138.9 138.1 137.5 136.4 135.8 135 133 130.5 126.6 124.3 122.4 117.7 111.8 109.6 105.6 101.1 97.2 91.9 88.5 86.9 85.3 83.6 80.1 76 74.4 71.7 69.7 67.8 67.1 66.9
275 282.7 290.6 297.4 308.1 318 330.1 345.8 368.9 393.8 420.8 443.3 464.5 474.8 487.8 492.3 474.5 442 410.9 379.2 351.9 327.8 309.4 297.8 288.9 279.7 269.5 258.5 244.7 234.7 221.7 213.7 203.8 197 188.1 178.6 173.4 168 161.8 154.1 147.3 142.8 139.7 137.3 135 132.5 130.5 128.5 126.2 119.9 119.6 120 121.6 123.1 124.9 128.4 136 144.7 152 159 169 177.9 187.1 199.4 211.8 222.9 231.9 243.5 253.6 269.8 279.1 284 286.6 288.2 290.7 292.7 294.4 295.4 295.7 294.9 293.8 292.5 289.4 285.2 280.8 275.3 270.7 264.1 259.2 254.1 249.2 245.7 242.4 239.4 235.7 231.8 229.6 228.2 226.4 224.6 224.7 225.6 226.3 225.1 225.2 225.2 224.7 223.9 222.5 220.4 217.8 214.6 212.8 210.3 207.8 205.7 201.9 199 195.7 192.9 190.4 189.3 187.9 187.3 186.2 185.2 184.2 182.8 180.1 175.1 170.2 167.2 162.4 160.3 157 153.7 149.7 144.3 137 125.7 113.3 105.4 102.2 109.5 117.8 124.4 126 132 138.4 143.4 145.8 146 143.5 141.5 142.4 145.4 149.7 153 153.6 154.5 154.8 155.6 154.4 153.1 150.9 149.4 147.9 147 143.3 141.4 141.5 139 137.4 137.4 136.4 135 133.6 132.6 131.4 129.5 126.1 121.6 116.1 111.6 108.6 104.1 99.2 95 92.9 91 87.9 84.9 80.8 76.4 75.3 74.2 70.8 68 66.9 66.4
268 275.3 282.2 289.1 299.3 314.4 329 349.1 372.8 400 422.5 445.8 464.9 476.2 487 488.2 465.4 435.7 403.5 372.6 346.4 324.2 307.6 293.9 287.8 279 267 257.1 243.2 233.4 219.8 211.1 202.4 194 185.7 176.8 170.8 166.4 159.7 153.9 146.9 143.9 141.7 139 136.5 134 131.5 129.1 127 123.3 119.2 118.4 120.3 121.1 122.8 125.3 132.8 141.2 149.1 156.4 165.3 174.8 182.8 191.6 205.2 216.1 225.8 236 248.6 259.6 274 280.5 283.2 285.4 287.6 289.8 291.8 292.8 293.5 292.9 291.2 288.7 284.7 280.5 276.1 270.4 266.2 261.5 256 251.8 247.3 242.9 239.4 236.6 231.6 228.6 226.5 224.9 224 222.6 222.2 223.3 224.2 224.2 224.3 224.8 224.2 223.3 222.3 220.5 218.3 216 214.5 212.1 209.5 207.6 206.1 203.7 200.1 196.7 194.4 192.5 191.6 190.4 188 185.7 184 181.2 177.4 173.6 169.1 163.8 160.2 156 152.4 149.1 142.9 137.4 130.5 122.7 112.4 103.3 102.2 104.5 109.6 113.9 122.9 131.7 137.8 142.6 144 144.4 141.4 136.7 141.3 145 149 152.1 152.3 152.1 152.4 153.7 152.9 151.2 150 148 146.5 146 142.6 141.5 140.4 138.8 137.2 135.6 134.9 134 133 131.5 132 129.8 125 120.9 117.5 113.8 110.6 106.4 102.5 98.5 96.3 92.8 89 85.7 82.9 76.7 75.9 75 71.2 67.4 66.9 67.5
263.1 267.8 276.6 286.9 298.7 315.1 331.6 352.6 379 408.1 429.8 454.2 466.5 478.2 486.3 481 455.4 424.7 392.5 364.9 338.8 321.5 305.3 291.9 284.6 275.4 264.7 252.6 238.4 229.3 217.7 206.9 198.9 190.8 181.5 174.6 168.9 163.9 157.5 152.6 149.1 146.1 142.5 140 137.2 134.7 131.9 129.6 127.9 127.1 122.4 118.2 116.9 118.5 120.2 123.2 129.8 138.1 145.9 153 159.4 168.1 178.5 186.9 197.8 210.4 222.3 232.9 243.4 254.4 268.9 275.9 278.8 281.5 284.1 286.8 288.8 290.4 291.3 291 288.2 284.7 280.1 275.7 271.6 266.3 262.1 258.5 253.5 248.9 244.7 240.7 236.6 233.3 228.3 225.6 223.8 221.6 220.4 218.6 219.1 221.7 221.6 222.1 222.7 223.5 222.9 222 221.5 220.2 218.5 216.8 215.1 213.3 211.2 209.9 208.5 206.1 203.2 200.4 198 195.4 193.2 191 188.1 185.4 181.9 178 173.9 168.8 164.6 160.2 155.3 150.3 146.1 141.6 134 127.1 118.4 113.3 109.5 106.7 103.3 100.9 102.8 111.5 120.8 126.8 132 138.9 141.1 141.9 139.6 133 139.2 144.2 148.7 150.8 150.5 150.2 149.5 149.6 149.5 146.6 145.7 145.4 144.9 143.9 142.1 140.1 138.2 136.5 134.7 133.3 132 129.7 128 128.3 128 125.9 121.4 119.3 116.9 112.6 110.2 106.8 102.9 99.3 93.8 91.3 88.5 84.8 79 77.7 76.8 73.7 69.8 67.4 66.7 67.7
256 266.8 277 287.5 301.4 319.2 338.5 360.1 388.1 413.9 436.7 457.5 467.6 481.5 487.9 473.8 447.5 414.4 383.6 356.4 334.8 316.8 301 290.1 283.1 273.6 262 249.7 238.1 226.1 214.8 204.2 196.1 188 179.9 173.5 168 161 156.6 152.5 150.9 147.7 144 140.4 138.3 135.1 132 129.4 128.7 125.3 122.4 118.4 118.3 117 119.5 122.2 127.3 134.8 143.1 150 155.8 164.3 174.5 183.1 192.7 202.1 217.8 227.8 238.3 250.3 261.9 270.7 275.2 278.8 281.8 283.4 285.6 287.4 287.8 287.4 284.4 280.5 275.8 271.5 268.1 263.8 259.9 255.9 251.2 246.7 242.2 238.7 234.3 229.6 226.5 222.7 220.7 220 218.6 215.5 218 219.2 220.3 221.2 221 221.3 220.3 220.2 219.9 219.3 218.3 216.6 214.8 213.6 211.7 210.5 209.3 206.6 204.4 203.3 200.9 197.2 193.9 191.1 187.5 184.3 181 175.4 168.3 163.6 159.3 155.1 150.3 144.5 138.9 131.4 124.6 119.3 118.3 116.4 113 109.1 105 100.8 98.6 101.7 110.2 118.7 123.3 131 134.5 136.7 135.1 127.1 136.4 142.3 146.9 149.1 148.8 148.4 147.6 146.5 145.3 142.9 140.8 140.4 141.6 139.6 138.5 137.1 135.9 134.3 132.4 130.4 127.9 124.3 122.5 122.2 120.7 119.1 118.7 117.3 114.1 110.8 107.9 101.1 99 92.9 86.5 86.6 84.6 83.3 77.5 78.4 75.9 72.4 69.1 66.6 67.1 64.2
257 268.1 279.2 292.5 308.7 326 349.7 370 398.7 421.2 447.7 461.2 473.3 484.8 484.5 468.6 440.4 407.4 379.1 352.7 330.5 314.5 300 288.7 280.7 272 261.6 248.8 237.5 223.5 213 202.9 194.1 186.1 178.9 171.7 163.6 160.9 157 152.3 149.5 146 142 139.5 135.8 132.7 130.6 129.3 128.3 123.2 120.8 118.1 117.4 118.4 120.4 121.5 125.7 131.1 138.5 145.9 152 161.2 171.1 178.9 186.8 198.8 212.8 224 232.7 242.2 251.1 265 270.8 275.5 277.9 279.9 281.7 282.8 283 282.6 279.7 275.3 271.7 267.8 264.4 261.8 257.7 253.7 249.7 244.8 241.3 235.7 230.3 226.2 223.1 220.6 218.9 217.8 216.1 212.5 215.8 217.9 219.5 220 219.5 218.6 218.5 218.6 218.2 217.5 216.7 215.5 213.7 213 212 210.8 209.7 207.3 205.3 204.9 203.3 198.3 195.3 192.3 188.7 184.8 181.2 176.4 168 162.6 157.1 153.3 149.4 146.1 141.6 139 135.1 131 127 122.3 119.2 115.1 109.8 105.4 101.1 98.7 98.2 107.7 112.5 124.1 126.4 129.7 128.7 123.2 132.1 139.2 144.4 146.8 146.9 145.8 144.8 142.9 140.9 138.8 136.6 135 135.8 135.4 134.7 133 131 130.8 129.7 125.2 122.6 119.3 115.7 115.1 114.3 112.2 111.2 111.9 109.6 105.5 101.2 93.6 92.9 85.8 79.6 82.4 80.8 77.7 77.7 76.2 74 70.2 68.6 66.3 66.7 66.7
260.5 270.5 283.5 297.8 315.5 332.9 352.8 377.7 407.3 431.4 455.3 466.1 479.3 486.6 480.8 462.6 434.1 401.4 373.6 350.5 326.2 310.5 297.3 286.4 277.4 268.8 258.9 246.8 234.3 221.7 209.8 200 192.3 184.9 175 168.9 165.6 163.2 159.1 156.3 152.2 147.7 143.8 140.5 138.1 135.3 131.9 129.2 125.2 123 119.5 116.3 119.2 119.1 119.9 121 125.2 129.6 134.7 142.6 148.8 157.5 167.2 175.6 185.5 196.1 208.9 220.5 229.8 236.4 242.6 253.2 265.4 273.8 273.8 274.9 274.7 276.2 277.7 276.5 274.4 271.1 267.5 264.7 262.5 260.2 256.4 252.7 249 246.1 242.4 238 233.7 230 225.2 221.3 217.4 214.8 211.4 210.2 210.1 213.9 216.6 217.8 216.8 216 216.1 216.9 216.3 215.5 214.7 213.9 212.8 211.9 211.2 210.2 209.8 207.5 205.7 205.2 202.8 198.8 196.2 193.3 189.8 185.7 182.7 177.3 171.6 167 162.4 159.4 156.4 154.2 151 150 151 148.1 142.6 137.2 130.6 125 118.3 113.2 109 102.5 97.8 96.7 100.7 105.9 113.3 121.2 121.3 114.9 130 137.9 141.5 144.2 144 143 140.8 138.7 136.7 134.8 133.1 131.1 130.9 130.5 130.8 128.7 126.5 127.7 126.7 122 117.4 111.4 108.2 108.4 106.2 103.6 105 104.7 102.3 98.1 92.6 84.6 83 77.4 71.1 76.5 76.2 74.5 73.8 73.1 72.2 69.8 66.9 66.4 64.6 70.2
263.2 274.2 287.3 301.1 317.9 338.4 361.7 389.4 412.6 438.3 460.2 473.8 483 487.4 477.6 460.9 430.7 399.7 368.8 346.4 325.4 307 294.6 284.2 274.2 263.8 254.9 242.8 229.7 218.3 208.9 198.8 188.5 180.1 178.5 174.4 171.3 167.6 163.6 160.4 155.9 151 146.1 142 139.7 136.2 133.2 129.7 125.2 122.7 121 118.3 118.8 118.7 119.4 120.2 124.1 128.1 132.2 140.5 146 154.4 163.5 172 181.9 194.4 205.7 215.1 223.7 229.5 237.4 245.3 255.6 267.9 269.1 268.1 267.9 269 270 269.8 268.1 266.4 264.7 262.9 260.8 257.4 254.2 250.7 248.6 245.9 242.6 238.5 235.7 231.8 227.9 224.3 221 218.7 215.1 211.4 208.1 207.3 212.4 213.4 213.5 213.6 214.2 215.2 215.5 215.6 214.7 213.6 211.7 210.9 210.6 209.9 209.3 207.8 206.2 205.1 202.5 199.7 196.3 193.8 190.8 187.9 184.7 181 176.9 172.9 170.5 167.6 164.5 161.8 160.1 158.8 157.8 156.2 153.1 150.2 146.2 139.6 131.7 123.1 121.4 115.1 105.5 98.1 95.2 96.6 102 106.9 109.9 112.3 125.2 134.8 138.4 140.3 141 140 137.2 135.2 133.5 132.1 129.5 129.1 127.8 126.3 126.4 125.3 123.8 124.8 123.4 120.5 117.1 113.4 106.5 94.9 95.5 93.5 95.3 95.6 92.9 86.7 84.1 75.9 69.4 70.1 69 69.7 73.3 71 70.8 69.2 69.3 68.4 67 66.5 64.4 68.8
264.2 277.2 290.9 305.2 322.6 343.2 368.2 394.3 420.3 448.4 464.3 478.3 488.6 486.2 475.7 460.1 429.9 397.3 369.9 343.6 323.1 305.5 293 283.6 271.3 261 251.1 239.5 226 217.3 208.1 198.2 188.6 187.9 184.2 179.6 175.4 171.8 168 164.8 160.2 154.8 149.3 144.6 141.2 137.7 134.5 130.4 125.8 122.8 120.1 118.1 118.1 118.4 118.3 120.3 121.9 125.3 131.2 139 145.4 152.1 160.4 169.7 179.4 187.6 199.8 208.9 216.1 222.2 230.8 238 246.2 254.6 260 262.4 262.2 262.3 262.9 263.1 263.9 262.9 262.3 260.6 257.8 255.2 252.7 249.9 247.2 244.4 241.8 237.8 235.2 232.6 228.9 224.6 222.6 219.6 216.9 213.5 209.3 206.4 205.6 210.1 210.4 211.5 213.5 214.4 215 214.7 214.6 212.7 210.4 208.9 208.1 208 207.7 206.9 206.2 204.7 202.1 198.6 195.8 193.2 191.1 189.1 186.4 183.1 180.7 178.5 177.2 175.2 172.4 170.6 167.6 163.6 162.5 159.9 157.2 154.3 150.9 147.7 141.3 135 130.1 124.5 116.2 108.6 100.7 94.9 94.2 95.2 99.3 107.5 118 127.4 132.6 135.9 136.4 136.4 133.7 132.1 130.8 129.6 126.6 124.5 124.5 122.4 122.4 121.4 120.9 120.4 119 117.5 114.8 111 106.2 99.5 88.7 81.3 86 82.8 77.4 72.4 70.6 68.3 65.3 64.7 64.6 69.6 68.3 68.2 67.9 67.8 67.9 67.8 66.6 66.6 66.2 70.6
265.8 278.5 290.5 306.4 322.6 343 369.4 399 423.2 451 467.7 481.3 490.6 485.5 474 461 430.2 397.4 368.3 344.8 323.4 305.6 292.7 280.4 268.5 257.6 246.4 235.8 224.8 215.9 208.5 197.1 196.3 193.9 190.3 187.7 182.6 177.5 172.7 168.2 162.6 159.1 154.5 148.2 142.7 138.9 135.6 130.9 126.5 122.7 119.6 117.3 117 116.6 116.6 117.7 119.4 123.8 129.7 138.7 144.9 150.1 157.2 167.6 176.7 184.7 193.1 199.2 209.9 216.5 224.5 231.6 238.3 244.1 250.2 253.4 254.3 255.3 256.3 256.4 256.9 258.4 259.2 255.5 254.6 253.1 251 248.6 245.7 243 240.6 237.4 234 231.9 227.9 224.4 221.9 219 216.7 214 210.9 207.4 200.4 205.1 208.4 211.2 212.9 213.8 214.6 214.6 213.7 210.9 209.3 207.1 206.8 206.3 204.6 204.5 204.7 202.8 199.8 196.8 194.6 192.4 190.4 189 186.8 184.8 182.3 180.7 179.4 179.1 177.7 175.3 170.7 168.6 165.7 162.9 159.6 156.4 153.5 149.6 144.5 139.5 135 129.4 124.2 118.3 111.5 100.6 94.1 92.7 96.1 100.9 107.1 115.5 124.2 129.4 131.5 131.6 129.8 127.9 126.7 126.5 125.8 122.9 120 116.7 117.2 116.8 117.6 115.8 114.6 113.2 111 108 104 97.2 87.2 72.9 72.1 71.2 68.9 65.4 68.5 68.4 68.3 68.3 68 67.6 64.7 65.7 64.9 66.3 67.4 67.1 66.5 66.9 65.2 72.8
267.1 278.8 290.5 306.5 322.5 346.9 371.6 399.6 425.4 451 467.4 480.5 490.1 485.8 474.3 460.8 430.5 398.6 370.9 346.4 324.7 305.9 292.4 279.9 266.9 257.7 247.9 236.9 228.1 215.2 209 208.4 204.2 200.4 196.5 193 189.8 185.6 180.9 174.2 168.5 163.9 159.2 153.1 146.1 141.5 136.9 132.8 127.8 123.3 120 115.6 116.8 116.5 116.1 115.4 112.7 121 128 136.6 144.2 148.1 155.2 164.3 172.9 177.9 185 193.5 202.8 210.4 219 226.2 230.9 236.5 240.7 244.6 245 246.9 248.6 249.7 251.2 253.4 253.1 251.3 250.2 249.3 247.6 244.9 242.9 241.2 239 235.7 233.1 230.7 226.7 222.9 220.2 218.4 216 213.5 210.1 206.7 201.9 202.9 208.7 210.8 212.3 213.4 213.4 212.6 210.2 208 206 204.4 203.6 203.3 202 201.4 199.7 198.1 196.2 194.2 192.2 190.9 189.5 188.1 185.5 183.9 182.4 181.9 180.2 179.8 179.6 178.6 175 172.2 168 163.9 159.9 156.3 153.3 148.5 143.4 137.7 134 128 124.2 118.4 111.2 100.1 94 91.9 92 94.9 98.9 104.4 110.3 118.2 123.7 126.3 124.3 122.4 122.6 123 124.4 122.8 117.5 110.6 111.6 112 113.6 111.9 110.3 108.1 106 103.8 98.1 90 78.7 70.7 68.3 69 68.7 68.5 68.6 68.7 68.6 70 68.3 67.8 68 66.8 65.5 65.6 67.1 66.8 66.5 66.1 63.5 72.6
266.3 276.8 290.1 306.1 323.5 346.2 370.4 399.8 426.5 449.9 466.7 478.5 489.8 485.8 474.6 462.3 433.5 405.1 374 349.4 330.2 308.2 291.8 279.6 267.3 258.9 248.4 238.6 233.1 226.5 221.4 216.4 211.9 208 203.9 198.8 196.2 191.2 188.1 181.7 174.2 169.7 163.9 158.7 152.1 144 138.8 134.2 128.2 122.9 120.1 117.3 116.9 116.8 114.9 115.3 115.7 118.4 128 137.1 142.8 147.1 153 160.5 168.7 174.2 180.8 188.2 196.7 204.6 216 221.1 225.1 229.7 232.8 235.1 237.4 240.2 242.9 242.8 243.9 245.9 247.5 247.1 245.8 244.8 243.3 242.1 240.6 239.6 236.6 233.5 231.8 228.3 224.7 221.2 218.8 217.3 215 212.1 208.6 205.3 201.2 201.4 208.3 210.7 211.6 211.7 210.4 209.7 207.4 205.6 204.3 202.1 199.9 199.5 199 196.2 193.7 194.4 192.9 191.3 190.2 188.9 187.4 185.8 184.1 182.6 181.8 182.3 181.4 180.2 179.9 179.5 177.8 174.2 168.6 163.3 159 154.7 150.9 145.2 139.8 133.1 127.9 124.3 119.7 112.4 108.7 107.2 100.7 93 89.1 90.8 92.3 95.7 100.2 107.3 113.4 119.3 118.2 116.5 115.9 117.8 121.3 122.6 118 112 105.5 108.6 110.8 110.3 106.5 102.6 97 93.8 86.7 80 71.1 66.7 69 68.6 68.5 68.5 68.6 68.6 71.4 68.3 68.7 68.2 67.3 67.1 65.9 66.1 67.1 66.7 66.5 65.6 64.1 69.7
265.9 275.9 288.6 305.1 323 345.9 373.1 401.8 424.5 448.6 467.3 477.6 489.9 486.8 476.1 464.4 443.3 412.2 379.8 353.1 334.3 312.7 297.3 284.2 269.2 262.4 255 249.1 242.7 237.8 231.7 226.3 222.9 217.3 211.8 205.7 200.8 195.6 192.1 187.3 179.6 171.9 166.6 162.5 154.6 147.1 139.2 134.4 129 124 119.9 118.6 117.6 117.2 116 115.5 116.6 118.6 127.6 136.2 141 145.5 149 154.5 164.7 171.5 177.5 184.5 191.9 201.1 212.5 217.7 220.9 224.2 227.5 229.9 232.2 234.4 236.5 237.9 239 239.9 242 242.5 241.7 241 240.2 239.2 238 236.4 233.9 231.1 229.4 225.8 222.4 219.8 217.3 215.5 213 210.4 207.4 203.6 200 201.5 208.4 210.3 211.7 211.9 210.1 208 205.3 203.1 202.1 199.8 197.3 195.2 194.1 190.9 190.1 189.2 188.8 188.4 187.6 186.7 185.1 183.5 181.4 179.8 179 180.1 181 180.2 179.2 178.6 178.3 174.1 168.8 163.4 157.8 153 148.2 140.9 134.4 129.1 125.4 122.7 119.3 121.1 121.3 117 103.6 94.9 89.2 87.7 88.8 90.1 93.8 97.8 101.2 107.4 108.9 108.1 108.5 114.4 120 120.5 116.8 110.2 103 104.6 109.1 106.8 103.1 97.5 87.8 83.5 76.1 70.6 69.7 68.1 69.3 69 68.7 68.6 68.2 69.4 68.7 68.8 68.7 67.9 67.5 67.3 66.6 66.9 67.2 67.3 67 67.5 64.8 64.9
263.7 276.2 288.6 306.9 324.1 345.5 371.8 399.8 422.6 448.5 467.3 477.8 489.5 486.5 478.5 466.9 450.6 421.9 389.7 359.1 339.6 319.9 304.1 289.9 278.5 268.7 263.8 258 253.2 249 243.3 238.3 232.5 226.9 220 213.5 206.6 201.2 196.9 191.9 184.4 175.6 169.3 164.6 159 150 139.4 134.3 129.7 124.6 120.4 118.8 117.6 116.7 115.9 113.9 115.5 121.1 126.2 131.6 135.9 141.8 146.2 153.8 161.7 169.9 175 179.3 188.1 197.5 204.5 212.5 216.6 219.8 221.3 223.9 226.1 228.4 230.9 232.8 234.5 235.5 235.5 236.3 237.2 237.4 237.3 236.2 234.7 233 230.2 228.7 226.9 222.8 219.4 217.7 215.8 214.2 211.6 208.9 205.9 201.9 196.3 199.6 207.2 210.4 211.3 210.6 209.8 208 205 202 199.7 197.1 193.1 189.6 188.1 187.7 186.5 186.4 185.3 184.9 185.1 184.4 182.9 180.9 178.7 176.4 176.4 177.5 178.9 178.5 177.8 177.9 178 175 169.3 163.8 159 154.6 150.7 147 143.4 138 134.3 130.6 130 131 130.6 120.7 106.9 96.4 91.4 88.6 85.7 87.6 88.7 90.1 93.3 96.9 97.6 99 105.6 113.7 118.7 118.2 115 108.4 100.8 99.2 102.9 102 98.4 91.3 81.3 76.4 72.6 71 69.9 68.2 69.8 69.4 69.1 68.5 68.8 72.4 73.2 72.3 70.7 68.3 67.6 67.3 67.3 67.3 68 67.2 66.9 66.7 66.4 64.6
261.2 273 285.8 306.4 323.2 344.2 368 397.9 422.8 446.8 467.1 478.6 490.6 489.1 482.4 470.2 458.2 431.6 399.5 369.2 347.4 328.6 311.1 297.8 287.4 277.9 270.9 266.2 261.7 257 252 247 240.6 234.4 226.4 219.4 212.3 205.8 199.5 193.8 188.7 180.7 172.3 166.1 160.7 152.8 141.6 134.6 129.4 124.6 121.2 118.8 117.8 117 116.7 111.8 114.9 121.5 125.5 132.2 139 142.9 146.2 153 160.3 168.8 172.6 177.5 183.5 190.8 197.7 203.5 209.3 213.9 215.2 217.3 220.3 222.2 225 227.5 228.9 230.9 232.2 232.8 233.6 233.4 232.4 232.1 230.7 228.7 226.2 225.4 222.3 218.9 216.1 214.7 212.6 210.8 209 206.8 204.3 200.7 197.1 196.3 203.7 207.2 209 208 208.4 207.4 204.3 201.3 198.3 194.6 189.3 186 183.9 183.6 184.1 183.3 181.9 182.2 182.6 181.9 179.8 177.6 175.3 173.4 173.3 174.7 176.3 177 177.2 177.4 177.2 176 173.2 168.1 163.9 160.2 156.4 152.4 149.6 146.8 145.4 143.6 142.6 140.8 133.9 124.4 111.6 101.8 93 89.5 85.8 83.3 84.7 85.4 86.1 88.1 90.1 97.4 104.8 109.8 114.2 115 112.5 106.1 99.4 95.6 98.3 97.5 92.7 86.2 81.8 78.4 71.7 70.3 69.4 67.6 69.1 69.6 69.1 70.4 74 75.7 75.6 74.4 72.3 69.9 70.8 71.2 71 69.7 68.8 67.9 66.6 66.5 66.6 63.2
258.8 270.2 285.2 304 321.5 343.7 367.5 396.1 424 448.4 467.5 479.7 490.3 493.1 487 477.1 464.3 443.8 413.9 384.4 357.2 338.9 322.8 307.3 296.8 289.3 281.9 275.2 268.6 262.7 259.1 254.6 247.8 241.1 233.7 226.1 217.9 210.6 204 197.5 192.2 184.1 175.4 168.4 162.5 156.5 147 136.2 131 125.5 121.1 119.5 118.3 117 117.1 112.9 114.7 121 125.9 132.9 139.2 142.1 145.3 150.7 160.5 168.8 172.1 175.1 179.4 184.1 189.4 195.4 199.3 203.1 207.1 210.8 212.8 214.5 218.6 221.2 222.9 224.7 226.7 228.1 228.8 229.6 227.8 226.3 225.9 224.5 222.9 220.3 217.7 215.3 213.8 212.3 210.1 207.4 205.1 203.4 201.4 198.2 195.8 193.6 197.5 201.7 203.4 204.1 204.4 204.1 201.4 198.7 196.5 192.2 186.3 182.7 180.8 180.3 179.2 178.9 179.1 179.1 179.3 179.1 176.8 174.1 171.7 170.5 169.9 171.2 173.2 174.9 177.8 178.9 179.1 177.9 176.1 173.4 170.1 166 162.2 158.3 155.5 154 153.7 152.7 149.5 146.1 135.9 127.5 115.3 105.3 95.4 91.8 88.1 85.7 84.5 82.8 82.7 85.4 89.3 96.1 101.1 103.6 108.3 111.1 109.7 105.8 99.3 92.2 91.4 92.4 88.3 85.2 82.2 78.3 72 70.3 70.4 68.3 69.6 70 71.7 73.7 77 77.4 77.1 76.2 75.5 75.2 75.1 76 75.9 75.2 71.5 69.5 67.7 67.3 67.6 66.4
257.7 270.2 286.4 303.5 318.2 340.1 368.4 398.1 425.6 451.9 468.3 483 494.2 496.2 492.1 482.5 470.4 457.2 430.1 398.3 372.1 352.8 334.5 319.3 307.2 299.9 291.4 285 276.9 272 264.8 260.1 254.6 247.1 240.3 233 224.3 217 209.2 202.1 195.3 188.7 180.2 173.5 164.7 158.5 149.5 137.4 133.2 126.7 121.2 118.5 117.6 116.7 115.8 113.2 114.4 119.3 124.9 131.3 138.1 141.7 144.9 147.5 155.5 164.2 169.6 172.4 176.1 179 181.2 187.4 190.8 195 198.5 201.9 203.4 204.8 209.1 212.3 216.4 217.8 219.1 221 221.5 223.4 223.3 222 220.8 219 216.3 214.2 213 212.3 211.4 210 207.6 204.7 201.3 199.4 198.4 195.6 193.4 194.8 194.9 197.1 199.2 200.2 200.9 201.3 199.2 196.8 193.8 189.6 185 180.7 177.8 175.3 174.3 175 175.9 176 176 175.9 174.5 172.6 169.8 166.5 166.6 167 170.4 173.1 177.2 179.6 180.7 180.2 179 177.5 174.8 170.8 167.1 164.7 162.4 161.8 161 157.3 152.9 147.9 138.1 128.1 114 105.1 98.2 94.4 91.6 87.7 85.5 84.1 82.7 81.9 85.6 90.4 94.8 99.2 104.4 106.9 107.3 105.7 99.4 92 88.8 86.2 84 81.6 79.9 76.9 72.6 71.3 70.2 69.8 70.7 71.1 73.8 74.9 78.2 80.2 80.7 79.5 80.5 80.2 80.9 80.7 80.5 78.5 76.1 72.2 69.4 67.4 67 66.5
258.4 271.4 286.7 300.1 318.5 340.7 369.3 398.2 425.9 453.9 470.2 485.9 496.9 499.7 495.8 489.1 479.2 466.1 446.3 417.6 390.2 367.4 350.6 335.4 324.6 313.9 303 295.4 284.6 278.8 272.9 266.1 259.6 253.1 245.3 238.9 230.7 225.3 214.6 207 199.2 192.5 184.9 176.1 167.7 159.3 150.3 138.5 132.5 126.8 121.7 119.3 118 117.1 115.8 112.3 114.2 117.3 123.8 129.5 137.4 141.7 143.8 146.1 153.2 157.4 164.1 170.8 173.7 176.1 179.6 182.4 184.9 187 189.6 193.3 195.8 198.2 201.6 204.5 208.7 210.9 212.3 213.8 216 217 216.4 215.9 214.1 213.1 212 210.5 209.5 209 208.5 206.1 203.5 201.1 198 195.7 194.8 194.1 192.1 192.6 194.2 194.6 197 198 199 199.2 197.9 195.1 190.9 186.5 182.7 179.2 175.3 170.4 170.4 172.2 172.6 172.8 173.5 173.2 172.2 169.9 167.9 164.5 164 165.1 168.4 172.1 176.2 179.7 181.1 182.3 183.2 182.4 178.7 174.8 171.7 170.2 168.7 168 165.8 161.3 157.2 150 139.6 125.9 114.3 106.1 102 99 95.7 90.3 86 84.4 82.8 81 81.2 85.1 88.4 94.2 99.5 102.9 102.3 105.6 101.1 95.3 88.8 83.1 81.6 79.9 78.2 76 73.4 72.1 70.7 70.1 68.1 71.9 76.2 77 79.4 84 85.5 85.3 86 85.9 86.8 85.6 84.9 81.9 78.3 73.4 70 66.9 66.5 66.2
258.6 270.1 285 299.6 321.3 340.4 371.3 399.2 429.8 453.8 471.6 489.2 498.8 502.5 500.3 494.9 487.6 476.9 462.8 438.2 413 387.3 367.8 353.7 339.6 330.5 318 306.7 297.2 286.8 281.2 274.8 266.2 258.6 251.4 243.8 236.9 229.8 221.7 211.2 202.7 195.5 188.7 179.1 170.4 160.2 151.1 141 133.4 128.9 122.3 120.2 118.5 117.5 115.8 114.3 112.7 115.6 121 125.8 132.9 141.1 142.8 143.7 147.9 151.4 158.3 165.7 171.1 173.5 175.2 177.8 180.6 183 185.2 188.6 190.3 192.6 195.2 198 201.4 204.5 206.4 208.4 209.6 210.3 209.8 209.2 209.4 208.4 208.5 207.1 206.7 206.5 205.1 202.4 200 198 194.4 192.9 191.1 190.5 190.3 192.1 194.5 196.1 197.6 198 198.9 197.8 195.5 191.7 187.1 183.6 179.2 175.1 172.1 167.6 166.5 168.4 169.9 170.2 170.6 170.1 168.5 165.5 163.2 161.3 159.4 163.3 167.3 171.9 177 179.5 181.7 183.6 185.2 184.1 180.4 178.1 175.9 174.3 172.6 170.2 166.1 164.7 160.5 154.2 143.7 132.9 124.3 116.1 109.4 104 100.4 93.3 88.6 84.7 83.1 82.2 80.6 79.6 83.1 88.4 93.1 98 101.4 102.8 100.4 96.7 88.9 81.9 79.6 78.2 76.3 74.2 72.6 71.8 71 70.1 68.3 71.8 79.4 81.3 81.9 83.5 86.9 89.1 91.4 91.9 91.7 89.6 87.4 83.6 79 74.4 70.9 68.4 66.8 66.7
259.1 270.9 283.2 299.6 319 342.1 372.4 400.6 431.8 456.9 474.6 493.5 500.5 504 503.5 499.5 494.5 487.1 477.3 460.7 433.5 410.6 391.2 371.9 358.4 347.4 336.2 321.3 311.3 300.8 293.5 283.3 273.8 265.9 259.1 250.7 242.8 234 226.6 216.9 207.2 198.6 192 183.5 172.3 162 151.9 141.5 134 129.2 123.4 120.9 118.6 116.8 114.7 114.4 114 113.7 117.1 123 127 131.6 136.8 141.2 145.5 148.5 153.5 158.3 162.2 165.8 171.4 176.2 178.4 180 181.7 183.8 185.6 187.4 189.8 193.2 196 199 200.5 202.5 204.4 204.8 204.7 205.2 205.4 205.2 204.8 204.2 203.9 203 201.1 198.4 195.7 193.7 191.2 189.4 187.9 187.3 189.4 192.6 196 198.1 199.8 199.2 199.5 198.5 194.6 190 185.4 181.3 177.2 173.5 168.2 163.2 158.1 159 163.8 169.7 168.2 167.7 164.4 160 155.6 154.4 154 161.9 166.4 170.8 173.8 176 177.9 180 182.3 182.9 182.3 181.4 180 178 175.4 172.4 170 169.7 164 157.3 149.2 141.8 134.7 125.6 120.4 111.1 108 97.4 90.5 86.9 84.7 83.4 81 80.6 78.7 84.2 86.4 90.1 92.8 93.5 94.3 92.6 86.1 80.2 78.2 76.4 75.2 73.8 72.7 71.3 70.4 69.9 69.4 70.8 81.3 86.1 87.2 87.7 89.2 92.1 95.9 96.4 96.2 94.4 91.4 85.4 79.8 75.2 72.3 69.9 67.6 66.7
258.6 270.7 282.5 299.1 320.9 345.9 375 404.4 435.1 458 476.5 495.7 502.4 506 506.7 504.6 500.9 495.3 488.3 478.4 461.4 437.5 414.8 396.1 380.8 366.9 353.5 339.7 327.6 314.5 304.6 293.1 280 271.3 265.7 259 249.4 240.2 232.1 223.2 214.3 202.9 193.8 185 173.9 163.7 150.1 142.2 134.4 129.1 124.7 121 118 116.2 114.2 114.3 113.8 111.4 114.5 118.9 123.9 127.5 130.6 134.5 139.3 144.4 148.5 152.2 154.6 160.3 169.7 173.2 175.9 177 178.1 178 181 183.9 187.5 190.2 191.9 193.6 196.1 197.7 199.2 199.5 200.7 201.8 201.7 201.6 201.7 201.5 200.4 198.9 197.2 193.9 191.2 188.4 186.4 184.1 182.7 188.5 191.8 195.5 199.2 201.7 204 203.7 202.4 199.5 195.2 192 187.4 183.8 180.9 177.5 173.1 167.3 160.6 151.8 156.5 160 162.7 163.2 159.7 154.8 149.8 147.4 154.8 161 165.5 166.6 167 169.4 170.5 173.3 176.8 180.1 182.4 183.2 181.1 178.7 176.8 173.5 170.7 166.7 162.9 156.2 148.5 145.1 139.6 135.5 131.4 124.8 117.5 102.8 103.7 99.1 94 90.3 84.4 80.4 79.3 78.1 80.6 83.3 84.5 86.9 87 85.8 81.7 76.7 75.4 75.1 74.1 73 72.5 74.2 70.5 70.3 70.4 68.2 77.5 87.4 90.9 95.2 97.9 100.8 102.8 102.3 101.3 99.9 95.3 88.2 80.8 77.3 74 71.7 69.2 66.9
256.9 269.5 284.3 299.9 323.4 346 376.8 405.6 436.5 458.8 477.7 496.5 504.2 507.3 508.3 508.6 506.5 502.1 497 489.9 483.1 466.2 443.3 422.9 405 388.4 370.8 357.7 343.5 329.6 312.2 302.5 290.3 277.7 269 262.8 255.6 247.1 239 228.7 220.4 207.4 196.5 188.2 177.2 166.5 153.5 144 137.1 131.3 127.2 122.2 117.9 115.3 114.3 113.5 113.2 111.1 113.2 114.2 121 124.3 127.1 131.3 136.9 141.7 144.7 147.7 151.2 157.9 161.6 164.9 168.3 170.1 170.1 169.2 174.5 182.4 185.4 187.6 189.3 190.7 192.2 193.8 196 198.3 199.1 199 199.7 200 199 198.6 196.3 194.6 192.1 189.4 186.7 183.2 181.9 185.8 189.2 193 195.6 198.6 202.2 206.7 209.2 207.8 205.4 200.4 198.1 194.9 190.8 186.7 183.2 178.6 175.2 171.5 164.7 154.7 145.5 150 154.4 156.2 153.9 149.9 144.3 144.5 152.1 157.2 158.8 159.5 159 159.1 161.3 163.8 169.6 173.1 176.6 179.4 179 177 172.9 168.8 164 160.2 152.6 147.5 140.8 138.7 137.5 139.6 136.6 130.2 123.1 116.2 112.9 107.1 103.1 98.4 89.9 84.9 79.3 77 79.6 79.6 79.6 79.6 80.8 80.2 76.6 74.4 72.9 73.3 72.9 72.4 72.7 72 71.3 70.3 70.3 70.2 74 92 97 99.4 104.5 106.9 107.7 107 107.2 102.9 98.9 89.9 84.1 83.3 78.3 74.2 70.2 67.3
258.1 271 284.6 302.1 326.5 350.7 379.1 406.8 438.5 460.8 477.6 495.9 505.5 508.2 510.6 512.4 510.5 507.8 503.7 500.5 495.3 489.6 474.9 453.8 433.4 413.2 393.3 376.7 361.4 346.3 325.5 310.9 299 285.8 276.3 268.3 260.6 252.7 243.8 233.5 223.5 214 201.5 190.8 178.9 169.3 157.7 146.7 140.7 134.3 129.9 125.9 119.7 115.8 114.6 113.2 112.7 110.9 112.5 112.9 116.7 120.8 123.6 128.1 132.7 137.3 142.4 146.1 149.3 152.8 155.4 157.4 160.8 161.4 163.5 165.5 174.9 180.8 182.4 184.7 186.3 187.4 187.8 189.7 193 195.6 196.8 197.1 198.3 197.8 197.1 195.7 193.8 189.8 186.3 184.3 181.5 181.1 187.5 190.6 194.3 197 200.6 204.3 205.4 210 210.6 208.6 206.5 203.7 201.6 197.6 192.7 188.5 184.2 178.4 174.4 170.9 165.4 157.7 147.3 137 143.9 147.5 146 142.1 137.4 136.7 145.4 148.6 147.2 148 148.4 147.7 149.6 154.5 159.1 162.5 166.7 170.6 167.1 164.2 164.5 159.6 152.1 144.5 138.9 134.4 129 130.1 130.5 135.1 134.1 128 122.7 117.9 114.1 111.2 107 101.4 96 92.8 89.6 86.7 79.9 77 77.2 77.6 76.1 75.7 74.9 74.1 73.3 73 71.8 71.5 68.7 71.9 71.5 70.4 67.7 68.3 74.7 91.1 101 101.9 108.9 111.2 113.4 113.5 113.1 107.6 101.7 93.9 89.8 90.8 85.7 79.7 73.7 69.1
258.3 271.4 286.3 302.8 328.3 353.7 381.9 410.7 441.3 461.2 480.9 498.7 505.4 513.4 519.6 521.1 519 515.2 511.7 508.3 503.9 499.5 495.3 485 465.7 442.4 417.7 396.6 380.2 362.7 346.6 322.6 308.4 295 286.7 276.4 265.4 258 249.8 240.7 229.1 217.5 205.5 194 182.4 171.8 162.2 152.2 147.6 138.8 132.8 127.7 122.2 118.9 115.7 112.9 112.4 110 112.2 112.5 114.9 116.8 120.1 123.7 127.7 133.1 141.1 145 147.8 150 151.6 152.5 154.1 156.8 159.7 163.1 170 174.8 175.5 179.1 180.8 181.5 182.8 184.7 189.5 193.3 195.1 195.9 195.9 195.4 195 193.6 191.7 185.8 181.3 178.7 182.4 187.4 190.4 193.8 199.4 202.3 205.1 208 208.6 211.4 212.5 211.7 209.2 206.1 203.5 198.2 193 189 183.4 177.7 173.5 169.3 163.4 157.5 150.9 140.3 129.1 135.1 136.2 136.1 131.6 128.9 133.7 135.1 131.3 130.5 129.6 130.5 133.1 138 142.8 146.2 150.9 152.4 149.6 147.3 145.5 142.9 136.2 130.2 125.9 121.6 119.8 122.3 123.6 126.4 126.5 123.2 118.8 113 109.1 107.6 104.5 100.8 98.3 97.7 95.7 93.4 89.2 86.7 83 79 77.5 76.1 75 74.9 74.5 74.1 73.4 74.8 72.1 72.4 72.2 72.1 71.6 71.7 78.4 87.9 95 99.8 107.2 113.1 117.8 119.5 116.6 110.7 106.3 100.1 96.9 96.2 95 88.5 79.3 73.4
259.3 273.6 290.3 307.3 332.9 355.9 385.9 415.3 443.2 462.5 485.3 501.4 507.3 517 523.3 525.8 525.3 522.7 519.9 514.8 511.1 507.6 504.2 500.8 493.7 474.2 448.6 423.5 403.6 385.6 361 334.1 317.4 305.2 292.5 279.8 270.2 262.7 255.8 245.5 232.6 220.3 209.8 196.5 185.1 174.5 165.4 155 148.1 140.4 133.3 127.4 123.3 120 116.5 113 112.4 109.6 112.2 112.9 113.6 115 118.4 120.9 125 130.5 137.9 143.9 145.1 146.6 147.4 147.9 151.5 154.1 157.5 160.7 164.1 166.5 169.3 172.3 175.8 176.6 178.5 184.9 189.1 191.8 193.6 193.7 193.3 192.9 192.2 191.3 189.4 184.4 178.8 176.1 186.6 190.5 193.4 199 201.9 204.9 207.8 210.7 211.5 212.2 212.9 213 210.7 206.8 202.9 198 192.7 187.3 180.9 175.6 170.9 166.7 160.9 157.4 151.7 142 133 124.1 128.2 128 124.5 117.5 120.3 120 117.5 117.7 117.5 119.8 121.2 125.8 129.6 133.1 135.2 137.5 138 135.8 134 131.3 123.4 118.3 115.8 113.9 113 115.2 115.1 118.7 117.7 116.6 113 106.2 101.3 101.9 99.1 96.5 93.8 93.5 94.5 95.1 94.8 94.8 93.8 90.8 86.4 81.7 78.1 79.2 78.7 77.1 76.3 72.9 72 69.9 71.3 72.4 72.7 72.4 80.3 89.6 96 104.9 110.2 116.2 122.5 122.7 119.8 116 111.9 106.4 103.6 103.6 100.6 95.7 87.3 78.2
260.2 276.5 294 313.3 335.8 359.8 389 419.2 445.7 465.9 487.7 501.1 510.5 518.6 524.2 527.4 528.5 527.6 525.4 522.1 517.7 513.2 511.6 508.1 504.3 498.2 477 454.2 430.8 407.2 381.4 355 328.9 315.2 300.7 285.6 274 268.1 258 248.9 238.5 226.2 214.4 201.4 188.5 176.8 164.2 154.6 147.6 139.5 133 128.4 123.8 120.2 116.5 114.3 112.7 111.1 111.8 113 113.4 114.2 115.6 118.1 123.8 129.6 134.6 139.1 141.9 143.1 141.8 144.8 148.3 151.8 156 159 161.2 162.5 165.9 167.9 170.3 174.7 180.7 186.2 189.9 191.5 192.4 191.3 190.8 190.2 189.4 188.1 186.1 181.5 175.2 177.3 185.6 190.4 196.8 201.2 204 207.1 210 212.9 213.9 214.6 214 213.9 211.2 207.5 202.5 197.2 192.1 185.1 178.8 173.4 168.7 161.8 157.4 150.8 145.5 138.3 131.6 123.4 117.9 114.9 112.2 108.2 110.3 107.3 107.9 107.9 109.2 109.4 113.1 116.3 119.4 123.3 126.3 128.3 127.8 127.3 124.8 120.7 116.4 110.5 105.9 106.7 107.1 108.3 105.7 108 111 108.3 105.9 98.3 91.1 93.9 92.6 91.9 88.9 87.7 89.7 90.9 92.3 94.8 98.8 97.5 92.8 87.1 84.9 84.4 82.4 81.5 79.2 73.6 69.2 71.7 71.2 72.6 73.2 75.3 76.4 87.2 96.4 106.6 114.4 120.3 125.5 126.7 124.5 120.4 115.6 111.2 109.7 110.3 106.9 100.4 94.1 86.1
263.4 279.6 299.3 315.3 339.6 363.5 393.4 422.4 448.2 471.2 490.9 502.5 513.2 520.1 525.5 529.1 530.6 530.1 528.6 526.7 524.6 521.8 518.9 514.5 511.4 505.7 498.6 483.1 460.3 428.9 399.3 371 350 327.2 308.1 292.5 279 271.3 261.4 254.5 244.5 232.2 217.6 204.7 191.9 179.2 167 156.5 149.5 142.7 135.5 128.7 123.8 119.8 117.8 116 114 112.3 110.6 111.8 112.7 112.4 113.9 115.9 120.6 126 131.1 135 137.5 136.8 135.7 142.4 148.1 150.9 152.7 155.4 157.4 158.5 163.2 168.1 171.1 176.5 181.8 186.7 189.9 190.9 190.6 188.9 187.5 186.3 185 183.8 181.7 178.3 173.6 179.4 186.4 190.1 196.9 202.5 205.6 209.5 212.4 215.5 216.8 217.4 216.4 214.1 211.6 207.6 202 197.3 190.6 185.1 179.2 173.4 168.9 163.8 159.5 154.7 150.1 144.1 136.4 132.2 129.4 125.5 119.8 114.1 107.7 100.4 98.5 101.9 101.5 102 104.5 107 109.5 113 116.4 119.8 120.2 120 117 113.1 107.8 100.7 97.6 98.1 100.9 100.2 98.8 100.4 105.9 103.4 98.5 93 85.9 81.9 80 77.7 79.3 75.6 74.7 84.8 83.8 86.1 93.9 94.7 93.9 90.7 87.4 84.8 82.1 76.6 75.1 72.2 72.6 72.2 72 72.6 74.6 81.1 85.3 82.8 95.6 104.4 113.5 122.1 127.5 128.9 127.3 123.4 118.3 112.2 114 114.7 112.7 107.5 103.2 98.1
275.7 285.4 300.2 321 344.2 369.9 397.6 428.5 451.4 476.9 496 505.7 514.7 521.4 526.5 529.5 531 530.8 530 529 527.2 526.3 525.9 523.7 516.1 512.9 506.4 501.8 479.1 448.5 416.4 389.6 364.5 339 317.8 299.8 284 273.2 265.8 257.2 247 236.5 222.4 209.8 194.7 183.9 172.3 162.7 153.8 147.5 139.8 131.1 124.3 120 118.2 115.7 113.7 111.9 110.3 110.6 111.8 111.8 113.3 115.2 119 124.1 126.7 130.2 132.3 131.7 132.9 138.8 144.7 148.1 150.9 151.1 152.7 156.5 164.2 168.8 173.3 179.1 183.2 186.4 189.5 189.6 188.7 186.5 184.4 182.1 180.6 178.4 177 173.9 174.6 182.3 187.9 193.4 199.8 204.8 208.6 212.3 214.1 217.2 218.7 219.1 217.4 214.6 211.3 206.8 201.2 196.7 191 186 180.4 175.3 171.7 167.6 163.9 160.5 155.9 151 143.9 141.6 137.8 136 131.4 125.8 116.6 109.9 104.1 98.1 93.9 93.8 96.3 99 100.8 103.8 109.2 110.2 111.7 110.8 108.9 106 101.3 94.6 92 91.7 94 93 91.2 96.9 101.2 96.1 89.8 82.9 78.3 77.6 76.4 75.7 75.2 74.7 74.8 73.6 76.3 75.4 75.8 78.5 80.6 84.8 80.3 76.3 76 73 72.8 72.9 73.1 72.6 71.7 73.4 80.6 89.4 92.6 88.3 97 104 113.2 122.8 129.7 131.2 129.4 125.9 120.8 117.4 117.6 117.3 116.9 114.4 112.3 107.8
286.1 293.1 307 326.7 348.1 373.3 404.1 432.6 457.6 484 497.3 508.1 516 522.7 526.5 528.4 529.3 529.3 528.7 527.5 526 526.3 525.9 526.6 524.3 516.8 512.8 507.1 495.2 465.7 436.2 406.6 377.6 350.3 327.5 308.6 289 275.6 266.2 259 250.7 242.3 227.7 215.1 202.3 190.1 179.6 169.5 159.1 150.8 142.6 132.4 125.7 120.4 117.9 115.2 113.3 111.8 110.4 110 111.2 111.9 112.5 113.5 116.9 122.1 124.5 125.9 125.7 125.6 130.5 133.5 137.4 140.8 145.3 151 153.7 159.7 165.5 170 176.2 181 184.7 186.9 187.3 187.2 186.1 183.8 180.6 177.5 175.8 171.6 171.7 173.4 179.7 185 191.7 198.3 203.2 207.3 210.4 213.5 215.7 217.6 218.6 218.6 216.7 213.8 209.4 204.5 199.8 194.4 189.8 185.4 181 177.2 173.6 169.7 167.2 164.1 160.8 155.2 152.1 149.4 147.4 145.3 141.4 138.5 131.2 119.2 111.9 105.4 99.9 95.7 92.4 88 92.4 95.8 99.8 100.4 102.1 102.9 102.4 99.2 95.4 91.7 86.4 86.6 86.2 84.1 85.1 86.7 88.9 86 78.4 76.8 76.6 76.4 76.2 74.8 74.3 74.9 75.4 74.6 74.7 73.7 74.3 74.5 73.7 74.1 75.3 76 73.4 73.4 73.4 73.5 72.1 72.7 70.4 75.1 87.1 94 97.7 94.2 99.2 106.8 114.2 123.6 130.7 133.2 131.7 128.3 123.4 121 120.2 120.2 119.9 118 117.1 114.9
293.5 302.7 317.1 332 350.7 380.6 412.9 440.4 466.2 488.6 498.9 510.4 517.2 522.9 525.7 526.7 526.8 526.6 525.9 524.6 524 524.3 524.5 525.5 525.6 521.4 514.9 510.6 503.2 481.9 453.9 423.4 394.6 364.5 338 318.3 294.8 278.3 268.8 261.7 254.8 247.3 236 224.1 211.9 198.5 186.2 176.3 166.8 155.9 148.8 136.8 126.8 121.3 117.5 114.8 113.5 112.3 110.6 110.5 111.4 112 112.6 113.2 114.8 118.6 120.5 119.9 122.4 128.6 131.8 135.6 139.7 143.6 148.8 153.1 156.6 162.3 166.3 172 180 183.8 184.7 185.8 186.1 186.2 183.8 181.2 177.9 172.8 169.7 167.1 170.6 177.2 183.7 188.7 194.4 201.8 206.6 209.8 212.8 216.3 217.7 219.1 218.7 218.3 215.1 210.8 206 201.1 196.4 190.6 186.1 182.6 179.1 176.2 173.2 170 166.6 164.5 162.1 158.5 155.5 155.4 155.1 151 148.4 145 140.4 132.9 122.5 113 104.2 97.2 92.7 91.7 88.8 89.5 91.8 92.2 93.8 94.5 94.4 93.4 89.5 86.7 84 83.2 83.1 80.9 81.1 81 76.3 76.5 77.1 77.1 76.9 76.7 76.4 76.1 76 75.7 75.7 75.4 74.8 74.1 74.1 73.9 73.4 74.6 75.9 74.1 73.5 73.6 73.5 71.9 73.3 72.5 73.8 81.6 91.3 99.1 102.7 101.1 103.5 109.9 116.5 125.4 131.8 134.3 133.2 129.8 126 124.9 124 123.3 122.8 120.8 119.3 118.3
297.9 306.9 322.1 334.2 349.7 388.5 424.6 448.5 475.9 491 503.4 511.5 519 521.9 522.7 523.6 522 521.8 521.2 519.6 520.6 521.1 522 523.2 524.3 523.7 517.4 513.1 507.2 495.1 469 441.8 410.6 380.9 349.2 331.2 306.3 284.7 274 264.5 258.2 250.4 243 231.3 220 208 196.3 183.1 174 163.4 157 146.2 132.3 125.3 118.8 114.8 114.3 113 110 109.9 110.9 112.2 112.9 114.2 115.3 116.5 117.9 119.6 122.6 129.7 134.6 139.1 143 146.6 150.7 154.6 158.4 162.3 167.9 174.7 181.8 183.8 184.4 184.9 183.8 182.8 180.6 179.2 174.8 169.3 163.8 166.3 174.2 180.3 187.8 193.1 198.9 204.1 208.7 212.8 216.2 219.3 220.4 220 218.8 216.3 212.6 207.9 201.7 197.8 192.3 186.2 181.1 177.8 174.9 172 169.7 166.9 162.9 161 160.6 158.2 155.8 156.5 156.7 153.8 151 149 145.5 139.4 132.3 123.1 114.4 103.6 96.6 92.3 88.7 87.6 87.9 87.4 87.9 88.9 90.8 89.1 87 84.1 82.5 81.8 81.1 80 79.5 78.4 77.8 77.6 77.8 77.2 77.3 77 76.8 76.3 75.9 75.9 75.8 75.5 74.9 74.6 74.9 74.7 74.5 73.7 73.9 73.1 73.6 72 71.9 73.1 73.4 70.7 78.6 86.6 96.1 104.7 107.6 106.6 107.1 113.6 119.7 127.2 132.8 135.4 135.1 133.1 130 128.8 127.9 127.2 126.4 124 121.1 119.7
304.5 316.2 327.2 337.2 361.2 405.8 434.5 461.9 482.9 496.3 507.8 514.8 519.3 520.3 519.9 517.8 515.9 514 510.2 510 511.2 510.8 511 513.6 518.1 522.5 518.2 511.7 509.7 503.3 482.6 456.4 424.9 395.7 364.8 338.7 313.8 294.6 278.1 267.9 260.1 253.3 246.9 237.3 227.5 215.3 203.9 190.6 181.7 172.8 166 154.8 145.5 130.8 119.9 115.5 114.7 112.7 110.1 108.8 109.6 112 112.8 114 115.3 116.6 117.6 118.1 121.9 127.4 134 139 144 147.9 152.3 155.6 159.2 164.2 171 177.9 181.9 182.9 181.9 181.2 180.6 179.1 177.6 175.2 171 163.9 163.2 171.6 177 183.8 190.1 195.5 202.5 208.1 211.9 216.6 220 222.6 221.3 220.6 217.5 214.2 209.6 204.2 197 192.2 186 181.1 176 172.5 168.8 166.5 164.3 161.6 157.9 156.8 156.6 154.8 152.8 154.6 154.1 151.2 149.7 149.4 147 143.3 136.2 129.5 123 114.1 102.6 97.1 91 86.3 85.2 85.4 87 86.2 86.3 85.4 83.5 82.1 81.1 80.5 80.2 79.7 79 78.6 78.1 78.6 77.8 77.3 77.5 77.4 77.1 76.5 75.9 75.8 75.5 75.6 75 75.1 75.1 74.8 74.8 74.1 74.2 72.6 72.3 73.4 72.7 73.3 73.5 80.6 87.3 95.9 103.9 108.8 113 112.7 108.4 113.9 120.6 126.9 133 135.2 135.8 135.7 134.9 133.7 132.1 131.8 129.2 125.6 123 121
315.5 323.8 332.7 350.5 393.6 422.7 450.1 476.6 489.9 503.5 510.7 515.2 517.3 516.1 513.8 509.8 505.8 503.2 501.2 501.6 503.7 505.1 505.7 507.6 509.5 511.6 511.8 509.6 509.8 506.3 494.4 468.1 438.1 405 372.1 344 319.2 299.2 283.1 270.6 264.1 255.9 248.5 240.8 231 219.8 208.5 198.4 188.2 178.7 172.1 163.8 152.7 142.8 128.2 116.6 114 112.9 110.8 111.2 108.8 111.6 111.5 113 113.9 115.5 117.4 118 120.7 125.2 130.5 136.6 142.9 148.2 152.3 156 159.8 166.2 173.9 179.1 181.8 181.3 179.6 176.4 175.8 174.2 172.5 169.8 165.9 160 168.9 175.5 180.8 187.3 192.8 198.5 205 211.8 216.8 221 223.6 224.7 223.1 221 216.5 212.3 207 199.7 192.2 186.1 179.2 174.9 170.1 166.7 162.5 159.3 156.1 154 151 150 151.1 149.8 149.4 151 149 146.6 145.8 146.4 145.3 143.6 138.9 131.2 125.2 119.1 111.4 106 99 91.7 88.1 84.5 84.4 84.3 83.8 82.7 81.7 80.7 80.4 79.9 79.6 79 78.4 78.7 77.5 78.4 77.8 77.4 77.4 77.8 77.3 76.7 76 75.7 75.2 74.9 77.8 74.9 74.9 74.7 74.3 74.6 73.5 72.2 74.1 73.7 73.6 76.7 84.7 91.6 99.3 104.7 110.3 113.4 115.5 116.1 112.5 112.6 117.7 124.9 130.9 136.1 137.2 137.7 138.7 138.1 136.7 134.7 131.3 127.4 124.4 121.3
323 332.2 352 387.2 415.9 441.9 465.5 482.4 499 507.4 512.3 514.5 513.2 510 505.4 500.6 496.4 495.4 494.1 493.8 497.3 500.7 501.6 504.2 506.3 506.8 507.2 508 509.2 507.5 499 473.7 444.1 413 380.2 349.1 323.5 302 285.5 274.2 264.8 258.7 251.1 242.3 232.2 222.5 211.7 202.3 190.6 182.4 175.4 167.4 158.6 147 138.7 125.2 115.7 112.4 111.2 110.8 110.1 108.5 111.1 111.9 112.7 114 115.7 117.8 120.5 124 128.6 135.1 141.9 146.5 152 156 160.6 167.5 174.3 178.7 181.3 180.7 178.2 174.6 172.1 170.3 166.6 163.4 161 164.9 172.6 179.7 186.4 192.2 197.2 202.9 208.9 216.2 221.8 226.1 228 227.9 225 221.4 216.3 210.7 203.8 195.7 187.9 180.5 173.4 168.4 162.8 159.3 156 150.4 147.8 144.3 142.2 142.3 142.8 143.3 143.4 144.2 142.9 141.4 140.9 140.9 140.7 139.9 135.2 128.6 123.3 117.6 113.4 110.2 106.5 101.4 95.5 89.7 84.9 83.1 81.8 81.1 80.7 80.4 80 81.5 82.5 81.2 79.6 79.7 77.5 77.9 77.7 76.8 76.2 75.8 75.4 75.6 74.8 73 72.7 75.1 74.5 73.8 73.5 72.9 72 72 72.8 74.3 74.3 77.1 79.1 84.2 92.2 101 107.7 113.7 116.2 117.3 117.9 118.3 116.8 115.2 116.9 121.8 128.5 134.9 139 139.8 140.7 141.4 139.4 137.3 133.3 129.2 125.4 121.4
334.7 355.8 385.6 410.6 438.1 459.9 475.7 494.1 504.3 509.5 511.4 510.4 507.1 500.9 494.4 491.2 486.5 485.2 486.3 488 490.9 493 496.2 500.1 503.6 504.7 505.4 506.2 507.4 504.7 498.2 474.8 444.4 414.6 381.7 351.8 325 302.7 287.8 273.8 264.9 259.8 252.4 243.6 232.9 223 213.2 202.4 190.9 182.2 176.1 169.1 161.4 152.6 142.5 131.9 120.1 112.5 110.9 110.7 110.4 109 109.2 111.3 111.7 113.4 115.6 116.8 119.5 123.3 127.6 134.1 140.6 146.8 152.9 157.1 161.7 167.6 175.4 178 179.6 179.2 176.1 171.8 168.5 164.7 160.6 159.3 159.4 169.5 175.5 183 190.2 195.6 202.9 208.3 215.1 221.8 227.6 230.4 230.4 229.4 225.3 221.1 215.7 209.5 201.5 192.4 183.7 174.5 168.6 161.1 155.9 152.2 148 142.9 140.2 134.9 134 133.5 134.5 134.5 135.5 136.5 135.8 136.5 135.7 134.5 134.4 134.8 130 123.7 118 113.1 109.4 106.7 105.3 103.5 98.9 93.3 87.3 83.2 81.4 81.7 84.3 80.5 80.3 79.7 79.3 79.1 79 78.8 79.2 78.1 77.5 76.9 76.3 74.6 75.3 76 75.6 75.2 74.8 74.5 75.4 76 77.9 79.4 78.7 78.9 78.8 79.1 80.7 81.3 79.5 88.6 98.8 107.1 113.3 119.5 121.1 121.6 120.6 120.1 121.4 121.5 119.7 122.4 129.1 135.3 140.5 143.5 144.5 143.5 141.9 138.3 134.5 129.2 124.7 120.7
359.5 385.2 408.9 434.3 456.3 480.3 492.4 500.5 506.1 508.2 507.4 504.4 498.2 489.7 483.5 480.6 478 475.8 475.9 477.7 483.5 488.7 491.3 494.3 500.1 502.7 504 504.6 504.1 501.4 494.6 471.4 442.8 413.2 380.2 349.4 323.5 302.8 287.9 275.4 263.8 257.3 250.2 242 231.8 221.2 211.3 200.1 188.9 180.9 174.8 166.8 161 153.1 144.7 133.8 124.6 116.4 111.3 110.8 110.2 108.7 108.8 111.3 112.7 113.7 114.8 116.7 118.4 122.4 126.7 133.2 140.6 147.7 153.5 157.3 162.9 170.5 175.8 177.2 177.7 176.6 172.8 168.5 164.8 159.9 156.9 158 164.2 171.3 178.6 186 192.7 199.2 206.9 213.7 222 226.5 228.5 230.7 231 229.2 225.3 220.4 214.4 207.9 199.5 188.2 179.4 170.5 163.2 158.5 151.6 145.8 138.5 134.4 130 126.2 125.2 126.7 125.2 127.2 129.9 130.4 129.2 131 130 128 126.4 124.9 123.2 117.6 112.8 108.5 105.4 102.6 101.2 99.5 94.2 91 85.4 82.1 84.7 80.8 79.8 80 79.6 79 77.9 77.8 78.9 79.8 78.9 78.7 77 76.9 74.7 76.6 76 76.2 79.5 82.1 81.6 82.2 82.6 84.9 86.3 83.8 80 78.6 79.8 82.2 86.1 87.9 87.1 88.9 102.6 110.8 119.1 123.2 125 124.9 124.9 124.2 126 129.7 127.8 127.2 131.5 136.1 142.1 147.4 147.2 145.4 143.1 139.4 135.5 129.8 124.1 118.7
382.4 407 431.8 454.3 477.8 494.8 501.8 504.2 505.2 504.1 500.8 493.6 484.9 478.4 471.2 466.8 463.5 462.1 462.3 468.1 473.3 480.5 487.3 491.2 493.9 499.5 501.5 501.8 499.7 494.6 485.3 463.7 435.5 407.4 375.5 345.3 320.8 301.1 287.3 274 261.9 253.9 246.9 238.2 228.8 218.6 206.5 195.8 186.2 178.6 172.6 165 158.5 151.8 143.6 133.7 126 119 112.9 110.8 110 107.9 108 110.7 111.5 112.2 113.7 117.2 119.5 121.4 127.1 134.3 141.7 147.7 153.8 157.5 164 171.6 174.9 175.5 175.1 172.9 169.1 166 162 157.3 154.9 158.6 165.5 173.6 180.8 187.1 193.6 199.9 208.6 218.2 224.4 228 229.9 231 229.8 227 223.1 219.7 214.1 208.6 202 194.5 187.5 180.4 171.9 163.4 158.8 154.4 146.2 138.9 133.4 128.3 123.5 116.9 114.9 118.7 124.7 125 126 126 123.6 122.3 121 120.7 115.1 111.2 107.2 103.3 100.3 97.3 95 92.2 84.8 83.8 84.9 81.8 80.5 81.1 81 80.7 80.4 79.3 78.4 78.6 78.8 78.2 76.8 77.9 78 76 77.5 79.1 85.1 89 90.4 93 93.6 93.4 94.9 96.4 92.6 87.1 81.6 79.7 81.4 86.3 94.1 99.3 97 89.1 101.7 113.4 121.2 125.4 127.9 128.4 129.1 127.8 130.8 134.1 134.8 135 138 141.5 147.1 151.4 150.6 148.3 144.7 140.2 134.7 129 123.3 117.6
406.2 429.3 452.1 472.9 493.6 501.6 506.5 504.7 501.1 496 489.7 479.4 471.7 463.1 454.3 450.7 447.9 446.5 449.2 454.6 463.1 470.1 481.7 487.8 490.4 493.8 497.5 497.6 495.4 487.9 476 455.9 426.3 396.8 366 339.3 311.4 299.4 284.7 270.4 258.6 250.5 242.8 236.3 225.1 213.7 202.3 191.1 182.5 176.4 170.5 163.2 156.2 149.4 139.4 130.3 124.7 119.8 114.1 110.7 109.8 108.3 108.8 107.8 110.6 111.3 113.2 117.4 120.3 122.1 128.6 135.3 141.8 147.3 153.1 158.8 163.6 171.3 173.6 174 171.8 168.6 165.6 162.6 159 153.7 153.2 160.2 167 174.7 181.7 188.4 195.2 202.3 210.5 219.1 226.4 228.8 228.6 229.5 227.3 223.7 220.3 217.2 213 208.4 202.5 197 191.3 186.1 179.4 174.4 169.9 164.7 156.6 150.5 144.2 139 130.3 124.5 117.1 109.1 116.1 119.1 118.3 117.9 116.2 115.5 113.8 113 109.7 104.7 100.9 98 94.8 92.3 89.9 85.7 84.7 81.5 81.7 81.5 81.4 80.8 81 80.6 80 79.2 78.6 77.9 78.5 79.3 79.3 81.9 82.2 81.3 80.1 86.1 91.4 97.2 103.1 105.9 106.6 105.9 103.5 100.5 95.1 89.2 83 81.8 85 91 100.7 111 109.8 98 103.6 116.3 123.5 128.4 130.8 131.7 132.6 133.3 135.9 139.5 142.9 141.5 144.5 148.3 152.6 154.8 154.8 151.4 145.2 139.3 133.3 127.3 121.5 116.3
428.6 448.6 472.4 489.9 501.3 509 509.6 504.2 495.1 485.9 474.7 465.2 455.2 444 436.7 431.2 429.6 431.1 435.3 445.6 454.8 463.5 474.1 483.2 488.2 491.3 493.7 493.2 491.3 483.2 466.6 447.1 414.1 384.3 356.6 328.6 308.5 295 278.6 265.6 256 247.7 239.9 231.5 222.7 209 197.2 187.5 179.5 173.9 167.4 160.8 154.8 148.1 140.2 131 125.3 120 114.6 110.7 106.9 108.1 108.2 109.1 109.4 110.2 112.5 116.7 120.1 123.1 128.7 134.9 141.9 147.3 153 158.1 162.6 167.5 171 170.4 168.9 165.9 162.4 159.4 154.3 150.7 155.2 162.4 169.2 174.9 181.6 189.2 194.9 204.9 212.8 221.8 226.8 229.3 229.5 228.3 225.2 221.4 217.5 213.8 209.5 205.7 200.8 196.3 191.9 187.8 182 177.8 173.1 167.4 160.8 156.8 152.1 147.2 141.2 133.2 126.6 118.6 107.8 105.9 109 108.5 107.8 107.4 106.7 105.4 104.6 98.9 95.7 93.9 90.5 87.7 83.8 83 82.7 81.9 81.6 81.2 81.6 81 80.8 79.9 79.4 77.2 79.4 79.3 79.6 85.4 91.7 95.2 91.4 85 81.7 90.1 99.1 109.4 114.7 113.3 111.5 108.9 105.9 101.2 95.6 89.8 84.1 84.1 88.1 93.9 106.5 117.2 115.8 109.2 104.4 116.9 124.6 129.3 132.3 134.6 136.7 138.7 141.3 145.6 149.6 151.3 152.8 155.1 160.3 160.7 159 153.8 145.9 137.4 131.2 124.9 119.1 115.4
443.8 471.9 488.2 501 510.7 513.5 509.7 501.6 487.3 471.7 461.6 448 434.5 426.5 417.2 410.9 408 407 426.1 438.2 448.8 458.4 469.4 479.7 485 488.5 490 490 486.4 474.8 460 436 402.7 371.4 343.8 321.4 302.5 287.6 273.5 260.2 253.4 244.5 236.6 228.8 218.1 206.2 194.7 184.3 177.8 171.4 164 156.8 152 146.4 139.8 131.3 125.4 120.2 115.9 112 107.3 107.2 109.2 109.4 109.5 109.9 113.4 116.6 119.1 122.7 127.7 134.1 141.3 147.2 153.5 158.2 162.3 166.1 167.6 167.5 165.5 162.1 158.9 154.6 150.4 149.8 156.2 163 170 176.1 181.8 188.9 197.7 207.5 217.1 222.6 226.4 229.3 228.7 225.5 222.4 219.4 214.7 210.3 204.8 201.1 197.3 193.5 189.6 185.8 181.1 176.3 171.3 166 160.3 156.6 151.9 148 143.4 139.6 135.4 130.4 120.1 111.5 100.8 100.4 99.4 97.7 97.8 98.6 98.4 94.9 91.2 88.9 86.6 86.2 83.6 82.9 82.5 82.2 82.5 81.7 81.7 81.1 80.6 76.5 78.3 79.7 79.9 79.8 85.4 93.8 105.8 105.2 98 88.7 85.2 93.3 106.9 116.5 116.7 115.7 113.1 109.9 106.6 103 98.2 93.3 89 87.9 92.3 98.8 109.8 119.4 120.3 117.4 111.1 115.9 123.2 128.8 132.7 136 139.5 143.7 146.8 152.4 156.5 159 161.3 164.4 166.8 166.4 163.4 156.4 147 136.9 129.7 123.6 119.9 116.6
467.7 486.6 498.4 509.4 513.9 512.5 507 496.1 477 457.5 442.4 429.8 418.7 406.2 395 387.7 380 407.9 422 433.9 444.5 453.8 463.8 474.6 481 485.3 486.9 486 481.3 469.9 454.9 429.4 397 363.1 336 313.9 296.1 281.7 269.3 256.2 248 241.9 233.4 225.7 212.5 202.6 192.6 181.4 176.2 170.2 161.8 152.1 145.7 140.5 133.3 127.1 123.7 119.9 118 112.9 106.6 107.7 110.4 109.3 109.4 109.9 112.3 114.7 117.2 122.3 128 136 142.5 148.8 153.8 157.8 161.7 164.3 164.2 163.5 161 158.5 154.8 150.2 145 151 157.3 165.4 169.7 175.9 182 190.6 199.8 209.7 217.8 221.9 223.8 225.7 223.5 221.1 218.9 215.9 211.4 205.4 199.8 194.5 191.2 187.2 183.6 179.8 175.2 172.1 166.7 161.8 156.2 152.9 148.3 144.7 143.8 138.8 134.7 133.7 128.6 122.2 115.5 104.5 97 92.4 91.6 92.1 92.5 90.7 88.8 87.6 84.4 83.5 82.2 82.9 82.3 81.4 81.7 81.5 81.7 80.6 79.1 78.8 80.1 80.7 82.7 86.9 94.9 105.1 111.8 111.6 107.3 96.2 87.9 94.6 106.7 113.2 116 116.1 114.5 111.8 107.4 103.8 98.6 94.2 89.7 93.4 98.9 104.6 113.2 121.4 124.4 123.8 118.7 116.2 120 126.5 130.2 134.5 139.4 144.7 151 157.9 162.2 165.9 169.3 172.1 173.4 171.8 167.7 160.4 154.5 145 135.1 129.2 125.5 122.9
483.1 497.5 506.8 512.1 513.1 509.6 502.8 490.2 464.7 444.5 425.8 409.2 396.9 386 373 362.9 383.4 407.1 419.1 430.2 437.4 449.6 457.3 468.6 475.8 481 483.4 483.4 479.2 466.1 449.2 418.4 388.7 357.3 327.6 306.4 291.1 276.2 264.9 254.8 246.5 237.9 229.8 221.7 209.8 200 190.5 181.6 177.2 170.1 163.3 154 146.4 138.4 133.2 129.8 126.8 125.7 122.5 113.6 106.3 107.7 109 108.7 109.4 108.8 111.4 113 117 122.7 127.6 134.1 141.3 147.7 153.6 157.4 161 162.5 162.2 160.6 158.4 155.1 150.5 144.5 145.2 152.8 157.6 165.9 172.7 177.4 183.1 191.4 201.7 210.2 216.8 219.3 220.7 221.1 218.9 216.6 214.1 211 206 202.8 194.3 186 183.8 179.3 176.3 173.7 170.3 166.3 161.4 156.3 151.4 147.2 143.5 140.1 140.2 136.5 132.8 131.1 129.2 124.8 120.2 114.1 104.7 96.6 90.6 88.9 87.6 87.7 85.3 83.6 83.6 81.5 81.7 81.3 81.3 80.8 80.2 79.5 79.5 79.6 78.7 82.3 84.3 86.7 93.3 101.2 107.9 114.4 117 115.5 111 103.2 92.8 91.4 102.6 111.7 116.1 117.2 116.1 113.6 109.3 105.1 100.6 95.4 91.6 98.1 104.9 111.5 117 123.6 127.2 127 124.5 122.1 126 130.2 133 136.4 140.5 146.1 153 160.4 166.9 172 176 179.1 178.5 176.6 172.4 167 160.8 154.5 148.9 140 135.8 133.3
497.1 504.7 511.2 515.5 512.2 506.8 494.5 477.7 452.2 431.2 410.5 392.7 378.2 364.5 353.6 365.2 381.9 401.7 414.1 423.7 433.2 442 451.7 460.1 470.3 475.7 479.7 480.6 476.6 463.1 443.7 414.7 380.1 350.4 321.7 302.9 286.2 273 262.8 253.1 242.6 237.5 228.2 217.3 206.7 197.6 189.4 182.5 177.3 171.8 165 155 150.4 145.6 141.2 136.6 131.4 127.8 125.6 115.2 110.5 106.1 107 109 109.2 108.7 110.4 113.1 117 121.5 127 132.7 140.6 147.5 152.9 156.3 159.4 160.2 159.2 158.5 156 152.9 147.5 138.7 146.3 153.8 158.6 166.1 171.8 176.6 182.9 191.2 199.5 208.4 212.8 215.6 216.5 215.1 213.6 211 207.9 204.4 200.6 196.3 188.8 180.3 175.9 173.3 171.3 168.8 164.1 159.5 154.9 150.7 144.8 141 138.7 136.5 134.6 130.2 128.2 125.1 123.2 121 117.4 112.4 103.4 96.4 90.4 88.5 85.8 85.9 85 84 82.4 82.6 82.2 81.8 82.4 81.6 80.9 80.5 79.7 78.6 85.9 91.5 97.6 104.2 106.7 111.2 116.2 117.6 118.7 117.8 112.5 106.4 99.9 92.6 100.7 109.7 114.7 115.7 118.2 116.5 112.6 108.4 103.5 97.1 94.2 100.9 108.7 116 121.2 127.7 130.2 129.4 128.5 127.8 130.9 135.2 138.1 142.3 145.5 150.8 156.1 164.2 172.9 178.4 182 182.6 181.9 179.1 175 171.4 166.4 161.5 156.7 151.1 148.7 145.5
500.3 509.3 515.4 515.5 509.9 502.2 486.9 465.8 442.4 419.7 395.5 375.2 357.7 345.7 346.9 362.2 377.7 393.9 407.9 417 427 434.1 444.3 452.7 460 470.6 473.8 476.6 474.1 461.8 439 411.3 376.6 344.1 317.8 298.1 282.7 270.5 259.5 249.8 240.2 234.8 224 214.1 204.1 197.5 188.5 181.5 175.1 168.7 161 154 149.7 145 141.7 138.3 132.5 127.4 124.6 117.1 112.4 109.3 106.1 107.9 107.3 108.6 108.4 112 116.6 121 126.6 132.9 140.8 148.8 153.8 156.6 157 157.8 157.4 156 153.9 150.6 144.6 137.7 147.2 154.1 160.6 168.3 173 176.6 182.4 189.9 196.9 205 208.8 210.5 210.7 208.8 207.9 206.4 203.1 198.2 194.6 188.9 181.6 174.3 170.8 169.2 167.8 164 157.8 152.6 149.1 144 137.2 134 131.1 130.2 126.7 122.8 121.3 119 116 114.9 111.9 106 94.5 89 86.6 86.2 85.3 85 85.1 82.3 83 83.1 82.8 82.5 82.1 81.6 81 80.2 80.7 88.4 94.3 102.6 108.2 110.8 113.8 117.6 120.2 120.1 121 119.4 113.5 108.5 105.9 100.4 98.7 108.2 112.9 116.9 120.6 119.7 118.3 113.7 108.6 101.5 98.5 102.6 110.1 116.9 122.9 128.8 131.2 133.5 133.6 133.9 136.4 138.7 142 146.5 151.7 158 162.3 170.4 178.7 182.5 185.1 184.7 182.1 179.8 175.2 170.6 168.6 162.9 159.3 156.2 154.7 151.7
501.6 510.6 513.2 512.3 506.1 497 479.8 454.9 430.7 404 379.5 358.1 340.3 325.3 344.5 357.4 367.7 383.1 399 409.1 417.4 426.4 435.2 443.4 450.8 462 469.9 472.4 471.7 460.8 437 409 372.1 340.6 314.8 297.1 280.9 270 256.5 246 237.8 232.4 222.3 212.4 203.3 195.7 189.1 178 172.1 163.7 158.1 152.3 147.5 142.5 138.7 135.7 130.2 127.5 123 117.7 114.1 111.7 109.3 104.9 107 106.5 106.5 111.8 117.4 121.8 128 135.5 143.1 149.2 154.1 156.5 156.8 156.4 155.9 154 152.8 149.1 142.9 138.1 148.7 155.2 162.8 170 174.1 177.6 180.5 185.9 192.6 197.6 201.5 203.1 204.2 203.1 201.6 200.5 195.9 190.7 186.8 180.3 174.3 168 162.3 163.9 162.5 157.5 152.1 146.6 142.7 137.1 130.2 125 123 121.3 117.9 115.7 113.3 111.1 108.2 107 103.3 97.3 89.7 86.2 85.6 85.2 84.7 84.5 83.9 82.8 84.2 83.7 83.3 83 82.4 82.1 81.6 81.5 84.9 92.8 100.5 108.7 115.8 119.1 121.4 123.1 125.2 124.6 123.3 121.1 116.2 113.7 111.4 104.7 98.4 106.5 113.1 118.1 122.3 123.2 121.2 117.3 113.2 104.7 101.8 104.6 110.1 116.6 123.1 129.5 134.2 138.1 139 140.2 140.7 143.2 147.7 153.3 160.5 165.2 171 177 182.4 184.7 185.3 183.4 179.7 176.8 172.9 168.4 165.7 161.3 158 155.7 154.5 153.3
501.2 509.1 511.6 508.6 502.6 492 474.1 445.7 419.4 391.8 363.6 342.3 321.4 320.2 337.9 349.5 359.6 369.7 383.1 395.8 407.2 415.9 423.5 431.1 441.6 451.8 463.1 469.3 469.3 460.6 438.3 405.7 371.9 340.3 314.3 294.1 279.3 266.6 254.1 245.4 237.1 230.9 223.4 213.4 204.3 194.5 185.8 177.2 171.1 164.5 157.8 151.6 147 141.5 136.8 133.9 128.9 125.6 121.7 117.9 115.1 110.5 107.9 104.7 107.4 107.5 107.8 113.8 120 124.4 129.2 136.4 143 147.5 153.2 155.8 157.3 157.5 155.9 152.2 149.2 145.8 136.4 141.9 148.8 155 164.7 170.5 174.4 176.8 179.2 182.4 187.5 191.5 193.7 195.2 196.5 197.7 196.9 192.5 188.5 186 179.8 173.4 167.4 161.7 150.5 154 154.9 150.5 146.1 141.1 135 130.9 123.2 119.9 116.2 115.1 112.3 107.7 106.6 102.3 100.5 99.8 90.5 88.6 86.4 86 85.5 85 84.9 84.7 83.8 84.9 84 83.5 83.3 83.1 82.7 83.3 83.7 87.8 85.7 94 101.8 112.9 121.1 124.2 125.6 128.7 130.4 130.5 127.6 124.2 119.9 116.6 112.1 107.5 100.3 108.6 114.6 120.2 124.9 126.3 125.1 120.7 115.3 109.4 104.4 109.9 113.6 118.8 126.3 131.5 137.5 139.9 143.7 145.4 146.3 148 152.2 160 167.2 173.6 177.5 181.2 183.1 182.8 181.9 180.1 175.8 172 166.8 162.1 157 153.3 152 151.4 150.2 149.4
498.1 504.8 506.8 504.2 499.2 488.7 467.9 437 409.3 381.6 352.5 328.8 310.6 315.3 325.3 334.7 345.7 354.9 363 377.9 390.7 404.4 415.2 423.6 432.5 442.5 452 463.4 466.6 460.6 439.4 406.8 372.6 341.1 311.7 296.2 278.6 265.2 254.1 244 236.4 231.1 223.2 212.5 201.4 192.9 184.8 178.8 173.2 166.7 159.2 152.7 147.6 141.8 137.3 132.3 128.4 124.2 119.8 117.7 115.4 109.7 107.7 103.9 107.2 106.5 108 115.3 121.4 126.6 131.8 138.4 144.4 148.8 153.8 156.4 157.6 157.2 155.4 151.4 148.4 142 131.8 143.8 150.7 156.5 165.2 170.5 173.5 175.6 177.5 178.6 182.2 184 185.8 187 188.4 187.1 186.3 182.8 179.9 177.4 173.7 168.1 162.7 153.1 141.2 142.5 147.6 144.3 139.3 134.7 128.7 123.7 118 113.6 109.9 108.6 105.5 101.3 98.8 95.4 90.5 90.4 88.3 87.2 85.4 85.7 85.6 85.6 85.4 85 82.7 84.8 83.9 83.1 83.2 86 90 88.8 85.5 85.6 86.8 94.8 103.5 113.5 120.1 125.1 130.4 134.3 136.4 136.3 133.7 128.9 124 118.8 113.1 107.9 103.5 110 117.7 123.8 128.3 129.9 128.3 124 117.6 110.9 110.3 114.4 119.8 125.2 130.7 136.3 142.5 145.7 149.5 150.8 151.8 153.3 158.8 165.4 171.5 178.3 181.5 182.1 181.7 180.6 178.4 174.8 170.6 165 159.7 152.2 148.2 144.7 143.8 144.1 144.7 144.5
494.9 500.2 500.7 497.8 495.2 484.9 462.4 430.7 400 371.5 344 321.8 301.8 305.4 312.7 317.8 324 334.2 344.7 357.3 371.5 386.9 400.6 414.5 426 436.1 446.8 455.4 463.4 460.5 441 410.7 377.7 342.8 313.4 296.4 279.8 265.7 253 243.5 237 230.7 221.6 210.7 200.5 191.6 184.6 178.7 173.5 167 160.7 153.5 146.4 141.2 135 130.3 126.3 123.2 118.5 116.9 114.5 109.2 107 103.9 107.7 107.4 109.2 116.6 120.8 126.9 133.7 138.9 144.7 150 154.3 156.9 156.9 156.5 154.2 150.1 145.8 139.7 134.6 145.5 152 159.5 165.7 169.6 172.1 174.2 176.4 175.5 175.5 176.1 177.1 178.6 180 179.9 177.4 175.6 173.9 170.4 168.6 163.7 159.4 149.2 134.8 130.1 135.6 135.5 131.7 126.1 121.7 118.5 115 110.3 103.1 103.2 98.3 93.7 90.5 89.8 88.9 87.7 87.1 86.9 85.5 85.4 85.8 85.6 85.3 85.1 85.2 84.9 83.6 84.4 86.6 91.9 97.3 98.1 92.3 85.3 86 94.9 101.9 115.3 120.4 126.4 133.2 138 141.4 141.8 139 135 128.4 122.3 115.1 109.4 105.5 112.4 119.8 126 131.1 133.5 130.7 126.7 119.4 112.3 116.5 121.5 126.1 130.4 135.9 140.7 146.5 151.9 156.3 157.3 158.6 160.8 164.9 168.5 172.4 175.3 176.1 179.1 176.9 174.7 174.4 169.6 165.4 159.4 151.5 143.4 139.6 136.4 136 137.4 139.2 138.3
489.4 492.9 495.3 493 489.6 482 461.5 430.7 397.7 367.3 338.7 317.2 299.8 293.3 298.2 305.3 309.9 315.8 322.9 334.3 349 365 385.7 403.9 418.1 429.8 440.7 449.4 459.6 460.7 443 414.2 382.4 349 317.7 295.9 279.2 265.9 254.3 244.1 235.6 229 222.3 211.2 202.3 190.8 184.1 178.1 172.8 170.2 160.9 152.3 145 139.7 132.2 128.1 125 121.9 118.8 116.3 113.3 109.6 107.6 105.5 107.6 107.6 108.2 114.8 120.9 126.7 133.4 139.6 144.4 149.8 154.8 156.7 156.2 155.7 152.7 147.8 142.9 136.4 135 145.7 152.7 159.5 165.4 168.4 171.1 173.1 172.9 171.1 169.4 169.7 170.6 172.3 174.6 175.1 173.1 170.2 168.2 166.3 163 159.5 153.9 147.3 134.9 121 123.6 125.6 125.1 120.4 115.9 112.8 111.3 106.4 98.4 95.7 91.8 90.3 88.6 88 87.5 87.1 86.7 86.7 85.7 85.2 85.6 85.5 85.2 85.6 84.7 85.8 89.3 92.9 96.4 100.9 103.8 100.8 92.7 85.4 88.8 97.7 101.8 114 121.3 128.5 136.1 141.3 146 144.9 143.4 140.4 134.8 126.6 118.4 112.2 108.2 113.4 120.4 127.2 134.1 137.5 133.9 128 121.6 117.3 121.2 126.9 133.1 137 143.4 147.1 152.4 158.1 161.5 163 163.7 164.9 166.6 167.6 169.2 170.5 171.3 171.7 171 169.7 168.1 165.2 160.5 154.3 146.7 136.6 129.9 128.1 129.2 130.8 131.8 133.2
483.9 487.6 489.5 488.8 485.2 478.2 456.4 429.7 398.9 366.6 336.4 311.8 295.1 281.4 285.6 289.1 292.6 301.5 306.5 318.9 332.2 351.5 372.7 393.6 412.9 425.6 437.4 448.1 458.8 463.9 447.1 416.4 384.2 348.5 320.7 296.6 280.3 267.5 255.2 244.7 235.6 227.5 221.7 213.2 203 190.9 183.6 177.6 173.6 170.5 159.7 151.1 144.3 138.8 131 125.9 122.9 120 116.5 114.5 111.6 109.1 108 104.8 106.9 107.1 107.8 114.5 120.1 125.9 132.1 139.5 144.7 149.8 155.4 155.7 155.5 153.4 149.8 145.7 140.1 131.1 138.3 146.6 152.9 159 162.8 165.4 167.5 169.2 168.4 166.2 165.1 166.4 168.9 171.9 173.1 171 167.9 165.4 162.7 160.3 157.4 153.9 148.6 144.2 135.7 123.4 113.2 114.3 116.2 114.4 110.5 107.6 105.9 101.2 97.2 91.8 89.4 89.2 88 87.4 87.2 87 86.8 86.7 85.8 85.5 85.7 85.3 84.1 88.8 92.4 94.7 97 102.5 105.8 108.4 107 101.9 90.4 85 91.5 98.4 107.1 115.4 122.5 131.4 138.5 144.2 147.7 148.8 147.6 144 139 131.6 125.7 119.6 111.1 114.9 122.1 129.6 137.4 140.5 137.9 132.7 124.6 123.9 127.9 133.1 139.4 143.4 149.5 152.6 157.1 161.5 164.8 165.7 165 164.6 164.9 165.9 165.3 165.4 165.4 166 166.3 165 163.3 160.6 156.7 152.7 144.6 134.9 127.3 122.4 121.4 123.3 124.7 126.1
479.3 482.3 484.1 482.9 479.1 470.1 445.8 422.7 393.1 360.4 332.3 308.8 291 277.8 274.7 277 280.1 287.7 295.1 305.1 320.8 337.8 359.5 383.1 403.5 420.5 434.8 447 458.7 464.3 448 422 389.5 353.1 320.7 299.1 283 270.2 257.2 244.1 233.9 226.4 221.3 211 203.6 195.3 184.8 178 172.3 168.8 158.4 150.2 144.1 138.9 129.3 126.5 122.8 119.8 116.9 114.3 111.1 109.8 108.2 104.4 107.4 106.8 107 113.9 120.8 126.2 133.1 141 147.5 152.2 155.3 155.7 154.6 152 148 143.6 137.2 127 139.9 146.8 153.3 155.1 157.7 159.7 162.3 163.6 163.1 161.8 164.1 168.4 171.5 173.2 170.3 166.8 163.7 159.8 156.2 153.8 150.7 146.5 143.6 138.7 132.6 122.5 111.9 105.4 109.8 109.8 104.9 101.1 100.4 91.8 89.9 84.7 85 86.3 87.5 88.2 88 86.8 87.1 86.8 85.8 85.6 86 83.8 93.9 96.5 99.5 101.7 108.2 112 112.3 111.8 108 96.6 87.5 89.6 95.6 102.3 110.3 117.9 124.9 133.3 140.6 147.1 150.4 152.4 151.2 148.2 142.4 136.9 129.4 123.5 116 115.4 124.4 131.7 139.5 143.7 141.4 136.2 127.5 132.6 137.1 140.2 144.7 148.5 153.3 157.2 160.4 162.4 163.9 163.4 162.6 161.7 161 161 161.1 161.3 161.4 161.6 161.6 160.8 159.2 157.7 155 151 145.4 136.7 128.8 121.6 117.2 115.7 118.2 119
472.9 474.3 476.6 475.8 472.7 455.1 432.4 408.6 380.1 351.3 324 304.8 288.5 276.2 269.3 268.8 271.8 276.5 283.4 296.2 308.8 328.5 349.7 372.2 395.7 415.9 432.6 445.8 456.4 465.2 452.5 425.8 395 359 320.2 301.2 285.7 269.6 259.1 245 234.7 227.4 219.9 214.1 205.5 194.3 185.4 178.4 171.8 165.9 158.4 151.2 143.8 138.2 134.3 129.5 124 120.8 118.5 115.7 111.8 109.3 107 106.5 106.3 106.2 107.4 114.9 120.9 126.1 133.9 143.7 149.5 152.2 154.3 155.2 152.9 149.4 144.7 139.1 132.2 131.2 141.4 145.5 146.1 148.3 150.3 153 155.7 158.8 158.1 160.6 166.4 170.2 170.8 168.9 166.1 162.6 159 154.6 149.7 145.6 143.7 140.6 134.8 131.2 127.6 119 110 97.8 98.4 100.1 96 91.8 90.7 89.1 85.4 87.8 87 86.4 86.6 86.7 85.5 86.7 87 86.8 85.9 85.6 86.2 99.7 102.1 106.2 110 113.2 117.3 117.5 115.7 113 105.4 94.1 88.6 93.5 99.5 107.3 112.5 119.9 127.9 135.7 143 149.6 154.4 155.2 154.1 151.6 146.6 140.5 133.1 125.6 118.4 117.1 125.1 134 143.2 146.1 143.8 139 132.7 138.2 142.7 146.4 150 153.3 156.9 159.8 161 161.2 159.4 159.4 158.6 156.5 154.2 153.9 155.3 155 155.8 156.1 156.4 156.1 155 153.1 151.4 149.1 144 137.5 131.6 124.8 117.4 111.3 111.3 113.3
466 467.7 468.8 469.3 458.8 437.2 416.4 389.8 362 336.2 315.5 298.4 283.8 273.2 267.5 258.9 263.4 267.8 272.9 284 300 317.9 341.4 364.8 388.5 410.8 429.5 444.8 456.1 465.7 456.5 429.9 398 365.3 323.5 304.4 288.6 273.5 260.4 245.7 237.4 229.9 221.9 213.7 205.4 195.6 187.1 178.7 171.7 166 159.8 152.7 146.6 142.7 137.8 130.4 124.4 121.7 119.1 116.3 112.8 108.9 107.3 107.2 103.7 105.8 107.5 116.3 121.7 126.9 134 144.2 149.8 152.2 153.2 153.3 150.1 146.5 142 134.4 128.2 129.3 136.5 139.1 140.6 144.1 147.6 149.9 152.3 153.2 157.7 163.3 167.9 167.5 164.9 162.9 160.1 156.7 151.7 147.9 141.7 137.3 133.6 129.9 127.1 122.1 117.2 112.8 105 93 93 92.2 90.7 90.6 89.4 88.8 87.7 88 87.2 86.5 86.9 87.4 87.7 86.1 86.2 86.6 84.9 89.4 101.9 108.7 112.8 116.3 120.3 122.4 123.1 121 116 112.3 100.9 90.3 91.1 95.9 103.9 109.7 115.8 123.8 131.5 140.9 147.2 153.4 157.5 158.2 156.5 154.2 148.6 142.2 135.4 128.2 120.3 119.6 127.3 135.7 144.8 147.8 145.5 142.1 140.4 144.9 148.3 151.9 154.5 156.6 157.8 158.3 158.6 157.2 155.3 153.6 152.8 150.7 148.1 148.5 147.8 148.8 149.6 149.3 150 149.4 149.5 149.7 148.6 145.8 141.9 136 130.6 125.3 118.6 110.7 103.7 107.6
463.4 464.7 463.9 457.1 440.7 418.5 396.1 370.1 343.6 319.6 305.5 291.4 278.8 269.5 264.9 256.6 250.7 256.8 264.7 275.3 288.9 308.3 332.8 356.8 381.5 409.4 427.2 443 455.4 463.8 461 436.4 405 371.2 329.6 305.3 289.2 275.7 260.8 247.1 238.1 231.1 222.5 214.2 205.9 198.5 187.4 177.3 169.8 165 159.1 152.9 147.9 143.5 138.6 130.5 123.8 120.7 117.6 114.4 111 108.1 106.9 106.2 106 104.4 107.8 116.3 123 128.5 135.5 144 150.4 153.1 151.5 150.3 147 145.3 140.2 132.1 125.2 129.1 132.5 136.5 139.9 144.6 148.3 151.4 152.4 156.2 161.3 165 163.2 160 156.6 155 153.2 148.4 145 140.3 133.9 130 125.2 122.1 118.8 115.1 109.5 101.6 94.3 92.1 91.6 90 89.8 89.4 89.1 88.6 87.9 88 87.3 86.6 87 87.7 87.4 86.7 87.2 88.2 99 108.9 112.4 116.8 121.7 125.5 128.9 127.7 124.4 120.2 114.1 105 95.8 90.7 93.8 98.7 106.4 113.2 120.7 129 137.5 145.4 151.6 156.9 160 160.8 158.4 155.5 149.8 141.7 135.2 128.1 121.1 122 126.3 136.4 145.1 148.9 148.9 145.8 145.2 149.2 153.5 155.4 157 157.7 157.9 157.8 156.3 154.1 152 149.9 148.6 145.7 143.9 144.6 143.4 143.4 143.1 143.3 145.1 143.8 144.2 145 143.9 141.9 137.9 132.2 127.3 122.4 118 111.4 104.6 100.5
457.5 457.9 453.9 440.9 420.9 401.6 373.4 349.7 325.4 307.9 294.6 284.3 273.6 265.7 260.2 254.4 243.7 248.4 258.6 269.4 284.6 303.9 326.1 351.8 376.1 405.8 425.8 441.6 455.5 463.5 461.8 441 409.4 374.5 339 305.7 291 278.9 262.7 250.6 241 232 223 215.5 206.7 197.6 186 177.4 170 163 157.4 152.4 147.2 143.2 137.9 130.2 122.8 119 115.5 111.3 108.4 107.4 106.2 104.1 104.6 105 109.9 120.1 125 130.6 137.7 145.3 149.9 152.1 152.3 149 146.6 144.1 139.4 130.7 124.2 127.1 132.1 137.1 143.9 148.1 151.4 153.8 155.7 158.7 161.9 159.2 156.2 152 149.1 145.4 144.6 141.8 137.3 131.8 124.9 120.4 116.1 112.6 110.2 104.4 95.6 93.1 92.2 91.1 90 89.4 89.4 89.2 88.9 86.8 88.6 88.7 88 87.4 87.4 87.4 88.1 89.4 95.1 105.9 111.8 116.1 119.9 125.7 129.3 132.7 132.1 128 122.6 112.9 104.7 98.1 93.9 92.2 95 99.9 108.5 116.1 125.8 136.6 143.8 150 156.6 161 163.4 163.6 161.6 157.8 151.7 142.6 135.7 129.7 127 127.1 126.5 135.6 144.3 150 151.6 150.7 150.3 153.2 156.4 158.8 157.7 157.9 157.9 156 153.4 151.2 148.9 146.4 144.1 140.5 138.5 137.8 137.5 137.5 137.1 137.3 137.6 138.7 139.2 140.1 140 138.5 134.2 129.4 124.1 118.6 114.6 108.9 103 98.5
446.8 449.5 440.9 420.7 402.7 380 354.9 329.9 310.1 296 284.2 274.3 267.5 262.2 255.9 249.6 241.4 243 253.7 264.4 279.5 298.5 318.5 343.9 373 401.2 422.8 439.2 452.3 462.9 462.5 443.6 413.8 378 342.1 308.2 295.3 282.4 264.4 247.8 240.9 232.7 224.4 218 208.6 199 187.8 176.7 169.6 163 157.2 150.3 144.6 140.7 134.8 129.6 121.9 116.9 112.8 110 107.8 106.9 106.6 104.8 104.4 106.6 114.8 122 126.7 133.5 141.9 146.8 149.6 150.6 150.4 147.2 145 142.9 139.4 131.2 123.1 126.5 131.8 137.6 144.5 147.2 149.2 154.9 156.3 159.6 157.5 153.3 150.3 146.7 140.2 135.1 135.5 132.9 127.5 121.2 114.9 112.3 108.9 101 97.5 94.5 92.7 91.3 91 90.7 90 89.9 89.4 88.9 88.6 89.1 89.2 89.6 89 88.6 89.7 90.5 95.1 102.5 108.3 115.2 120 124.9 129.5 134.7 136 136.2 132.7 126.2 111.6 102.4 98.4 96 94.5 94.3 95.6 98.3 108 117.3 128.1 140.5 147.8 154.3 161.4 166.4 166.3 166.4 164.7 159.8 153.7 145.7 138.2 132.2 134.2 132.8 130.5 135.7 143.6 150.4 154.4 154.3 154.7 157.6 159.6 159.1 157.4 157.2 156.8 154.6 151.9 148.8 145.9 141.3 136.5 133.3 132.8 132 131.9 131.9 131.4 132.1 132 133.4 134.8 137.1 137.5 136.2 132.7 127.6 123.6 118.4 113 107.5 103.2 98.9
435.7 438.3 421.2 404.7 382.8 358.6 333.5 312.6 297.4 283.5 274.7 266.7 261.9 256.9 251.9 243.8 236.1 238.4 248.9 260.5 276.2 294.3 314.9 340.8 371 398.8 419 436.4 448.8 461.3 463.8 444.7 417.8 382.2 346.4 312.8 296 281.5 264.7 252.9 242.8 235.1 226 218.9 210.6 199.3 188.2 176.6 169.6 163.2 156.2 148.6 141.5 139.1 127.2 123.3 118.4 114.3 112.2 110 108 106.5 103.7 104.2 104.8 110.9 117.6 123.1 128.9 138.1 143.5 146.6 148 147.9 147.1 144.5 141.8 139.9 137.3 130.9 122.3 126.1 131.7 137.1 142.9 147 151.3 156.1 159.2 156.2 152.9 147.8 141 140.4 136.6 126.7 126.1 125.6 119.6 113.4 107.3 104.3 98.6 93.9 93.1 92.2 91.5 91 91.1 90.9 90.6 90.9 88.5 87.7 89.3 89.3 89.6 89.9 90.8 92.1 96 101.7 106.5 112.1 118.9 123.7 129.3 133.5 136.7 141 139.6 135.2 129.4 116.4 104.3 96 100.1 103.1 105.6 105.4 102.4 98.3 106 115.5 125.7 138.7 148.2 158 165.7 169.9 171 168.6 165.5 159.9 156.1 149.6 143.1 137.4 143 141.5 135.9 136.2 144.8 151.4 155.2 157.3 158.5 160 160.7 160 158.7 156.3 155.1 153.1 150.3 146.6 141.5 134.8 130 127.2 127.5 127.1 126.1 126.2 126.3 127 127.9 129.5 131.9 134.4 135.8 134.9 133.1 127.4 122.4 118 114.4 109.4 106 103.2
416.7 418.1 407.8 389.7 363.2 341 317.2 300.7 283.8 275 267.1 260.6 257.6 250.1 245.2 237.2 231.4 235.8 245.7 259.8 272.3 287.2 309 335.1 366.8 394.1 414.7 434.9 444.4 457.1 460.5 446 420.6 385.2 349 320.3 299.5 281.2 267.7 255.9 244.9 236.7 228.4 221.2 214.1 201.9 189.9 176.8 167.4 161.4 155.9 148.1 140.6 133.3 125.6 120.5 116.4 113.4 111.1 109.3 107.4 105.5 103.1 104.1 107.1 112.2 119.2 125.2 133.1 138.1 142.4 144.7 144.5 143.4 141.9 139.5 137 135.7 132.4 127.9 121.8 127.1 134.9 140.6 145 147.8 153.8 157.9 155.1 151.2 146.3 142.4 138.6 134.8 129.6 122.8 117.1 116.1 111.8 102.9 99.4 96.2 94.1 93 92.6 92 91.9 91.9 90.6 89.4 89.1 90.7 91.1 90.4 90.8 91.6 92.2 95.6 99.8 106.5 111.8 116.6 118.8 124.9 128.6 133.7 137.8 140.1 140.7 141.8 137.6 132.2 122.8 109.6 100.7 104.3 109.2 113.8 115.1 113.7 109.5 105.8 101.5 112.1 122.7 134.5 146.5 158.9 169.1 173.2 174 170.4 165.1 160 156.5 152.8 146.7 146.6 149.3 148.9 144.7 139.6 145.2 151 156.3 158.1 160.2 161.1 161.4 160.4 158.9 156.9 154.9 151.8 148.2 143.2 137.8 132.5 128.1 124.1 121.7 119.8 115.8 115.8 117.6 120.8 122 125.7 128.6 131.5 133.3 133.3 131.9 127.4 121.3 115 111.1 109.1 107 103.8
400.6 403.5 395.1 372.3 348.1 323.4 303.3 286.1 276 266.8 259.2 255.3 250.6 243.2 236.7 230.6 226.5 233 243.6 256.5 268.9 286.2 305 331.6 363.7 388.5 413.5 432.5 441.5 453.1 458.9 445.5 421 385.6 352.8 320.9 300.8 283.5 268.8 257.7 247.6 237.8 230 221.6 215.4 204 192.7 176.3 166.8 159.9 154.4 147.5 140.1 132.9 125.9 119.8 115.3 113 110.3 108.6 106.8 105.5 103.8 103 105.4 111.2 119.1 127.4 132.4 136.5 138.5 140.7 139.6 138.1 135.6 133.4 129.1 127.8 124.8 120.3 123.1 129.9 137.8 143.7 148.2 151.5 152.7 152.8 149.1 144.1 139.6 135.5 131.9 127.6 122.6 116.5 109.2 108 104.3 96.6 95.2 93.5 93.1 93.1 92.7 91.8 91.3 91.2 89.7 90.7 91 91 91.3 91.9 93.5 98.5 102.6 108.5 111.6 120.1 125.8 129.3 132.8 134.7 137.5 139.8 142.5 143.1 141.9 138.5 134.8 126.9 115.2 106.4 100.4 112.5 117.3 121.7 122 120 115.7 111.3 106.7 111.4 120.7 132.9 144.4 156.6 166.7 173.2 174.1 171.8 167.7 161.5 159.3 156.3 153.6 151.7 151.3 152.4 149.8 144.8 149.5 154.9 157.9 159.6 161 162 162 160.7 159.1 156.8 153.5 150 145.5 141 134.4 129.7 126.1 122.8 119.3 123.9 125.3 122 116.2 109.2 110.2 117.5 124 128 131.2 132.3 131.2 127.1 121 114.6 107.6 104.1 102.4 102.1
386.7 389.2 380.1 356.4 332.7 308.4 292.3 276.3 265.8 258 252.7 249.1 242.2 236.4 229.4 223.6 222.6 231.8 241 252.7 265.6 281.3 298.8 328.3 360.3 385.8 412.3 430.4 438.5 449.3 455.7 443.3 418.8 386.9 352.2 322.7 299 282.8 269.9 258.7 249.5 242 231.8 222 215.5 204.2 192.5 173.7 165.5 158.9 153 145.7 137.7 132.8 126.5 120.2 114.8 112 110 108.5 106.8 104.6 105.3 104 105.3 110 118.1 124.8 130.5 132.9 133.7 133.5 132.7 130.7 127.4 123.9 121.7 119 118 120.6 127.7 134.2 141.9 145.6 149.4 149.4 147.8 146 141.7 137.7 133.7 129.5 125.2 119.5 113.3 108.2 104.6 100.6 96.9 94.5 94 93.3 93.2 93.2 92.7 91.8 91.1 90.7 91.4 91.7 93.1 93.1 93.9 98.3 103.1 109.3 114.1 122.9 132.8 134 134.5 138.6 140.7 142.3 143.7 145.2 145.3 144.3 140.3 135.1 128.9 123.3 111.9 104.3 108.9 118.9 124.4 128.3 128.4 125.1 120.6 116.1 112.6 109.8 119.6 129.5 139.5 150.5 160.5 169.9 174.4 172.5 169.7 166.1 162.7 159.7 157 154.4 154.8 156.5 155.6 150.7 152.3 156.6 159.1 160.2 161.6 162.2 161.7 160.4 158.2 154.4 151.2 146.5 141.6 136.3 132 127 124.6 122.9 123.2 125.4 127.8 127.4 122.5 115.4 107.9 107.5 115 120.3 127.6 128.8 129.8 125.3 118.5 111.8 104.7 100.2 98.1 96.8
366.5 368.2 358.3 340.7 316 294.1 280.9 268.6 259 250.6 245.4 242.4 235.9 229.2 222.7 216.3 222.2 231.4 242.1 252.3 267.4 280.7 297.9 323.2 358.7 383.3 408.5 427.9 437.1 444.6 446.6 441.2 419.8 388.8 354 324.8 299.8 286.3 270.6 259.9 250.7 241.5 230.8 221.5 213.2 202.2 190.2 176.4 165.2 157.8 151.3 144.2 136.8 129.3 125.9 119.4 114.6 111.5 109.9 108.4 106.1 104.1 104.6 104.5 104.8 112.2 122.7 126.2 128.8 130.1 130 128.2 126.6 124 118.8 116 115.3 117.2 121.3 126.6 132.3 139.1 144.9 147.6 147.3 145.2 141.8 139.7 135.6 131.7 126.5 122.4 117.6 112.3 106 101.5 97.9 95.1 92.4 91.6 93.7 93.3 93.3 93.3 92.7 92 91.2 89.4 93.1 94.3 95.7 98.6 100.7 106.2 113.1 118.5 130.4 135.6 138.2 141 144.5 146 148 147.4 147.6 146.8 144.5 141.3 136.9 129.8 122.4 116.3 109.1 104.9 114.1 121.6 129.2 132.5 134.8 132.2 128.2 121.7 117.4 112.9 117.9 128.7 137.9 145.1 155.9 166.4 173.1 174.6 171.8 169 165.6 162.6 159.3 156.2 158.8 159 158.6 155.1 154.9 156.9 159.3 160.8 161.2 160.6 159.3 158.2 156.3 152.2 148.9 142.5 137.9 132.6 128.5 126.5 126.7 127 127.5 127.7 128.2 127.7 125.6 120.6 112.9 105.2 104.2 111.5 117.7 121.3 122.3 119.1 113.9 107.4 101.8 96.5 93.5 90.9
343.7 346 336.6 323 301.3 285.8 273.5 260.1 250.5 244.7 238.2 232.6 228 222.8 217.4 214.1 223.7 231.1 240.4 252.4 268.5 281.2 301.8 323.7 354 382 405.1 423.3 432.8 438.1 439.8 437.3 423.4 389.4 354.9 325 301.1 284.2 271.6 260.2 250.3 241.1 230.5 221.9 213.6 203.1 190.2 176.6 165.7 157.1 150.6 144.5 137.2 130.4 123.8 118.3 114.9 112.1 109.9 108.5 103.3 104 104.1 104.7 107.4 114.2 122 126.1 128.5 127.8 124.9 122.9 121.4 118.1 113.6 117.5 123.8 129.5 132 136 142.3 144.2 146 146.1 143.7 140.2 136.3 133.2 129.5 123.8 118.2 114.4 108.7 104.2 99.5 97.4 94.7 92.2 94.3 93.3 90.4 93.4 93.5 93.4 92.6 92 91.3 91.6 96.2 98.9 101.3 100.7 104.9 112.6 120.7 131.4 139.3 143 145.6 148.7 150.8 151.3 151 149.1 147.2 144.2 140.7 137.3 129.5 122.2 115.9 111 108.2 108.1 115.5 124.7 132.5 136.1 137.4 136.9 134.9 128.1 120.9 115.9 115.4 124.2 136.2 143.8 153.5 163.2 171.9 175.2 175 173.3 169.4 164.9 161.6 158.8 160.9 161 159.7 156.9 157.5 158.7 160.1 160.9 160.1 158.8 157.1 155.9 153.9 151 146.9 140.3 133.7 128.8 130.4 130.6 131.2 131.1 130.4 129.5 128.8 127.2 125.6 122.3 117.3 109.8 101.5 100.6 107.3 111.7 113 112.5 108.6 102.6 95.6 91 86.4 84
324.4 320.1 313 299.8 288.2 278 265.1 252.5 244.2 238.4 231.9 225.1 220.6 216.4 211.6 212.5 222.4 231.1 241.3 252.7 267.5 283.2 301.6 324.9 353.9 379.3 403.4 421.4 429.6 434.9 435.4 433.3 424.8 391 357.8 327.8 301.2 284.5 271.7 259.7 249.6 239.3 230.8 220.5 212.7 203.5 191.2 177.3 165.8 157.5 149.7 142.8 137.6 128.5 123.3 118.8 115.7 112.8 110.3 108.3 103.9 103.8 103.8 105.1 107.8 113.1 121.5 125.9 127.5 125.9 121.1 118.1 116.1 112 112.7 125.8 135.4 140.3 142 144.4 146.2 144.4 141 140 137.8 135.1 131.3 126.9 121.8 115.3 109.6 104.3 100.7 98.5 97.1 94.9 94.1 92.6 93.8 93.1 92.4 90.5 93.9 93.2 92.5 91.4 93.8 100.9 102.8 106 101.2 103 110.3 118.3 127.3 138.3 145.8 149.9 152.3 153.9 154.3 152.6 149.6 146.5 143.6 140.8 136 128.9 123.2 116.4 111.7 112.1 117.5 117.7 113.8 126 133 139.3 140.8 140.7 137.6 131.6 123.8 121 120.2 118.8 132.1 142.3 151.7 159.5 169.8 176.5 177.5 176 171.2 167.1 164.2 161.9 163.3 162.9 161.5 160.2 159.6 160.3 161.1 160.8 158.6 156.9 154.1 152.1 149.9 147.7 142.5 135.2 133.4 134.7 135.2 134.3 133.8 132.4 130 128.8 127.2 125.8 123.7 120.5 115.6 109.7 101.1 96.1 98.2 102.4 101.7 102.1 99.1 95 89.5 83.6 78.9 76.7
321.7 313.4 303.5 291.2 279.6 268.9 258.4 248.4 238.3 232 225.2 219.2 215.4 210.4 206.1 211.7 221.7 232.7 244.6 256.4 269.8 287 304 326.5 354.3 380.4 400.6 419.4 427.6 433.5 431.2 429.2 420.5 395.9 362.7 328.1 303 282.9 268.5 257.5 249.2 240.3 229.3 221.6 213.8 205.3 195.3 179.5 167.4 158.4 150 144 137.4 129.8 124.9 119.9 116.4 113.6 111.1 107.9 105.4 103.1 102.7 100.2 106 111.2 121.3 124.7 124.8 122.4 116.8 113.8 111.2 108.9 119.9 131.7 139.6 146.2 148.4 146.5 143.2 139.7 136.1 133.3 131.4 129.5 124.2 117.4 111.1 105.9 101.4 99 96.8 96.1 95 94.4 93 93 93 93.2 92.8 93.8 91.8 91.3 93.7 99.1 104 111.6 116.4 115.9 107.3 105.2 113.6 123.1 134.8 144.9 151.4 155.9 156.2 156 153.8 148.8 145.1 141.4 138.1 135.2 128.9 121.5 115.2 114.4 118.6 123.5 122.9 123 115.3 127.3 134 140.5 145.4 145.8 141.8 137.6 130.6 125 123 124.5 128.5 140.6 150.6 158.2 168.5 177.7 180 178.3 175 171.7 169 165.3 166.4 166.3 165.1 164.3 163.4 161.9 161.4 159.8 157.4 152.5 146.5 143.6 142.4 140.9 138.6 140 140 139.5 138.4 136 134 131.6 129.8 128 125.3 123.4 119.9 115.6 108 100.5 99.5 98.9 95.8 90.9 89.5 87.3 87.1 84.1 81 74.5 74.8 72.9
317 309.3 299.8 289.7 277.3 268.3 256.1 246.6 235.6 225.6 218.1 212.1 208.3 205.1 203.7 214.5 224.3 237.5 250.9 264.3 275.7 292.1 309.7 337 360.6 384.1 401.6 419.4 430.2 434 429.9 424 415.2 398.5 366.2 330.4 304 283 267.8 256.7 247.2 237.7 229 220.5 213.5 205 195.4 181.7 167 157.8 149.5 143.7 138.6 131.9 126.5 121.2 118 114.2 110.6 107.5 106.1 104.4 103.4 102.7 103.3 111.5 119.9 121.5 121.4 117.4 112 109.3 107.5 116.4 124.4 135 143.9 147.1 148.2 144.4 137.8 133.9 130.6 129.3 123.6 115.8 109.3 105.6 101.9 98.7 97.6 95.9 95 95.1 92.3 93.2 93.7 93.6 93.5 93.2 93.9 95.5 95.8 98.9 103.5 109.8 116.6 121.9 126.6 126.7 115.9 111.6 119.2 128.3 139.5 149.1 156.4 159.1 158.6 155.7 149.2 143.2 140 135.8 131.5 127.8 122.9 120.7 124.1 124.2 125.6 127.5 129 128 118.4 129.4 135.9 142.1 147.8 148.5 145.9 141.2 136.9 130.4 133.2 130 127.1 140.3 149.2 157.9 168.3 178.4 182.3 181.7 179 176.5 173.2 170.6 170.8 170.5 167.9 166.3 165.2 162.3 162.5 159.2 154.6 150.7 150.3 149.9 147.5 147 144.9 146.5 144.7 142 138.6 135.5 132.5 130.2 128.1 125.3 122.2 117.4 112.9 109.5 111.8 111.8 110 106.5 101.8 99.2 95.2 92.1 89.4 86.4 82.8 82.6 80.4 75.4
325.5 319.1 300.3 284.5 277.5 269.3 257 243.4 231.7 217.6 212 207.3 202.5 197.7 205.6 213.4 227.9 242.5 256.9 268.3 280.9 295.9 315.9 341.3 369 389.5 403.6 419.6 429 429.7 424.3 419.8 410.1 393.5 364.2 331.8 303 284.3 268.9 257 247.7 239 228 218.7 211.2 203.1 193.3 179.9 165.3 156.4 149.2 143.3 138.2 132 126.7 122.7 118.6 114.5 110.4 108 106.4 104.2 103.4 100.6 104 111.9 118.8 118.7 116.5 110.8 108.2 106.3 112.6 119.8 127.2 137.1 142.3 143.3 143.9 139.2 131.3 127.1 123.8 117.8 110.9 105.4 102 99.9 98.8 97.5 95.3 95.3 94.9 94.6 92.6 94.4 94.7 94.4 94.3 94 96 99.5 103.5 107 112.4 118.4 125.6 132.6 135.9 133 122.2 117.7 124.8 133.3 143.6 151.6 159.3 160.9 157.6 150.8 144 138.3 134.4 130 126.2 124.4 127.2 130.6 132.5 133.8 135 134.7 135.4 131.6 122.3 130.9 138.6 145.1 150.8 152.9 150.9 145.6 142.4 139.8 139.3 137.2 133.1 138.1 149.6 158 168.6 178.6 182.4 184.4 183.7 180.6 177.6 175.8 174.9 173.5 171.2 168.9 165.7 164.7 161.9 154.8 157.5 157.8 156.5 154.2 152.2 150.2 151.4 150.3 146.2 141.9 137.8 134.1 128.5 124.7 122.7 120.7 114.8 115.4 116.8 120.3 118.8 121.1 119 113.7 110.4 109.3 105.5 102.5 98.8 95.1 91.7 85.3 79.9 73.4
322.7 327.7 298 280.3 276.6 268 256.2 242.4 224.8 213.4 207.4 203 197.2 200.2 209.9 217.8 230 241.4 255.5 272 286.5 306.4 328.2 353.7 377.8 392.2 406.5 420 422.7 421.5 416.6 410.6 404.8 390.8 366.3 335.1 307.9 288.1 270.2 257.3 247.6 238.9 229.2 219.2 210.5 203.4 193.2 179.6 167.9 158.7 149.8 143.7 139.1 133.3 127.9 123.9 121 116.1 111.6 108.3 105.8 104 103.5 103.1 104.3 111.8 117.1 116.9 113.2 107.8 105.6 107.7 116.3 123.8 130.2 135.7 136.7 136.7 136.8 127.9 123.8 120.6 113.2 107.5 103.1 100.2 98.7 98 97.4 96.9 95.6 95.5 94.9 94.4 94.4 95.1 94.9 95.6 96.9 98.7 103.4 106.8 111.8 115.4 121.9 129.2 135.3 141.3 143.5 137.6 127.2 123.8 132.4 139.1 148.5 156.7 161.5 160.2 155 149.5 142.9 137.1 132.1 126.8 128.8 132.1 135.5 139.1 142.4 143.3 143.5 143.3 142.6 136.4 124.7 133.6 142 148.4 154.4 158.1 157.1 152.2 148.9 146.6 145 143.1 138 138.3 150.9 158.4 167.2 177.6 186.6 187.6 186.7 184.8 181.3 180.3 178.5 176.4 174.3 169.7 166.9 165.2 161.6 160.6 160.8 161.6 161.3 159.8 158.1 156.9 154.8 151.1 146.7 142.6 137.6 132.9 129.4 125.6 124.5 123.8 122.8 122.2 123.3 126 126.4 126.5 125.3 122.3 121.6 119.2 117.4 115 110.2 104.8 94.2 83 76 71.1
308.2 315.4 291.6 275.8 269.2 261.3 250.4 236.8 216.1 206.4 201.5 196.3 191.4 201.4 209.7 218.5 229.4 242.2 257.9 275.9 298 319.7 346.3 366 383.2 399.2 412.7 417.4 416.3 412.9 409.5 401.2 395.2 386.1 372.7 341.6 314 291.7 272.8 258.4 247 236.9 227 218 211.2 204.5 197 186.4 173.9 163 155.2 148.3 145.4 139.9 134.1 128 123.4 117.7 113.1 109.2 105.6 103.9 103.4 102.5 103.6 109.4 116.6 114.3 110 104.6 104.8 109.2 119.7 126.3 130.7 128.7 128.7 128.3 125.6 119.8 114 111.4 103.1 100.4 99.8 98.6 98 97.2 98.2 96.4 95.5 95.7 95.1 92.5 94.9 95.3 96.7 98.8 103.4 106.8 110.9 116.2 121.8 128.3 134.7 140.2 145 150.2 148.4 139 129.1 134.8 139.2 146.9 154.8 161.5 164.7 161.7 155.5 147.5 140.3 134.9 131.1 131.2 133.6 137.1 142 146 148.2 151 154.8 152.3 146.9 136.6 126.8 136.3 145.7 152.8 160.1 165.3 163.6 159.5 155.9 153.3 152.1 149.7 144.6 139.5 152.7 158.9 167 177.1 187.9 190.9 189.8 188.6 185.8 183.1 181.6 179.1 176.9 172.8 168.4 166.3 164.7 162.7 164.8 165.4 164.8 164 163 160.9 158.4 154 149.5 144.7 139.7 135.5 131.9 130.3 129.5 129.1 128.3 128.4 130.1 131.1 130.6 129.7 129.5 129.3 128.1 126.9 125.7 121.9 115.7 107.4 93.2 81.8 75.6 74.3
281.8 283.3 287.2 266.8 257.6 252.1 245.6 227.5 211.3 200.6 197 191.4 193.1 200.4 209.9 218.8 230.2 243.9 262.7 281.1 306.4 332.8 361.1 378.6 392.2 406.1 412.2 412.2 410.2 406.2 400.9 394.2 387.7 382.3 374.3 354 326.3 298.7 280.3 261.9 248 237.9 227.6 219.5 212.6 205.6 199.4 189.9 179.5 171 162.6 157 152.1 146.8 140.3 132.5 125.2 118.4 113.3 109.1 105.7 103.7 103.2 102.8 103 109.4 113.5 111.3 107.7 103.1 104.5 111.9 121.7 125.4 123.4 121.1 119.2 108.5 108 102.6 97.8 98.8 96.9 95.7 95.6 98 97.7 99.4 96.4 97 96.7 95.7 95.2 95.8 96.6 99.2 104.5 109.2 114.1 117 123.4 129.5 134.6 140.7 146.8 152.2 156.6 157.9 153 143.4 139.3 145.4 149.4 155.9 162.2 167.6 167.3 162.3 154.3 145.6 139.1 133.4 134.1 135.7 139.3 143.3 148.2 154.4 158.5 162.8 162.6 159.3 150.4 139.8 130.6 143.5 152.2 159.1 166.2 172.3 172.2 168.6 164.8 162.4 159.8 154.8 149.8 145.9 154.6 160.6 169.1 179.2 187.3 192.1 193.3 192.4 190.5 188 185 182.3 179.1 176.9 174.4 171.2 168.1 165.8 168.1 168.7 168.1 167.5 166.7 165.1 162.4 158.4 154.3 148.9 143.7 139.2 136.6 135.2 134.3 134.4 134 134 134.8 135 134.2 132.6 131 131 130.9 130.1 128.5 124.8 116.7 109 91.6 81.2 75.7 75.6
250.2 254.1 255.1 252.7 251.2 246.1 238.7 221.3 206.3 196.7 189.9 187.2 193.2 200 208.9 221 232.2 249.2 264.6 283.8 311.9 340.6 365.8 381.4 394 403.6 404.7 403.9 403.3 400.2 394.2 387.8 381.2 376.4 370.6 362.8 340.2 315.8 293.1 272.1 252.1 239.9 232.4 224 217.9 208.8 199.3 192.1 183.6 175.9 168.8 164.2 156.7 151.5 142.8 135.9 128.7 121.7 113.7 110.4 107.1 104.1 103.1 101 102.3 105.5 108.1 106.9 104.9 102.7 106.5 114.7 121.3 118.1 114.4 104 99.1 98.1 97.6 100.2 99.3 98.8 99.2 98.4 98 97.8 99.4 94.7 96.7 96.7 96.6 95.6 96.7 99.2 104 113.3 120.7 121.5 127.4 132.6 134.8 140.5 146.4 151.4 157.6 162.5 165.3 165.2 157.6 147.7 149.9 155.1 161.8 166.6 170.9 171.7 168.3 161.7 152.8 145.2 137.8 137 139.6 141.3 144.1 149.6 155.3 160.2 164.9 170.2 169.3 162.5 152.4 144.7 140.3 151.2 156.9 163.6 174.5 178.5 178.2 177.6 174.6 170.3 165.5 159.4 152.9 150 156.6 163.8 170.2 182.2 190.2 194.9 196.8 196.4 194.6 191.5 188.9 186 183.2 180.5 177.9 174.7 171.7 169.7 171 172 171.3 170.7 169.1 167.6 165.3 161.3 157.6 152.9 149 145 142.5 141.3 139.2 138.8 138.1 137.9 137.8 137.1 134.5 133.2 132 130.8 130.9 129.7 126.6 122 116 107.4 91.4 79.9 76.2 76.3
243.8 243.9 243.1 241.7 242 235.7 230.9 215.6 202 192.8 186 183.6 194 199.8 208.2 219.7 233.3 247.2 264.7 283.9 313.6 343.8 361.2 377.3 390.5 393.9 396.8 396.7 396.1 393.9 387.5 382.1 375.3 370.2 364.7 360.1 353 328.7 307.2 286.3 263.1 242.8 238.1 229.1 221.3 212.9 201.8 193.8 186.8 178.9 171.6 166.9 160.2 152 144.1 136.5 128.8 122.1 116 112 108.1 104.9 102.6 101.3 100.9 101.5 103.6 104.3 102.5 100.6 104.4 113.2 113.2 112.8 101.1 98.9 99.5 97.5 100.7 99.8 99.9 99.7 99 98.9 98.1 98.3 99 97.2 96.6 96.8 96.3 98.5 102.6 108.5 118.3 125.9 129.7 134.6 138.2 142.9 144.2 150.7 156.8 162.6 167.8 171.8 173.7 172.6 166.9 156.9 163.1 167.3 171 175.8 177 174.9 167.6 160.6 152.7 146.7 148.5 149.1 146.2 143.9 150.2 156.2 163.6 168.8 175.4 177.1 175.4 166.7 155.6 148 146.8 155.6 163 170.7 181.6 185.6 187.2 185.4 182.4 175.6 168.3 161.1 154.8 153 159.3 166.1 172.4 185.3 194.5 199 201.4 200.3 197.5 194.7 192.2 190 187.2 184.5 181.8 178.3 175.6 174 174.3 174.9 173.7 172 169.5 167.3 165.3 162.7 158.3 154.7 150.6 148.3 146 143.3 141.5 140.1 139.8 138.5 137.3 136.1 134.4 131.7 129.8 128.6 127.9 127.8 122.6 117.5 112.1 101.1 88.7 77.2 74.8 78.5
235.4 235.6 233.5 231.2 227.2 224 216.4 207.8 195.7 188.5 183.1 183.8 192.7 199 208.2 221.8 235.3 245.5 264.6 286.5 313.7 337.6 358.4 370.3 379.5 383.8 386.6 389 388.2 386.5 379 373.5 367.7 361.4 358.6 355.4 352.8 342.7 320 296.7 263.9 251.8 242.6 233.1 223.2 214.7 204 195.1 187.2 179.7 173.5 167.7 161.9 154.8 146.6 138.8 131.1 123.9 119.1 113.3 109 106.6 104.2 102.6 101.1 101.4 101.6 102.4 101.8 100.5 101.9 109.7 102.5 98.9 100.4 100.4 99.9 100.4 100.7 99.2 99.5 100.2 100.4 99.4 98.8 99.6 99.5 97.8 97.7 97.9 98.5 106 114.4 120.9 128 134.7 139.9 143.8 147.4 154.4 156.8 160.6 166.3 173.3 176.8 180.6 182.7 182.2 177.3 170.1 175.7 178.3 181 182.7 181.4 177.6 168.9 160.9 154.6 161.6 159.6 156.2 152.9 150.4 155.5 162.8 171.2 177.6 181.6 182.1 178.6 169.6 158.8 150.1 151.8 160.2 167.7 178.4 188 193.2 193.6 191.1 186.8 179.6 170.8 162.2 154.6 159.8 164 169.7 178.5 186.9 196.7 204.1 206.5 204.2 200.8 198 195.3 193 190.1 187.1 184.4 180.9 178.9 177.2 176.7 175.2 173.1 169.9 166.7 163.9 162 159.2 156.4 153.4 150.5 148.3 146 143.1 141.3 139.6 137.9 136.7 134 132.4 130.1 128.5 127.7 126.3 124.1 123.1 117.5 112.3 106 96.6 82.2 78.1 77.3 80
222.9 222.2 220.8 218.7 215.5 209.9 205.7 198.3 191.7 185.6 179.9 181.5 190.5 197.3 206.5 221 234.5 244.8 263.2 289.7 312.5 335.3 352.9 363.2 370.3 373.8 375.3 379.8 380.2 373.4 369.4 365.7 359.8 354.8 351.7 349.2 348.1 347.5 337.1 309.2 273.1 255.6 248 236.4 226.4 216.8 205.9 196.9 189.4 181.6 173.2 168.3 160.6 155.5 148.9 140.9 132.2 125.6 120.3 114.6 110.1 107.5 105.4 103.9 102.7 102.4 102 101.5 101.8 100.9 100.9 99 99 97.9 98 100.8 100.8 100.5 100.8 100.5 101.5 101.2 100.6 100.3 99.9 101 100.3 99.4 101.7 104.5 111 114.5 121.3 128.4 132.5 142.4 147.4 150.6 154.7 160.1 166.1 172.3 176.5 181.5 186.7 191.1 191.2 190.8 184.1 179.9 184.7 187.3 188.2 188.1 184.3 179.3 170.1 162.9 163.5 169.9 168.8 164.6 160.9 154.7 159.5 169.3 179 184.3 185.5 185.6 182.8 173.3 162.6 155.2 155.1 164.5 174.2 185.6 194.2 199.3 199.2 196.7 190.6 182.9 171.6 164.3 159.7 162.2 168.4 173.6 181 191.1 200 208.2 210.1 208 204.2 200.3 197.6 194.7 191.9 189 186 182.8 181 179.1 176.1 172.4 169.9 166.8 162.2 159.6 157.8 155 153.4 150.8 148.5 146.3 143.9 142.1 139.2 136.6 133.8 131 128.9 127.1 125 123.7 122.9 122.5 121 116.5 109 105.5 97.5 88.8 80.6 80 77.2 79.7
203.3 205.4 204.3 203.4 199.6 198.7 194.7 190 186.1 182.4 177.6 177.6 186.8 194.8 205.3 219.5 233.3 244.3 258.2 285.1 308.1 329.5 347.6 356.4 360.2 363.6 366.1 369.1 368.3 364.7 360.5 356 350.9 347.3 345 343.7 341.9 342.7 342.9 325.9 294.3 271.1 257.2 245.3 228.1 215.9 206.1 199.9 193.5 184.6 175.1 167.2 160.1 155.1 149.7 141.9 133.8 127.1 120.7 116.1 111.4 108.4 106.2 104.4 103.8 103.3 102.4 102.6 102 100.6 101 102.3 101.8 102.3 102.4 102.3 102.2 101.7 101.3 102.2 102.4 102.5 102.8 101.7 100.8 99.8 101.4 103.1 107.2 111.8 116.7 122.7 129.8 135.9 142.5 148.1 152.7 157.5 162.8 169.4 179.1 182 185.9 191.3 196.5 200.7 202.4 197.4 190.4 187.7 192 194.5 194.2 191.6 186.9 180 172.3 166.5 173.2 177.6 178.9 175.1 167 161.4 165 174.4 184.9 188.4 190 189.6 186.1 176.7 167.5 160.4 157.7 168.1 177.5 188.9 199.6 202.3 202.7 201.1 194.1 186 174.9 168.1 164.1 166.9 173.5 180.6 185.6 194.8 204.1 210.1 212.5 210.4 205.7 200.9 197.3 193.5 189.9 186.3 183.6 180.8 178.7 176.6 173.4 169.5 165.1 162.6 157.1 154.5 153.7 151.6 150.1 148.3 146.1 143.4 141 137.7 135.4 131 127.7 125.3 121.3 119.5 118.1 118.3 117.3 114.2 110.1 106.9 103.1 96.7 90 83.3 85.6 85.7 80.5 83.1
192.6 193.3 193.9 191.7 187.5 187.3 185.1 183.3 181.8 179.8 176.3 174.6 184.3 191.7 203.6 217.7 231.7 244.3 252.8 282.8 304.3 322 338.2 348.6 354.2 353 354 356.7 357.4 354.7 352.2 347.9 342.8 340.2 337.7 336 335.9 335.7 339.3 337.2 314.6 290.7 269.8 250.7 235 221.5 214.2 204.5 194 186.4 178.3 169.1 160.4 155.5 151.3 144.8 134.7 126.9 121.2 116.5 111.9 109 106.9 105.5 104.9 104.6 104.7 104 103.1 101 100.9 102.3 102.7 102.7 103.1 102.9 102.7 103.3 103 102.7 104.7 102.3 103.5 102.8 102.7 101.5 105.2 108.3 112.4 117.4 123.8 130.9 137.5 143.7 150.2 155.4 160.3 166.2 172.3 178.3 185.4 190.8 194.6 198.6 203.5 208.8 206.4 200.6 194 193.2 197.6 199.6 199 195.7 191 183.7 176.5 174 183.4 186.9 183.7 179.6 173.1 165.4 167.5 178.9 189.4 192.8 194.7 193.2 189.1 181.4 173.3 166.2 163.4 170.8 180.9 190.9 203.4 205.5 205.4 203.2 197.5 190.2 179.4 172.9 169.6 175.6 182.9 187.2 192.3 200.3 207.5 212.7 212.6 208.6 203.8 200.1 196.7 191.6 186.9 182.5 178.9 176.6 174.1 172 169.1 166.1 161.9 157.2 153 149.9 148.5 146.3 145.2 144.3 142.5 139.2 135.3 131.4 129.1 124.6 120.6 117.3 114.2 112.2 111.3 109.5 105.2 103.6 100.8 101.1 95.3 87.6 86.7 90.6 95.7 86.1 81.3 87.1
