ncols 200
nrows 82
xllcorner 330000
yllcorner 260350
cellsize 50
236.3 234.2 233.3 232.6 233.4 235.1 235.2 233.5 229.7 224.4 220.4 213.8 207 198.6 193.2 187.4 180.1 178.5 176 171.4 166.8 164.9 166.4 163.9 163.6 161.3 159.9 154.8 152.5 151.3 149.7 148.4 147.6 146.8 146.2 145.5 145.4 145.7 144.2 143.8 143.6 143.3 143 142.8 142.1 142.2 142 141.3 141.7 141.9 141 140.7 143 142.7 142.6 140.7 139.6 140.4 139.8 139 139.8 139.2 139.1 140.1 138.9 138.3 138.2 138.5 136.9 137.4 136.8 136.9 136.9 136.8 136.3 136.5 135.7 135.6 134.3 135.1 134.1 133.9 133.9 133.7 133.8 133.5 132.8 133.8 133.3 132.9 132.9 133.6 134.3 133.9 133.6 133.3 133.1 133.4 133.8 133.2 133 133 132.9 132.7 132.6 133.2 134 133.5 135.8 137.5 139.7 139.9 141.1 141.9 138 135.7 132.4 130.2 129.5 128.3 127.5 127.6 126.4 126.1 126.1 131.9 150.2 162.5 167.3 167.5 167.3 167.2 168.6 172.8 176.7 183.4 187.1 192.4 199 205.7 212.7 217.6 221 223.4 225.3 228 230.4 233.6 236.7 238 236.7 229.5 221.7 230.3 238 234.6 225.2 211.5 201.3 194.6 189.6 186.3 187.3 191.4 198.5 206.4 218.9 231.3 244.1 257 269.5 281.9 292.8 303.4 307.3 309.5 311.5 313.6 316.9 318.8 319.7 317.7 315.2 313.2 310.8 306.8 303.7 301.2 298.4 295.5 291.4 286.3 280.2 275 270.1 264.6 258.2 251.9 246.2 240.8
242 239 237.9 237.9 238.2 239.1 237.9 236.1 232.4 227.7 224.2 218.5 213.8 207.9 202.1 195.3 187.9 178.6 170.1 165.9 162.5 163.5 164.5 164.4 163.5 162.5 160.2 157.6 153.5 151.7 150.8 149.5 147.9 147.6 146.8 146.1 145.8 145.9 145.1 143.8 143.5 143.3 143 142.8 141.6 141.5 141.5 140.3 141.1 141.8 140.8 140.8 140.6 140.2 139.4 139.7 138.8 139.4 139.2 138.7 138.9 139.1 138.5 138.2 137.6 137.3 137.3 136 136 135.8 136.4 135.1 135.7 136.2 136.1 136 135.7 135.8 135.5 134.3 134.2 134.9 134.3 134.4 134.2 133.9 133.7 133.6 133 132.9 133.4 133.8 133.9 133.6 133.3 133.2 133 133 133 132.9 132.6 132.3 132.4 132.2 132 132.3 132.6 132.5 132.6 132.5 133.1 134.1 135.3 135.4 132.6 131.2 129.4 129.1 128.8 128.1 127.4 127.2 126.7 126.6 125.2 131.2 146.3 155.9 160.4 161.6 162.3 163.3 166.5 170.3 175.1 178.3 183 188.2 194.8 200.9 205.4 209.7 214.8 213.9 222.8 228.1 233.8 239.3 242.5 243.9 242.8 239.9 238 240.4 244.5 244.9 231.1 222.1 216.2 209.8 201.2 202.8 207.9 215.7 224 233.6 244 256.2 270.3 283.9 294.4 305.8 307.5 308.8 312 313.4 315 317.2 317.5 316.5 315.3 313.8 311.4 307.6 305.7 302.9 298.6 295.6 292.7 288.8 284.2 279.7 274.1 267.9 262.7 257.5 251.4 245.7 240.6 235.5
243.2 238.9 236.5 235.9 235.3 235.6 234.8 232.7 230.2 227.7 225.3 222.7 218.8 215.1 211.6 205.3 194.2 183.3 170.2 164.6 162.3 162.1 162.9 163.4 162.2 161 160.3 158.3 155.6 153.1 152.3 150.9 149.2 148.4 148 147.4 146.7 145.4 144.6 144 143.4 143.2 143.2 142.9 141.7 142 142.1 140.5 141 141.7 141.7 141.3 140.9 140.4 139.1 138.8 138.9 138.1 137.7 138.5 138.8 138.7 138.4 137.2 137.5 136.9 136.6 136.4 137.5 136.9 136.4 136.2 136.6 136.4 136.2 135.9 135.9 135.6 135.5 135.3 135.1 134.1 134.2 134.1 134 133.8 133.6 133.5 132.9 133 132.9 133.3 133.6 133.3 133 133.1 133 133 132.9 132.8 132.7 132.2 131.8 131.7 131.5 131.3 131.4 131.2 131.1 131.1 131.9 131.2 131.1 130.6 130.4 129.4 129.1 128.9 128.7 128.2 127.6 127.1 127.1 127 125.8 129 144.5 150.9 153.5 155.1 156.2 160.8 164.4 167.4 170.8 172.9 176.7 181.7 187.5 192.9 197.2 201.9 201.9 201.4 209.2 214.2 221.8 226.5 231.4 236.1 239.8 241.9 245.7 249.8 253.7 253.9 249.4 248.1 244.1 233.6 218.4 227.2 235 243.5 252.4 261.3 271.7 284.1 297.6 307.9 309.1 310.2 311 312.3 313.6 313.1 311.6 312 311.6 310.4 309.1 306.5 303.6 301.1 299 297.1 293.6 290.2 286.3 281.6 277 273.1 267.6 262.4 256.9 250 245.6 239.7 234.9 230.4
231.7 232 229.3 227.5 227 226.7 226.6 224.8 223.4 224 222.1 220.5 220.5 218.3 213.1 206.2 194 181.4 167.5 163.4 161.5 161.6 162.1 161.9 160.2 159.9 159 158.9 157.5 155.7 154.4 152.7 152.2 150.6 149.8 148.7 147.9 145.9 144.7 144 143.4 143.8 143.6 142.5 142.2 142.3 142.5 141.9 140.7 141.5 141.5 141.2 141 140.6 139.9 139.9 139.7 139.4 139.2 138.9 138.7 138.6 138.5 137.3 138.2 137.7 137.6 137.8 137.8 137.4 136.6 136.4 136.5 136.4 136.1 135.8 135.8 135.6 135.6 135.3 135.1 134.2 134 133.8 133.7 133.5 133.4 133.2 133.3 132.1 131.8 132.2 132.5 132.8 132.7 132.8 132.9 132.9 132.7 132.5 132.7 132.3 131.9 131.4 131.3 131.2 131.2 131.1 130.9 130.8 130.2 129.9 129.7 129.5 129.3 129.1 128.9 128.7 128.4 128.2 127.8 127.5 127.4 127.3 127.1 125.7 139.8 143.7 145.6 148.5 153 157.2 163.1 165.4 164.8 167.4 169.8 174.4 178.1 181.6 187.5 191.2 187.2 188.1 192 195.9 200.5 204.6 210.2 216.5 222 231.5 241 251.2 259.9 265.1 267.5 268.8 268.3 243.5 243.6 255.4 263.6 272.2 281.6 292.1 301.2 310 311.7 312.9 313.9 314.6 313.9 313.1 310.8 308.7 306.2 305.7 304.4 302.5 301.4 298.6 295.6 293.2 290.8 289 286.3 282.8 279.9 275.4 270.8 266.4 261.4 255.9 251.2 245.9 240.4 235.4 230.5 226
218.4 218.3 217.3 216.6 216.5 217.2 217.4 215.1 214.5 217.4 219.9 223.1 220.9 214.6 211.2 201 187.9 172.4 165.9 162.2 161.7 161.4 160.8 160.6 159.4 159.7 159.1 159.5 158.9 158.1 155.6 153.2 152.5 152.2 150.7 149.9 149.2 147.8 146.9 145.7 144.7 144.8 144.1 143 142.4 143 142.2 141.8 141.1 141.3 141.2 141 140.7 140.4 140.2 139.9 139.8 139.8 139.1 138.9 138.7 138.5 138.5 137.6 138 137.5 137.6 137.7 137.6 137.2 136.5 136.4 136.2 136.2 136.1 135.9 135.7 135.7 135.6 135.4 134.9 134.2 134 133.8 133.7 133.5 133.3 133.2 133.2 133.2 133.1 132 131.5 131.8 132.1 132.5 132.8 132.7 132.5 132.3 132.6 132.4 131.7 131.3 131.2 131.1 131 130.9 131 130.3 129.9 129.6 129.6 129.7 129.5 129.2 128.8 128.6 128.3 128.1 127.9 127.8 127.7 127.5 127.4 127.1 127.3 136.7 139.4 144.4 148.6 152.2 157.3 161.3 159.1 159.6 160.7 162.5 161.1 167.1 172 175.8 175.7 174.9 175.5 177.8 180.8 186.2 194.7 207.4 225.2 241.2 256 267.5 277 283 285.4 285.7 283.4 275.1 272.9 283.4 292.6 300.5 306.9 311.6 314.4 315.8 317 317.7 317.3 315.5 312.4 309.2 306.6 303.5 301.3 299.1 297.2 295.3 293.4 290.8 287.7 285.2 282.4 279.7 277 273.2 270.6 267.9 264.2 258.4 253.5 249.7 245.6 240.9 236.6 232.3 228 223.5
210.9 209.9 207.9 206.1 205.8 206.7 206.8 204.8 206.2 210.4 220.1 218.8 211.1 205.3 196.3 185.5 173.3 168.3 164.1 161.7 161.5 160.5 159.8 159.1 158.7 159.4 159.6 159.4 158.5 157.5 156.7 154.3 152.9 152.7 151.6 151.3 150.6 149.3 149.3 147.1 146 145.5 145.2 144.1 144 143.4 142.6 141.9 141.5 141.1 141 140.7 140.5 140.1 140 139.8 139.5 139.3 139 138.9 138.7 138.5 138.3 138 137.8 137.5 137.6 137.5 137.4 136.9 136.5 136.4 136.2 136.1 135.9 135.9 135.8 135.8 135.6 135.3 134.8 134.2 134 133.8 133.7 133.5 133.4 133.2 133.2 133.2 133 132.7 132 131.4 131.4 132.4 132.3 132.3 132.1 132 132.2 131.6 131.4 131.3 131.1 130.9 130.8 130.7 130.4 129.9 129.6 129.6 129.6 129.7 129.7 129.4 128.8 128.6 128.4 128.3 128.2 128.1 127.9 127.8 127.7 127.2 127 128.9 134.8 140.7 143.6 146.5 150.3 154.1 152.6 151.7 151.4 151.2 155.4 158.4 163.1 166.8 168.8 168.2 169.5 171.8 176.4 187.4 205.4 225.4 245.9 262.7 278.5 290.1 294.7 295.3 295.5 295.7 296.6 297.1 297.5 301.7 306.6 312.8 318.3 321.1 320.7 321 319.6 317.2 314.2 311.1 308 304.8 301.4 298.4 295.1 292.1 290.1 288.2 286.5 283.6 280.6 277.9 275.2 272.6 268.8 264.8 262.2 259.2 255.9 251.6 246.8 242.7 239.3 235.9 232.6 229.6 225.6 221.4
204.8 202.2 200 197.4 195.8 195.9 195.9 196.2 199.1 208.5 209.2 204.3 196.9 188.5 179.1 171.5 169.9 167 163.8 162.1 163.7 160.4 159.4 159.2 158.3 158.4 158.8 158.4 157.5 157 156.8 155.1 153.7 153.2 152.6 152.5 152 151.4 150.2 149.1 147.8 146.1 145.6 145.6 145 145.1 145 144.5 143.9 142.7 141.8 141.2 140.4 140.4 139.8 139.7 139.4 139.4 139.4 139 138.7 138.5 138.3 138.1 137.8 137.5 137.4 137.3 137.2 136.7 136.5 136.4 136.2 136.1 136 135.7 135.9 135.9 135.6 135.1 134.6 134.2 134 133.9 133.7 133.6 133.4 133.3 133.3 133.1 133 133 132.2 131.7 131.5 131.7 131.8 131.7 131.7 131.7 131.7 131.3 131.1 131 130.9 130.8 130.6 130.5 130 129.6 129.5 129.6 129.6 129.6 129.7 129.7 129 128.6 128.4 128.2 128.3 128.3 128.2 128.1 127.6 127.2 126.4 127.9 132 135 137.4 140.3 144.2 147.5 148.1 147.1 145.8 146 149 150.4 157.3 164.2 164.7 167 169.7 173.3 183.8 203.9 224.8 247.5 267.6 285 296.5 299.8 300.7 301 301.7 303.7 304.5 306 306.7 309.9 315.5 321.3 324.8 323.1 322.3 319.6 316.7 313 309.8 306.2 303.1 299.9 295.8 290.9 286.8 285.1 283.4 281.7 279.9 276.9 273.7 270.6 267.8 264.9 261 255.4 255.1 251.2 248.1 245.5 241.4 237 234.2 231 228 225.3 222.5 218.8
199.8 196.6 193.6 190.9 188.8 187.9 188.6 188.1 190.6 195.5 191.4 184.7 177.9 170.6 168.4 166.7 165.8 164.3 164.4 164.1 162.8 161.4 159.9 159.4 157.1 157.7 157.5 157.4 157 156.6 156.5 155.9 154.7 153.5 152.3 152 151.1 151.7 151.2 150.7 149.8 148.7 147.6 146.2 145.5 145.9 145.6 145.3 144.8 144.4 144.2 143.2 142.2 142.3 142.4 142.1 139.7 139.4 139.8 139.7 139.4 138.8 138.3 137.9 137.5 137.3 137.2 137.1 137 136.7 136.5 136.4 136.2 136.1 136 135.8 135.5 135.2 135.1 134.6 134.3 134.2 134.1 133.9 133.8 133.6 133.5 133.4 133.3 133.1 133 132.8 132.5 131.9 131.7 131.6 131.6 132.5 131.3 131.2 131.1 131 130.8 130.8 130.7 130.7 130.6 130.2 129.7 129.5 129.5 129.5 129.6 129.6 129.7 129.7 129.3 128.6 128.4 128.2 128.1 128.2 128.3 128.3 127.5 126.2 127.4 125.8 130 132.7 133.7 136.5 139.9 142.6 143.2 142.7 143.2 145.3 147.5 149.3 152.7 158 162.8 167.5 173.8 181.1 199.3 220.4 245.7 267.4 287.4 294.9 298.6 300.5 301.9 303.1 303.7 307.8 308.4 309.5 311.8 316.8 321.5 323.2 323.9 320.9 317.5 314.8 312.1 309 305.1 300.6 296.8 293.7 288.9 282.9 279.3 278.6 276.8 274.8 272.8 269.9 266.9 263.7 260.6 257.4 253.6 249 246.4 244.1 241.6 239 235.3 231.3 228.7 225.9 224 221.2 218.5 215.9
200 195.1 190.1 185.3 183 181.6 181.1 182 177.4 173.7 170.9 169.6 168.3 166.4 165.6 163.5 164.2 163.4 162.9 162.5 162 159.5 159.6 158.8 157.6 157.4 157.3 157.5 157 156.2 155.9 155.1 154.2 153.3 153 152.1 151.7 151.7 150.7 151 151.1 150.7 150 147.8 146 146.1 146.1 145.9 145.6 145.2 144.5 144.1 143.4 143.2 142.8 142.2 141.6 140.9 140.1 140.1 140.1 139.7 139 138.3 137.6 137.2 137 136.9 136.8 136.7 136.5 136.4 136.3 136.2 136.1 135.8 135.6 135.3 134.9 134.4 134.4 134.3 134.1 133.9 133.8 133.6 133.5 133.5 133.3 133.1 132.9 132.8 132.6 132 132 132.4 132.9 131 130.9 130.8 130.9 130.9 130.9 130.8 130.8 130.7 130.3 129.8 129.5 129.5 129.3 129.3 129.3 129.4 129.4 129.3 128.8 128.5 128.4 128.1 127.9 128 128.1 127.9 127.3 127.4 127.4 127.3 127.2 129.5 131.5 134.9 138.3 139.8 140.6 140.5 141.4 143.3 144.6 147 150.3 157.2 165.3 169.4 178 191.6 212 235.2 260.6 279 289.7 294.4 295.8 298.8 300.7 302.6 304.5 306.2 307.7 309.8 313.6 317.3 321.7 320.6 318.1 315 312.1 309.3 306.6 304.1 300.2 295.8 291.3 287.2 282.2 276 272.1 271.8 269.7 267.5 265.6 262.7 259.9 256.8 253.5 250.1 246.7 243.3 240.5 237.7 235.1 232.5 229.1 226.2 223.8 221.6 219.9 217.6 215 212.9
200.6 196.6 192.3 187.4 179.8 177 175.1 173.9 171.6 170.4 167.9 166.8 167 165.8 164.8 163 162.8 163.1 161.8 161.8 161.3 160.2 159.6 159.3 158.8 158 157.2 157.1 156.6 156.1 155.7 154.8 154.6 154.2 153.7 152.3 151.3 151.4 150.7 151.2 151.4 150.2 149.7 149 147.9 146.5 146.4 146.2 145.9 145.2 144.7 144.3 144 143.4 142.7 142.1 141.6 141 140.5 140.1 140.1 140.3 139.8 139 138.5 138 137.8 137.6 137.6 137.1 137 136.9 136.8 136.7 136.5 136 135.9 135.5 135 134.6 134.5 134.4 134.2 134 133.8 133.7 133.5 133.5 133.3 133.1 132.9 132.8 132.6 132.3 132.4 132.6 132.5 131.7 130.6 130.8 131 131 131 130.9 130.9 130.4 129.8 129.5 129.7 129.8 129.5 129.3 129.1 129.1 129.1 128.7 128.3 128.2 128.3 128.2 127.9 127.8 127.9 127.4 126.4 127.4 127.5 127.5 127.4 129 131.4 134.3 136.5 137.8 138.5 138.9 140.1 141.5 142.8 145.2 147.4 155.2 162.6 170.3 180.2 198.5 221 245.9 268.3 279.5 286.6 289.5 291 294.4 295 296.1 299.5 302.1 304.4 308.4 312.4 314 314.3 313.6 311 308.4 306.5 303.8 301.2 297.8 293.1 288.7 284.4 279.1 272.6 266.3 262 265.1 263.3 260.6 257.3 254.7 252.4 250 247.1 243.8 240.7 237.7 234.8 231.9 229 226.6 224.1 221.9 219.6 217.7 215.9 214.5 212.5 210.5
195.4 193.8 190.7 186.6 181.3 176.2 173.5 171.8 170.3 169.5 166 165.1 167.3 166.4 165.4 165.2 164.3 163.4 162.7 162.7 162 161.3 160.7 160.1 159.4 158.7 157.9 157.1 156.5 156 155.4 155.1 154.7 154.7 153.7 151.8 150.7 150.4 150.4 150.7 150.8 150.6 149.8 149.5 149.8 148.8 147.2 146.4 145.9 145.3 144.9 145 144.6 143.7 143 142.3 141.6 141 140.4 139.8 140.1 140.4 140.2 139.8 139.4 138.9 138.5 138.9 138.8 138.4 138.3 138.2 138.1 137.9 137.6 137.3 136 135.6 135.2 134.9 134.6 134.4 134.3 134.1 133.9 133.7 133.6 133.4 133.3 133.1 132.9 132.7 132.6 132.4 132.2 132.1 132 131.9 131.7 130.8 131.7 131.1 131 131 130.4 129.8 129.5 129.7 129.9 129.9 129.7 129.5 129.3 129.1 128.8 128.6 128.4 128.3 128.2 128.2 128 127.7 127.5 127.7 127.7 127.8 127.8 127.7 128.2 130.3 131.7 133.7 135.5 136.8 137 138 139.1 140.3 141.8 143.2 145.2 154 160.6 169.9 180.9 203.9 228.9 253.6 269.4 278.1 281.8 283.1 286 287.6 288.1 288.7 292 295 299.6 303.6 306.8 307.9 307.1 305.9 304.5 301.7 299.4 298.3 294.3 290.4 285.7 281 275.9 270.7 263.4 253.8 258.3 257.9 256.8 254.2 250.7 247.7 245.4 242.9 240.4 237.7 235 232.5 230.1 227.2 224.4 222.1 219.9 217.9 215.8 214.4 213.1 211.8 209.9 207.9
187.8 188.2 187.3 184.8 179.7 174.6 172.1 171.2 169.9 168.3 168.3 168.1 167.2 166.4 165.5 165.5 164.8 163.9 164.1 163.6 163.1 162.6 161.7 160.7 160 159.2 158.3 157.4 156.5 155.9 155.4 155.4 154.8 154.3 153.2 152.2 151.2 150.1 150 150.2 150.3 150.3 149.8 149.7 149.6 149.9 149.4 148.7 147.2 146 146 146.1 145 144 143.2 142.5 141.9 141.8 141.2 140.5 140 140.2 140.2 140.3 139.9 139.6 139.2 140 139.6 139.3 138.7 138.6 138.3 137.9 137.6 137.3 136.3 135.8 135.4 135.1 134.7 134.5 134.3 134.1 134 133.8 133.6 133.4 133.3 133.1 132.9 132.8 132.6 132.3 132.1 132 131.9 131.7 131.6 131.6 130.8 130.1 131.1 130.4 129.8 129.6 129.8 129.9 130.1 129.9 129.8 129.6 129.4 129.1 129 128.8 128.6 128.4 128.3 128.2 128.1 126.7 128.3 127.2 128.3 128.2 128.1 127.9 128.3 130.4 131.4 133.2 135 136.1 136.7 137.5 138 139 141.2 143.6 144.4 152.2 159.6 170.3 189.2 212.3 237.8 259.8 270.3 273.5 274.7 276 278.9 279.3 278.9 278.1 283.1 288.1 292.7 297.1 299.1 298.6 298.1 297.5 296.4 294.5 292.4 289.1 285.8 282.2 277.7 272.9 267.8 261.7 250.1 246.3 252.6 252.2 250.8 247.4 244 240.8 238.4 236.1 233.8 232 229.8 227.5 225 222.4 219.9 217.7 216 214.5 212.6 211.5 210.4 209.1 207.3 205.3
180.1 180 180.5 179.1 175.4 173.4 171.3 168.4 170.2 170.3 169.8 169.7 169.2 168.6 168.8 168.5 167.7 166.7 166.2 165.5 164.4 164 162.8 161.3 160.5 159.6 158.7 157.8 156.8 155.9 155.4 155.4 154.4 154.5 153.7 152.7 151.5 150.3 150.1 149.8 149.2 149.6 149.6 149.4 149.2 149.1 149.3 149.3 149 147.9 147.1 146.5 145.5 144.4 143.5 142.6 142.4 142.7 142.1 141.4 140.7 140.3 140.4 140.6 140.4 140 140.1 140.6 140.3 140 139.1 138.7 138.3 137.9 137.5 137 136.5 136.1 135.8 135.4 135.1 135.2 134.7 134.5 134.3 134.1 133.8 133.5 133.3 133.2 133 132.7 132.5 132.3 132 131.8 131.7 131.6 131.6 131.4 131.5 130.3 130.9 129.8 129.6 129.8 130 130.1 130.2 129.9 129.9 129.7 128.8 129.3 129.1 129 128.8 128.6 128.4 128 127.7 127.1 127.5 128.4 128.5 128.3 128.1 128 128.4 129.6 130.7 133.9 134.7 134.8 134.8 134.6 135.4 137.1 138.4 140.8 143.1 151 160 174.9 198.4 224.1 248.2 261 265.5 267 267.7 268.4 271 270.6 269.3 266.7 275.1 280.8 284.8 288.1 289.6 289.3 288.8 288.1 286.8 285.3 283.6 280.3 277 273.6 269.2 264.5 259.9 252.9 243.8 239.9 245.6 245.9 244.2 241.1 238 235 232.3 229.8 227.8 226.2 224.3 222 219.7 217.4 215.9 214.2 212.6 211.1 209.4 208.3 207.5 206.4 204.7 203.1
178.8 178.4 176.1 175.3 175.1 173.7 173.6 174.7 175.5 174.9 176.2 175.5 174.7 174.3 173.6 174.3 173.5 171.8 169.8 168.7 167.3 165.7 164.2 162.7 161.4 160 159.1 158.1 157.2 156.2 155.3 154.6 153.9 153.4 153.7 152.6 151.3 150.3 149.9 149.6 149.1 148.9 149.1 148.9 148.7 148.5 148.8 149.1 148.9 148.5 147.4 146.8 145.8 144.8 143.9 142.7 142.9 143.2 143 142.2 141.4 141.1 140.8 140.9 140.9 140.7 140.8 140.5 140.2 139.8 139.1 138.8 138.4 138 137.5 137.1 136.8 136.4 136.1 135.7 135.6 136 135.5 135 134.7 134.4 134 133.7 133.4 133.2 132.9 132.7 132.4 132.2 131.9 131.7 131.6 131.5 131.4 131.2 131.3 130.6 130.8 130.9 130.1 130 130.2 130.3 130.3 129.9 129.1 128.4 129.6 129.5 129.3 129.1 128.9 128.7 128.1 128.5 127.9 128.2 127.8 127.8 127.3 128.3 128.1 128.1 128.4 129 130.1 132 132.8 132.7 132.7 132.7 133.5 134.5 137.2 139.3 143 150.3 160.7 185.1 210 235 248.8 255.2 257.4 258.8 260 260.6 262.6 261.8 257.8 252.8 264.5 273.6 277.9 278.3 279.9 280.1 279.6 278.6 277.1 275.9 274.1 271.2 268 264.8 260.9 257.5 254.1 247.4 242.7 233.9 238.6 238.6 237.9 235.2 232.2 229.2 226.5 224 222.1 220.5 218.8 216.5 214.5 213.5 212.4 210.7 209.1 207.7 206.2 205.2 204.3 203.5 202.2 202
178.3 178.6 176.6 176.6 176.3 174.7 178.3 181.7 183 181.5 181.1 182.5 181.7 180.7 180.3 180.2 178.7 175.7 173.6 171.2 169.8 168.2 167.2 164.9 163 161.1 159.9 158.9 158 156.9 155.9 154.9 154 153.4 152.8 152 151.5 150.4 150 149.7 149.1 148.5 148.7 148.4 148.2 148 148.3 148.4 148.5 148.1 147.8 145.7 146.6 145.3 145.2 144.1 143.2 143.6 143.8 143.1 142.3 141.7 141.4 141.4 141.1 141 140.6 140.3 140 139.3 139.1 138.7 138.6 138.2 137.7 137.3 136.8 136.6 136.3 136 136 136.5 136.2 135.6 135 134.5 134.1 133.7 133.5 133.1 132.9 132.6 132.4 132.1 131.9 131.6 131.4 131.3 131.1 131 130.8 131.2 130.9 129.6 130.6 130.7 130.6 129.9 129.9 128.7 129.9 129.2 129.5 129.2 129.4 129.2 129.1 128.8 127.5 127 126.9 128.2 128.2 127.8 127.4 127.5 128.5 128.7 128.9 129.5 129.7 130.6 131.1 131.2 131.2 131.7 132.3 133.4 136.1 138.5 142.7 151.4 166.4 191.1 214.8 233.3 242.1 245.9 248.5 250.2 251.3 252.8 254.4 254.2 246.6 241.2 256.6 267 270.8 271.2 270.9 270.4 270.4 269.1 267.9 266.7 264.6 261.9 258.7 255.7 252.8 249.5 246.4 242.9 239 232 229.5 231.2 231 229.3 226.3 223.3 220.8 218.9 216.6 214.7 213.3 211.7 210.7 209.6 208.5 207.2 205.7 204.3 203.2 202.5 201.7 200.8 200.4 200
181.5 180.1 178.8 177.4 177.8 178 183 188 192 193.5 191.7 192.1 188.6 187.1 186.8 185.2 183.2 180.1 176.7 173.2 174.1 173.4 171.8 169 166 164.2 162.3 160.5 159 158 156.9 155.8 154.8 154 152.8 152.1 151.5 150.7 150.1 149.6 149 148.4 148.2 148 147.7 147.4 147.5 147.7 148 147.7 147.4 147.4 146.9 146.3 145.5 145 144 143.5 143.9 144.3 143.1 142 141.9 141.4 141 140.9 140.4 140.1 139.8 139.4 139.1 138.5 138.6 138.4 137.9 137.5 137 136.5 136.2 135.9 135.6 135.5 134.8 135.2 135 134.5 134.1 133.9 133.5 133.2 132.9 132.6 132.4 132.1 131.8 131.6 131.4 131.2 131 130.9 131.2 131.5 130.4 130 130.2 129.8 129.9 130.5 130.2 130.1 130.1 129.8 130.4 129.4 128.4 129.3 129.2 129 127.5 128.9 128.4 128.7 128.3 127.9 127.5 127.1 127.7 128.7 129.3 129.1 129 130.2 130.6 130.5 130.7 131.1 132 133.1 134.9 137.9 143.1 151.8 169 194.5 215 225.8 232.4 236.9 239.6 241.7 242.9 244.6 246.3 247.1 239.9 233 248.3 261 263.4 263.5 263.1 262.4 261.4 259.9 258.7 257.6 255.1 252.4 249.5 246.5 244.1 241.7 238.8 235.9 233 229.5 221.3 223.9 223.8 222.4 220 217.6 215.7 213.9 211.2 210.1 208.8 207.6 206.5 206.5 205.6 203.9 202.7 201.5 200.8 200.1 199.3 199 198.5 198
187.3 186.5 184.9 181.6 180 180.9 188.9 195 202.4 205.8 203.7 201.6 198.4 194.2 191.8 190.1 187.6 184.1 178.7 179.3 179.2 178.4 176.4 173.7 171.1 169.1 167.1 166 164.1 162.4 159.7 158.4 157.8 156.3 153.9 152.6 151.5 150.8 150.1 149.5 149 148.4 147.8 147.6 147.3 147 147.3 147.6 147.2 147.3 147.1 147 146.9 146.3 146 145.6 145.2 144.9 144.9 144.4 144 143.7 142.3 141.9 141.9 140.8 140.3 139.9 139.5 139.4 139.1 138.5 138.1 138.5 138.2 137.7 137.3 136.7 136.3 136.1 135.9 135.4 135.1 134.7 134.6 134.4 134.1 134.2 133.7 133.4 133 132.6 132.4 132.1 131.9 131.7 131.6 131.2 131 130.8 131.6 131.1 130.6 130.4 130.4 130.4 130.6 130.4 130.2 130 129.9 129.9 129.9 129.5 129.6 128.8 128.5 128.5 128.6 128.7 128.7 128.7 128.3 128 127.6 127.2 127.2 127.2 127.9 128.1 128.5 129.7 130.2 130.2 130.5 131.2 132.1 133.1 134.7 138.1 143.2 150.5 162.1 189.2 204.2 216.9 222.3 225.6 228.2 230.9 234.2 240.9 243 242.7 236 224.5 241.2 254.5 256.2 256.4 255 253.9 252.9 252 249.6 248.3 245.6 243.1 241.1 238.9 236.6 234 231.4 229.1 226.7 224.3 218.2 217.9 217.8 217.2 214.2 212.2 210.6 209.7 209.1 206.8 205 203.4 203.5 203.7 203.3 201.5 200 199.1 198.4 197.8 197.4 197.2 196.6 196.2
194.3 194.2 192 183.4 181.4 188.9 199.2 207.5 214.6 218.4 216.5 212.8 208.2 202.5 197.9 194.9 191.7 187.6 181 183.5 183.8 183.1 181 178 175.8 176.1 175.9 175.1 173.8 171.3 168.7 164.5 161.1 158.8 156.1 154.1 152.4 151.4 150.4 149.8 149.2 148.7 148.1 147.1 146.8 146.7 146.7 146.4 146.5 146.7 146.8 146.7 146.6 146.5 146.2 145.9 145.1 145 144.5 144 143.6 143.2 142.5 142.2 142 141.3 140.2 139.8 139.6 139.5 139.1 138.5 137.9 138.1 138.3 137.9 137.4 137.1 136.9 136.2 135.7 135.3 135.1 134.8 134.5 134.4 134.2 134.4 133.8 133.6 133.2 132.8 132.4 132.1 131.9 131.9 131.8 131.4 131 131 131.3 131.4 130.8 130.7 130.5 130.4 130.2 130.4 130.1 130 129.8 129.8 129.7 129.4 129.4 128.6 128.6 128.7 128.7 128.8 128.8 128.8 128.4 128 127.7 127.3 127.2 127.3 127.3 127.3 127.9 129.3 130 129.9 130.6 131.5 132.4 133.3 134.7 136.9 140 147.2 154.8 170.5 191 200.2 206.2 210 213.1 222.7 232.7 238.6 240 239.3 234.2 218.8 232.9 247.6 250.3 249.6 247.8 246.4 245.1 243.1 240.6 237.4 237 234.9 233.6 231.4 229 226.3 224.6 223 220.7 218.6 215.8 212.7 212.7 212.3 209.4 207.6 206 204.7 204 203.6 201.7 200.9 200.7 200.9 200.9 199.2 198.2 197.3 196.7 196 196 196.1 195.5 195.2
201.9 199.5 195 185 184.3 199.7 212.7 219.8 225.9 229.5 229.9 226.5 221.2 211.9 204.1 200.1 196.1 191.4 185.2 186.3 188.6 189.5 189.8 188.8 188.9 189 189.2 189.8 187.4 184.6 181.1 175 165.6 162 158.6 156.6 154.8 153 151.6 150.7 149.9 149.3 147.5 146.5 146.4 146.4 146.3 145.9 145.5 145.6 145.9 146.1 146.3 146.2 146.2 145.4 145.1 144.6 144.1 143.7 143.2 142.8 142.4 142.2 142 141.8 140.7 139.7 139.7 139.6 139.1 138.5 137.9 137.6 137.7 137.8 137.4 137 136.6 136 135.4 134.9 134.8 134.8 134.7 134.5 134.2 133.9 133 132.4 133 132.7 132.5 132.1 132.1 132 131.9 131.5 131.1 130.9 130.8 130.7 131.2 130.6 130.5 130.3 130.1 130.4 130 129.9 129.7 129.7 129.5 129.3 129.1 128.7 128.8 128.8 128.8 128.9 128.9 128.8 128.4 128.1 127.8 127.4 127.3 127.3 127.3 127.2 127.3 128.9 129.8 129.3 130.7 131.6 132.4 133.4 134.4 135.8 138.5 143 149.5 157.2 169.4 181.1 187.7 196.6 211.5 222.9 229.8 234.7 236.9 236.2 233.1 215.5 223.5 238.8 243.6 243.4 240.7 239 237.5 235.2 233.5 232.1 230.6 227 226.1 223.8 221.3 219.7 218.3 216.7 215 212.9 210.5 209.2 208.2 207.4 205.6 204 202.6 201.8 201 200.2 199.4 198.9 198.4 198.2 198.4 197.1 196.6 196.1 194.9 194.3 194.3 194.9 194.6 192.2
207.8 206.3 196.8 185.9 191.9 208.9 221.6 229.7 236.3 239.3 237.7 234.3 229.2 217.9 210.7 206.7 202.2 196.5 189.1 192 195 199.4 202.1 203 202.9 203 202.8 204.1 202.2 199.5 196.7 191.7 186.1 179.4 169.4 166.7 163 160.6 156.3 152.4 151 149.8 147.3 146 146 146 145.8 145.4 145 144.6 145 145.4 145.8 145.7 145.7 145.1 144.7 144.2 143.8 143.3 142.9 142.4 142 141.7 141.5 141.4 140.1 139.9 139.8 139.7 139.1 138.6 137.8 137.4 137.3 137.2 137.3 136.9 136.3 135.8 135.2 134.7 134.6 134.5 134.4 134.3 133.8 133.1 132.8 132.5 132.3 131.9 131.5 131.4 131.9 131.7 131.4 131.1 131 130.9 130.8 130.8 130.7 130.6 130.4 130.3 130.1 130.4 129.9 129.8 129.6 129.5 129.3 129.1 128.8 128.9 128.9 128.9 128.9 129 129 128.9 128.5 128.2 127.9 127.6 127.4 127.4 127.4 127.3 127.2 128.4 129 128.3 130.4 131.6 132.5 133.5 134.5 135.6 137.6 140.1 144.9 151.3 158.4 164.5 175.2 195.2 209.3 217.5 224.8 230.2 231.9 232.1 230.1 215.3 216.1 232 236.8 237.2 235.1 232.3 229.8 227.4 225.2 223.4 221.6 219.5 217.8 216.3 214.8 213.4 212 210.6 210.1 209 207.2 206 205.6 204.6 203 201.6 200.5 199.6 198.8 198 197.6 196.7 196.3 195.8 195.7 195.6 195.1 194.6 193.8 192.6 192.4 193.3 193.5 191.5
215.3 209.1 194.9 186.2 198.6 216.2 230.2 238 244.9 246.2 242.2 235.9 231.2 222.9 217.3 212.7 207.6 198.8 195.2 199.9 205.6 210.9 214.6 215.9 216.4 216.9 218.1 219.6 218.2 215.7 212.5 205.6 198.8 193 187 181.8 178.9 176.7 173.3 165.5 151.1 149.9 149.9 146.1 145.8 145.7 145.3 145 144.6 144.4 144.5 144.9 145.4 144.8 145.6 144.8 144.3 143.9 143.4 142.9 142.5 142 141.7 141.4 141 140.8 140.2 140.1 139.9 139.8 139.2 138.3 137.3 137.2 137.2 137.1 137 136.7 136.2 135.6 135 134.5 134.3 134.3 134.1 134 133.4 132.8 132.7 132.5 132.6 132.4 132.3 132 131.8 131.5 131.3 131 131 130.9 130.8 130.8 130.8 130.5 130.4 130.2 130 129.9 129.8 129.7 129.5 129.5 129.3 129 129 128.9 128.9 128.9 128.9 128.9 128.9 128.9 128.6 128.3 128 127.7 127.5 127.5 127.4 127.4 127.2 127.5 127.8 127.5 129.8 131.8 132.8 133.8 134.4 135 136.3 138.1 143.4 147.5 153.8 159.7 173.1 194.8 203.8 211.9 219.4 223.4 226.5 226.8 225.6 215 211 226.4 230.1 230 228.7 225.7 223.1 220.7 218 215.6 213.8 212.6 211.2 210.1 208.8 207.4 206.4 205.1 204.5 204.3 203.5 202.7 202.7 202 201.1 199.6 198.5 197.6 196.7 195.9 196.2 195.2 194.3 193.5 194 194.4 193.5 193.3 192.4 191 193.1 191.6 191.5 190.2
219.1 205.6 193.4 189 205.3 221.9 236 246 253.4 254.8 248.6 239.6 231.6 225.2 220.6 215.5 208.6 198.9 202.7 208.8 215.4 221.8 226.5 226.4 227.3 230.7 231.2 230.5 227.8 222.8 216.3 209.5 202.5 197.6 192.1 186.4 183.2 179 175 166.8 152.7 150.6 147.9 145.4 144.8 144.9 144.9 144.6 144.3 144.2 143.9 143.6 143.9 144.7 145.1 144.6 144.4 143.5 143 142.6 142.1 141.7 141.4 141 140.7 140.1 139.9 139.7 139.5 139.2 138.6 137.7 137.2 137.1 137 136.9 136.7 136.2 135.7 135.3 134.9 134.3 134.1 133.9 133.8 133.6 132.9 132.6 132.5 132.5 132.7 132.8 132.4 132 131.8 131.5 131.3 131.1 131 130.9 130.8 130.8 131 130.5 130.3 130.1 130 129.8 129.7 129.6 129.5 129.4 129.3 129.1 129.2 128.9 128.8 128.8 128.8 128.8 128.9 129 128.7 128.4 128.1 127.8 127.6 127.5 127.5 127.3 127.3 127.4 127.8 127.7 129 131 132.6 133.2 133.9 134.3 135.1 139.6 142.7 145.9 150.8 156.3 168.9 187.8 198.1 206.9 214.2 217.8 219.8 220.8 219.8 211.8 206.2 221.9 223.8 223.3 222 219.4 216.8 214.3 211.5 209.2 208.1 206.6 205.7 205 203.4 202.6 201.7 200.4 199.8 200.3 200.3 200.1 200 198.8 198.5 197.7 196.6 195.7 195.1 194.4 194 192.9 192.3 193.5 194.3 194.6 194.4 193.4 193.1 188.7 192.3 191.8 190.5 188.6
222.1 207.3 194.1 193.8 211.3 227.3 241.1 254 261.4 259.9 252.9 242.9 234.9 227.3 222.4 215.9 207.2 206.7 213.5 219.7 225.3 229.9 232.7 235.6 238.4 240.2 237.7 235.9 230.5 223.5 214.3 208.3 201.3 194.8 190.3 185.9 181.7 177.6 171.4 158.4 151.4 150 148 145.7 144.4 144.3 144.3 144.2 144.1 144.1 143.6 143.5 143.7 144.5 144.2 143.6 143.2 142.9 142.6 142.3 141.8 141.4 140.9 140.2 139.6 139.2 139.1 138.9 138.7 138.3 137.6 137.1 137 136.9 136.8 136.6 136.5 135.7 135.2 134.8 134.4 134.1 133.8 133.6 133.4 133.1 132.8 133 133.1 133.2 133.3 132.8 132.3 132 131.8 131.5 131.3 131.1 131 130.9 130.8 131 131.2 130.7 130.2 130.1 129.9 129.7 129.6 129.5 129.5 129.4 129.3 129.3 129.4 129.2 128.8 128.7 128.7 128.8 128.8 128.9 128.7 128.4 128.2 127.9 127.7 127.6 127.4 127.3 127.4 127.6 127.6 128 129.1 130.6 131.8 132.7 133.7 135.1 136.2 139.6 141.8 144.5 148.7 154.5 163.5 179.2 193.1 202.5 208.5 212.2 212.9 213.8 213.6 207.9 199 214.7 217.4 216.8 215.6 213.2 210.5 207.8 205.6 204.1 202.8 202.3 203 202 199.9 198.7 197.7 197 196.7 197.6 198.3 198 197.5 196.1 195.7 195.4 195.3 194.9 194.1 193.6 192.9 193 192.4 194 193.7 193.9 194.1 194.4 193.6 189 188.4 190.4 189.2 184.1
222.4 209.9 193.8 200.7 217.7 232.3 246.8 259.7 264.5 261.1 255.1 245.2 236.7 228.3 220.9 215.5 213.4 216.8 223.7 230.3 234.2 238.3 242.2 247.7 248.3 246 238.2 232.1 228.7 218.7 209.6 201.3 193.8 185.9 181.7 176.3 169.8 164.4 158.4 152.8 148.9 147.3 146.6 145.1 143.8 143.8 143.8 144 144.4 144.5 144 143.6 143.5 144.1 143.3 142.7 142.2 141.8 141.5 141.2 140.8 140.4 139.7 139 138.5 138.3 138.2 138.1 137.8 137.3 136.6 137 136.8 136.6 136.5 136.4 136.3 135.1 134.7 134.5 134.5 134.1 133.6 133.4 133.2 133.3 133.3 133.4 133.5 133.5 133.3 132.9 132.5 132.6 132.1 131.7 131.3 131.1 131 130.9 131 131.3 131.4 130.8 130.3 130.2 130.1 130.1 129.5 129.4 129.4 129.3 129.5 129.4 129.5 129.6 129.2 128.8 128.7 128.7 128.8 128.9 128.8 128.5 128.2 128.1 127.8 127.5 127.4 127.4 127.5 127.7 127.7 128.1 129.8 132.2 132.9 133.6 135.5 135.6 138.1 139.7 141.1 144.2 147.8 152.9 160.4 171.6 187.8 196.3 202.1 205.2 206 206.8 206.9 206.1 196.2 202.2 211 210 209 207.4 204.8 202.1 200.2 199.7 198.8 200.5 200.9 199.3 197.6 196.4 195.1 194.2 194.5 195.4 195.8 195.4 194.9 195.1 195 194.2 194.6 194.2 193.6 193.1 192.3 192.2 193.7 194 194.1 194.3 194.7 195.4 193.6 186.8 183.6 188.9 183.2 188.4
220.8 205.2 194.2 209.5 223.8 237.3 250.7 261.4 264.4 260.9 254.2 245.3 235.6 229.2 226.4 224.2 223.9 227.5 231.9 238.1 243.3 247.4 251.9 250.8 246.1 237.8 232.2 227.8 224.2 210.1 199.4 190.4 175.6 166.8 161.9 157.5 154.2 151.8 148.8 146.5 146.3 144.4 143.7 143 142.8 142.8 142.8 142.8 143.8 144.3 144.1 143.8 143.6 143.1 142.4 141.8 141.2 140.7 140.3 139.8 139.4 138.9 138.4 138.1 137.8 137.5 137.3 137.2 137 136.4 136 135.6 136 136.3 136.2 136.1 135.9 134.8 134.9 134.9 134.7 134 133.4 133.5 133.5 133.7 133.7 133.8 133.7 133.5 133.2 133 132.6 133.1 132.5 132.2 132.1 131.5 131 131 131.3 131.5 131.5 131 131.1 130.8 131 130.8 129.9 129.3 129.7 130.1 130.5 130.4 130.3 129 129.6 129.6 128.7 128.7 128.8 128.8 128.8 128.5 129 129 128.3 127.9 127.9 127.7 127.7 127.8 128.1 129.2 131.9 133.6 134.4 135.5 137.1 138 138.5 139.3 140.5 143.8 147.2 152.2 159.2 167.9 182.2 190.7 195.7 198 198.8 199.6 201.1 202.4 195.7 193.4 204.8 204.3 203.1 201.7 200.3 197.4 195.3 195.2 195.6 200.3 198.9 195.1 193.7 193.2 192.7 192.7 193.4 192.6 191.4 191.6 193.5 192.8 192.8 192.8 193.8 192.9 192.2 192.1 192 191.9 192.7 193.7 194.9 194.9 194.7 195.5 190.4 182.2 180.1 179.8 184.7 192.5
212.3 198.4 205.5 218.2 229.8 239.4 250.8 260.9 264.5 261.2 254.4 245.9 242.2 238.7 236.1 233.6 233.4 237.7 242.3 248.3 254 255.8 249.6 243.1 234.5 228.4 223.6 219.9 208 196.1 182.2 167.7 160.1 154.1 150.2 148.5 146.9 145.7 144.5 143.8 144.1 143.2 142.8 142.5 142.3 142.1 142.1 142.2 142.3 143.5 143.8 143.2 142.5 142.1 141.4 140.9 140.3 140.1 139.9 139.5 139.1 138.7 138.3 138.1 137.9 137.7 137.4 136.9 136.4 136.1 135.8 135.5 135.3 135.3 135.3 135.5 135.1 134.9 134.9 134.9 134.8 134.1 133.7 133.7 133.9 134.1 134.2 134 133.7 133.5 133.2 133 133.3 133.3 132.5 132.6 132.3 131.9 131.6 131.6 131.6 131.8 131.7 131.8 131.8 131.4 131.6 131.6 131 130.3 130.8 131.7 131.5 131.8 132.1 131.5 130.7 130.1 129.3 128.6 129.6 129.4 129.1 129.7 130.6 130.9 130.3 130.8 130 129.7 130.9 131.2 131.8 133 135.4 135.8 136.5 137.9 138.4 139.2 139.1 139.2 140 143.9 148 153.1 156.7 167.4 178.2 186.2 190.6 191.7 191.8 192.3 194.9 196.8 194.5 187.9 197.8 198.7 197.2 195.8 194.3 192.7 190.7 190.4 195.1 196.3 194.7 192.4 191.5 190.9 191 191.4 192.5 190.8 189.2 189.3 192.8 192.4 193.5 192.6 192.6 191.7 192.3 192.8 192.2 192.2 191.5 194.2 195.5 195.8 195.2 193 188.3 179.2 175.2 177.1 186.6 188.9
200.1 205.3 216.4 226.6 235.2 243.2 253.2 261.1 264.3 263.6 259 255.5 252 248.1 245 242.4 243.2 246.9 251.4 253.6 253.5 247.8 239 229.4 221 215.7 210.2 199.2 188.7 178.2 161.1 155.3 151.2 147.2 145.8 145.6 145.2 144.6 144 143.5 143.4 143 142.9 142.7 142.2 141.9 141.7 141.6 141.4 141.2 142.1 141.5 141.3 141.1 140.5 140.2 140 139.8 139.6 139.4 139 138.6 138.2 138 137.8 137.6 137.4 137.2 136.6 136.2 135.9 135.8 135.7 135.6 135.6 135.6 135.3 135.1 134.9 134.9 134.8 134.2 134 134.1 134.3 134.5 135 134.6 134.1 133.7 133.5 133.6 133.4 133.2 132.8 132.8 132.8 132.9 133 132.9 132.8 132.9 133.3 133 132.9 133 133 133.3 132.7 133.2 133.1 135 134.7 134.9 134.9 133.5 131.6 130.9 130 129.4 129.6 130.3 130.2 129.2 130.5 132.2 132.7 133.8 134.1 134 135.9 136.9 136.2 137.8 137.6 138.6 138.8 139.6 139.8 140.3 140.5 140 140.5 144 148.6 152.7 154.8 165.6 174.6 181.4 185.3 187.2 185.8 187.7 190.2 191.5 189.3 184.4 190 193.3 191.8 190.4 189.3 188.1 186.5 186.7 191 190.4 189.2 188 188.6 189.8 190.3 191.5 192 186.8 186.6 188 192.4 195.6 195.3 195.4 192.5 193.4 194.3 193.3 191.4 191.7 188.2 188.2 190.6 191.1 190.2 189.2 183.8 176.6 171.9 178.6 182 183.5
207.5 218.4 227.7 236 242 249.8 258.5 266 267.2 267.8 265.9 263.9 259.4 256.7 254.3 253 253.9 254.5 252.7 250.2 243.7 233.2 224.7 216 206.9 199.3 189.1 179 168.8 157.1 150.1 148.9 147.2 145.9 145.5 145.1 144.7 144.3 143.9 143.4 143.5 143 142.8 142.6 142.7 141.7 141.4 141.7 141.4 141.5 141.3 141 140.7 140.5 140.3 140 139.7 139.5 139.3 139.1 138.8 138.4 138.1 137.9 137.7 137.6 137.5 137.2 136.8 136.4 136.2 136.1 136 136 136 136.1 135.8 135.4 135 134.9 134.8 134.3 134.3 134.6 134.8 136 136.5 136.1 135.7 135 133.5 133.5 133.5 134.7 135.3 134.9 135.4 135.5 135.5 137 137.1 137.6 138.7 140.4 141 144.4 142.8 144.5 142.9 141.6 140 137.7 136.7 136.5 135.8 133.3 131.9 131.6 131.5 132 132.1 132.8 133.5 133.2 134.4 135.1 135.6 136.1 136.8 137.5 139.1 140.8 140.6 140.8 141.5 142.5 142.1 141.7 142.3 142 142.5 142.2 142.3 144.7 149.4 153.3 155.8 162.4 170.7 177.8 180.9 182.3 180.7 184 186.5 186.8 185.9 180.6 186.7 187.5 186.7 185.8 185.1 184.2 182.8 185.2 186.2 186.8 187.1 188.8 191.1 192.4 191.5 191.8 188 184.6 183.4 183.3 190.5 192 191.9 193.3 193 194.1 195.2 191.9 189.8 189.7 184.9 183 185.3 184.2 185.5 185.6 179.2 172.5 169.9 178.2 180.3 181.2
224.2 234.4 241.7 247.1 252.5 259.7 267.3 272 273.8 276.2 273 270.8 266.6 264.6 263.4 262.5 262.4 257.5 254.1 243 231.5 219.9 210.1 201.6 191.4 179.9 168.7 159 153.3 149 147.7 147.1 146.6 145 145.1 144.5 144.1 143.7 143.6 143.7 143.2 143 142.8 142.5 143 141.4 141.4 141.7 141.5 140.9 140.8 140.7 140.5 140.5 140.4 140.1 139.7 139.4 139.1 138.8 138.6 138.3 138 137.8 137.7 137.7 137.6 137.2 136.8 136.6 136.6 136.5 136.4 136.3 135.7 136.5 136.2 135.8 135.5 135.2 135 134.9 134.9 135.7 136.5 137.8 138.5 138 137.6 136.3 137.3 137.1 137.2 138 138.5 140.4 141.3 142.1 143.4 144.8 146.7 151.6 155.3 160 162.8 163.5 163 161.9 160 155.4 151 145.5 137.8 137.3 136.5 134.1 132.6 132.6 134.1 134.6 134.7 135.6 138.5 143 147.1 148.7 149.6 149.7 150 151.1 152.4 153.6 154.8 154.9 153.3 150.4 148 147.2 146 145.7 146.1 144.7 143.2 145.4 151.4 155.2 155.9 162.2 169.9 174.8 176.6 176.8 176.8 180.2 182.8 183.1 182.5 177.7 179.1 182.2 181.6 181.9 181.1 178.9 178.6 184.2 187.4 186.9 185 189.5 190 189 190 187.6 183.3 182.6 183.4 185.7 192 188 186 189.9 189.8 189.3 188.2 187.5 188.3 186 182.3 177.4 177.5 179.2 181.3 181.1 176.9 166.3 169 177.7 177.9 177.4
244.1 250.3 253.6 256.1 263.4 269.9 275.2 278.6 283.4 283.9 280.8 277.6 275.1 272.4 271.2 272.1 265.1 258.6 247.9 234.6 221.9 207.8 195.8 185.9 172 162.4 155.6 151.2 149.3 148.2 147.4 146.5 145.9 144.5 144.5 144 143.9 143.7 143.5 143.9 143.1 142.8 142.5 142.4 142.5 141.8 141.3 141.7 140.7 141.5 141.5 140.5 140.5 140.4 140.3 140.1 139.8 139.5 139.2 138.8 138.5 138.2 138 137.9 137.8 137.7 137.6 137.2 136.9 136.7 136.6 136.5 136.7 136.4 136.1 137 136.7 136.3 136.3 136.9 136.6 137.4 137.6 138.2 139.1 139.9 141.5 141 141.1 141.2 141.1 142.2 143.1 144.3 145.1 147.4 151.2 153.6 153.8 161.4 169.6 175.7 179.1 182.9 184.5 184.5 182.6 172.9 161.3 156.6 154.1 148.6 138.9 137.6 136.7 135.1 134.1 135.2 137.4 138.2 144.8 150.5 155.2 162.4 167.2 172.2 174.9 177 179.4 181.6 183.4 184.4 184.2 183.7 177.8 169.8 158.8 157.2 150.5 150 148.4 146.4 144.5 145.3 153 155.8 155 161.7 169.2 172.3 173.8 172.4 173.1 176.3 179 179.7 179.4 176.3 173.9 174.9 176.7 177.8 176.7 176.2 181.8 186.1 186.7 190.2 183 189.8 189.1 188.2 185.2 183.7 183.4 186.1 184.7 190.8 192.2 189.7 183.4 182.7 187.7 186.7 185.5 185.2 185.1 184.3 181.1 175.4 174.8 179.2 179.5 178.7 172.9 161.7 167.7 176.2 175.2 173.3
255.1 258.3 265.9 275 275.4 278.3 283.1 289 291.7 290.9 290.1 288.8 286.1 285.9 282.6 271.2 261.2 252 238.2 225.8 209.7 194.8 178.7 166.4 159.4 154.6 150.7 148.8 148 147.4 146.7 146 145.4 144.6 144.3 144.1 143.8 143.7 143.6 143.9 142.9 142.6 142.3 142.3 142.6 145.1 141.4 141.3 140.7 140.6 140.8 140.7 140.5 140.4 140.3 140.2 139.9 139.6 139.2 138.9 138.6 138.4 138.1 138 137.9 137.8 137.6 137.3 137.1 136.9 136.7 136.6 136.5 136.2 136.6 137.5 137.1 137.4 138.3 138.5 139.4 140 140.6 141.9 142.6 143.5 144 144.2 146.7 148 148.8 150.2 151.3 152.6 156.8 162.2 169.4 175.1 179.9 186.9 193.3 199 202.5 205.2 203.3 195.5 186 173.3 156.3 149.4 146.8 144.3 140.8 139.3 137.9 137 139.7 142.9 148 156.5 168.7 177.6 186.1 193.2 198.7 204.2 209.4 213.2 216.6 219.7 220.4 214.4 206 197.5 187.7 178.4 168.8 160.5 155.2 152 149.4 147.1 145.9 144.9 148.2 153.5 152.2 161.1 169 170.7 170.3 168.4 169.4 172.4 174.8 176.2 175.9 173.9 171.8 171.1 171.7 172.6 173.6 175.8 178.7 180.8 187.8 189.6 187.9 186.4 183.7 184.7 184.5 184.8 185.4 185.2 187.5 189 188.7 186.7 182.3 175.2 179.8 179.9 180 180.9 180.4 177.8 176.8 175.2 172.9 175.8 175.8 174 166.3 158.4 167.4 173.1 173.6 173.1
265.4 274.4 278.8 281.2 285.8 289.8 292.4 294 296.5 298.8 300 299.7 298.5 289.1 276.1 264.8 254 241.6 224.9 210.4 195.6 178.5 165.8 160.5 155.3 151.8 149.5 147.9 147.1 146.5 145.9 144.9 144.9 144.7 144.4 144.4 144.1 143.7 143.9 143.6 143.7 142.7 142.4 142.7 142.5 141.9 141.4 141.2 140.9 140.8 140.7 140.6 140.4 140.4 140.3 140.2 140 139.6 139.3 139 138.8 138.7 138.4 138.1 137.9 137.8 137.7 137.4 137.2 137.1 137.2 137.4 137.5 137.6 137.7 137.9 138.5 139.4 140.6 142.5 144.4 145.1 145.9 150 151.8 151.1 151.4 152.6 154.8 156.3 160.8 165.5 170.4 175.6 181.8 188.2 194.2 198.8 203.6 210.9 217.1 221.8 224.4 224.1 220.5 207.5 185.2 169.2 156 148.8 145 143.1 142.4 141 143.5 147 151.5 161.3 172.2 185.9 198.8 207.7 217 226.4 228.8 234.9 243.6 242.9 235.5 228.9 221.3 213.2 204.7 195.1 185.5 176.2 168.8 160.4 155 149.9 150.5 152.1 150.2 147 144.5 144.5 148.6 161.2 167.4 167.8 165.9 164.6 165.9 168.8 171.1 171.9 171.2 170 168.7 168.8 168.7 169.8 171.1 170 171.9 173.5 180.6 182.3 184.5 182.9 179.2 183.1 182.6 185.6 187.4 186.4 185.3 185.9 182.5 178.8 175.3 168.1 175.3 175.7 175.5 176.4 173.3 172.4 173.7 172.6 170.3 171.4 170.2 169.2 160.8 154.9 165.3 172.3 172.7 173.2
274.6 280.4 282.6 286.6 291 294.5 296.1 299.1 303.6 307.2 307.2 303 293.8 281.4 267 256.4 244.9 228.3 211.9 195.3 180 168 161.5 156.2 152.5 149.9 148.5 147.1 146.6 146.4 145.4 144.9 144.5 145.1 145.7 145.6 148.5 150.1 149.7 147.9 147 144.5 144.1 143.9 143 142.1 145.1 141.2 141 141.1 140.7 140.6 140.5 140.3 140.2 140.2 140 139.7 139.4 139.2 139.1 139 138.7 138.3 138.1 137.9 138.2 138.3 138.3 138.2 138.3 138.5 138.7 138.9 139.5 140.4 141.8 144.2 147.5 152.2 152 151.6 153.9 157.1 159.7 159.1 159.8 168.2 174.9 180.6 186 189.9 193.9 200.2 205.6 211 216.3 220.4 226.3 234.6 242.2 243.9 242.3 237.9 228.4 211.2 184.2 167.8 158.2 152.4 147.7 146.4 149.3 154.6 160.4 166.4 175.3 190.5 204 216.9 227.4 238.1 249 247.2 244.7 247.7 245.1 240.5 234.2 226.2 218.1 209.7 200.5 190.6 181.6 172.7 163.3 157.9 154.1 150.7 150.9 155.7 153.6 150.5 145.4 142.9 146.4 158.1 163.4 164.1 161.4 161.4 163.2 165.6 166.4 167.9 166.9 166.1 166 166.9 167.3 166.9 166.2 166.5 167.8 172.5 177.2 181.7 178.9 176.7 177.7 180.7 181.7 185.4 184.3 183.2 181.9 178.3 173 168.7 165.3 164.5 166.8 169.9 171.6 171.8 170.5 171.5 171.3 168.5 169.6 166.5 164.8 165.5 160.1 152.1 163.1 171.3 173.7 172.8
276.6 278.6 283.3 286.6 291.4 295.1 299.9 306.3 312 314.5 306.2 295.2 283.6 270.6 259.2 248.2 231.7 215.2 198.8 180.8 167.9 162.9 157.2 152.5 150.2 148 147.3 146.7 146.6 146.3 145.7 145.4 145.1 145.6 147.8 151.2 151.9 151.7 151.5 151 150 147.1 145.3 144.4 143.5 142.7 142.5 141.9 141.4 140.8 140.8 140.7 140.6 140.3 140.2 140.1 140 139.8 139.5 139.5 139.4 139.3 138.9 138.6 138.3 138.7 139.2 139.2 139.3 139.3 139.5 140.5 141.4 143.4 144.7 145.8 146.6 150.1 159.6 162.9 156.4 155.7 158.5 163.3 171.7 179.6 186.7 193.8 199.8 204.7 209.3 213.7 218.1 222.7 227.9 232.6 239 246.3 255.3 261.1 265.1 266.5 263 254.1 235.9 212.4 184.7 169.4 162.9 160.8 158.6 163 169.5 177.7 184.5 197.7 211.9 223.1 234.8 247.7 257 257.1 253.8 251 250.9 247 240.9 235.2 228.7 221.4 214.1 205.5 195.5 184.9 175.6 166.6 160 157.2 157.8 153.8 153.9 156.3 155 151.5 148.1 145.1 147.4 151.3 156.7 158.2 157.7 158 160.6 161.7 162.3 163.3 163.2 163.1 164.1 165.2 165.5 165.3 163.8 163.4 164.6 167.8 171.1 173.8 172.7 173.6 172.5 171.8 174.2 176.6 178.1 176.7 173.6 172.7 163.8 161.6 161.6 163.7 166.4 167.1 166.6 162.9 166.6 166.2 166 166.8 166.2 164.4 162 164.4 161.7 154.3 151.1 166.6 169.8 171
275.1 275.8 279.4 284.5 290.3 299 306.8 314.9 314.9 306.5 295.3 282 269.2 258.6 249.8 233.7 216.7 200.9 184.6 166.6 161.7 156.7 152.4 150.8 148.8 147.8 147.2 146.7 146.6 146.3 145.7 145.9 146.3 152.1 152.3 152.8 152.8 152.6 152.3 151.9 151.1 150.6 149.4 145.4 144 143 142.5 146.8 140.9 141 140.9 140.8 140.7 140.4 140.2 140 140 139.9 139.9 139.8 139.8 139.6 139.2 138.8 138.9 139.2 139.7 139.8 140.2 141.4 143.3 144.6 147.5 150 155.2 161.4 166.5 172.3 172.1 165.4 162 165.7 172.3 184.7 196.9 202 207.1 214.1 220.7 226 231.6 236.3 242 248.5 255.9 260.9 265.4 273.7 284 288.1 285.2 281.9 275.4 267.4 245.2 217.2 190.3 178.4 176.9 176.1 177.3 185.4 192.6 203.3 218.1 234 244.6 256 264.2 266.6 264.3 259.3 256.1 254.6 249.9 244 237.4 229.4 222.6 214.7 207.2 198.7 189.1 179.1 169.5 163.1 159.4 158.4 160.3 156.9 154.3 154.9 153.3 146.3 145.3 146.5 150.4 152.7 152.1 154.6 156.3 158.4 158.6 159.5 159.6 160.4 160.9 162.2 163.4 162.8 161.9 162.5 163.9 165.8 166.6 169.9 170.8 171.6 170.7 172.4 171.4 171.8 172.3 170.3 167.8 168.3 168.3 165.9 163.6 160.8 163.5 161.7 164.6 164.9 161.4 159.9 163.2 163.5 163.6 163.9 163.1 161.8 160.3 160.9 161.5 153.1 150.8 164.2 164.3 163.6
267.8 268.4 274 284 294.3 305.1 310.9 309 300.3 288.6 275 261.9 252.8 244.7 231.9 217.2 200.2 184.5 166.3 159.9 154.9 151.6 151.1 149.8 148.1 147.9 147 146.7 146.7 146.4 147.3 151.7 154.3 153.1 152.7 153.4 153.4 153.1 152.8 152.5 151.7 150.5 150.4 147.2 144.4 142.8 142.2 142.5 141.1 141 140.9 140.8 140.7 140.5 140.3 140 139.9 139.7 139.6 139.6 139.6 139 138.8 139.4 140 140.4 140.5 142.2 143.5 145.5 147.5 153.2 159.4 165.4 173.4 181.8 190.5 191.4 184.7 179.2 182.5 189.9 195.9 203.9 211.3 218.4 225 232.6 241.1 248.8 256.2 262.2 268.4 275.3 283.8 291.6 296.5 298.6 299 297 294.4 289.9 283.1 276.9 261.4 230.4 210.7 199.9 200.5 202 206.8 210.3 222.5 236.8 250.1 264.3 275.7 274.1 271.9 269.5 265.9 263 259.7 255.1 248.2 240.8 231.5 223.2 215.4 206.7 197.4 188.1 180.5 172.7 166.9 166.4 163.3 162.6 161.3 156.7 156.2 154.1 149.2 145.7 148.8 149.1 153.4 155.5 154 153.4 154.1 156.6 157.5 157.9 158.6 159.4 158.6 162.2 163.5 161.5 163 161.3 163.8 166.8 168.5 170.2 170.7 171.2 166.7 162.3 163.7 163.6 163 162.4 162.2 164.4 162 159.5 156.4 157 159.6 155.5 157.6 160.6 159 158.3 159.6 159.8 159.8 158.9 157.8 159.3 156.6 157.7 157.2 149.8 149.8 160.1 160 158.9
258.1 259.1 267.8 283.8 296.6 303.7 300.9 291.2 281 267.5 252.6 241.8 231.3 220.9 210.1 193.9 176.6 164.5 156.8 152.7 149.8 149.7 149.9 148.3 148 147.8 146.9 146.7 146.8 148 155.7 155.5 155.2 154.4 154 153.8 154.1 153.7 153.4 153.1 152.7 151.3 150 148.7 147.3 144.1 143.2 143 148.6 142.1 141.2 140.9 140.8 140.6 140.3 139.8 138.9 139 139.1 139 138.9 138.7 139.1 140 141.1 141.6 142.8 145.1 147.3 155.4 164.6 171.4 177.6 183.6 191.5 199 204.9 202.3 197.6 199.4 204.5 211.4 215 217.7 224.7 232.8 242.7 253.5 265.1 272.1 280.5 288.9 296.9 306 310.3 310.4 311 310.7 309.4 306.5 302.4 297.8 291.3 284.6 277.1 253.5 225.5 223 225.5 228.9 234.4 241.8 253 266.9 280.1 282.1 280.1 275.6 269.5 266.2 262.9 259.5 255.7 251 244.4 234.6 224.9 216.7 208.7 200.6 192.1 183.3 175.7 170 173.1 171 166.3 163.2 152.7 154.5 156.7 154.3 149.3 150.1 151.4 152 154.5 156.2 155.3 155 153.8 155.8 156.2 156.2 156.5 156.5 156.9 160.3 159.7 160.1 163 161.7 161.9 164.8 167.4 167.9 163.9 163.6 162.1 161.7 161.8 162 159.6 157.8 156.8 157.1 159.9 152.2 150.3 153.6 155.2 151.6 152.4 153.3 154.3 154.6 156.1 156.7 157.5 154.9 153.7 154.5 152.9 153.4 148.2 147.7 150.2 154.1 155.2 154.4
249.5 253.1 264.3 278.7 288.8 288.1 282.3 273.1 262.8 246.7 228.2 213.9 202.7 197.1 183.4 171.1 162.6 153.5 150 149.1 148.5 148.6 148.3 147.5 147.7 147.7 147.2 146.8 148.5 156 156.5 156.2 155.8 155.5 155.2 154.8 154.7 154.2 153.6 153.6 152.9 152.2 151 150.2 150.6 147.5 144.7 144.5 144.7 143.5 142.8 142.1 141.4 141.1 140.8 140.3 136.5 136.5 137.1 139.6 139.5 139.5 140.2 141.2 142.4 144.1 146.3 148.9 165.6 176.4 183.9 189 194.5 200.4 208.3 214.7 212.4 208.9 207.4 210.1 215.5 221.6 226.1 230.1 242.2 255.1 269.4 285.1 297 304.3 311.2 315.9 318.1 317.6 318.9 318.7 318.4 317.2 315.5 313.9 310.2 305.1 299 292.4 284.4 274.6 259.8 254.5 257 260.8 262.9 267.3 276.7 285.1 285 281.1 276.5 271.9 266.8 261.8 258.6 254.8 250.5 245.8 238.1 228.5 219.6 211.8 204.3 196 187.9 180.6 173.8 180.4 181.8 174.6 169.4 158.3 151.3 153.2 154.2 153.2 151.1 152.6 149.9 154.9 158.3 158.7 157.7 156.7 153.1 154.1 153.6 153.8 155.3 155 155 156.7 157.4 157.8 159.4 158.2 161.4 163.6 165.1 164.9 163.1 164.2 161.3 163.2 162.9 161.1 155.8 153.5 153 154.6 160 154.5 151.4 152.1 150.7 150.5 150.6 151.2 153.2 154.4 154.7 154.3 155.7 157.1 153.9 152 151.2 150.4 147.7 147.7 147.7 147.7 147.7 147.7
240.7 247.5 259.4 272 274.5 272.9 267.5 259.2 246.4 225.7 202.7 187.4 175.5 171.7 165.1 158.3 151.7 149.5 148.7 149.2 148.5 148.5 148.4 147.9 147.8 147.9 148.5 152.1 156.5 157.1 157 156.6 156.1 155.8 155.6 155.3 154.9 154.2 153.6 153 152.5 152.2 151.3 150.8 151.6 150.4 148.8 146.5 145.5 150.4 143.3 142.9 142.7 142.7 142.8 141.2 140.3 140.4 140.9 141.7 141.3 141.4 141.7 143.8 145.1 148.1 158.2 171.7 184.5 192.9 199.1 205.9 211.3 218.5 220.1 217.3 212.9 211.3 212.9 217.5 223.5 230.3 237.2 248.9 265.6 285.7 302.9 312.3 318.7 322 324 324.7 324 324.7 325.5 324.8 324.1 323 318.9 315.3 311.6 307.6 303.4 299.4 292.3 285.7 281.6 279.3 280 281.3 282.5 284.4 285.4 284.9 281.8 277.9 272.6 268.1 263.3 259 255.4 251.5 247.2 240.8 232.2 224.2 215.8 207.6 200.2 192.8 185.3 178.2 174.8 177.2 178.4 175 170 156.9 151.3 153.4 154.8 155.6 155.5 152.1 151.7 153.8 158.6 160.1 160.1 158.4 154.9 153.9 152 151.8 153.1 154.6 154.2 155.9 156.1 156.8 156.3 159.7 162.4 163.8 163.6 161.6 161.1 160.4 159 158.6 156.1 151.4 149.6 150.9 151.7 153.3 161.6 158.4 152.1 151.9 150.9 150.4 150.3 150.2 151.5 155.1 153.6 152.9 152.7 154.3 152.2 150.6 150 147.7 145.7 146.5 147.2 146.7 146 147.2
232.5 239.1 251.1 260.3 261.6 260.6 254.3 244.9 226.6 196.1 173.9 171.4 162.9 156.2 152.6 150.5 149.8 152.6 152.4 151.4 150.2 149.4 149.4 150 152.5 157.5 158.1 158 156.7 157.4 157.2 156.9 156.5 156.2 155.9 155.6 155 154.3 154 153.7 153.4 152.1 151.4 150.3 149.5 148.5 148.3 148 147.7 147.7 149.4 145.5 145.1 144.4 143.7 143.5 143.7 143.6 144.1 144.3 143.8 144.6 147.3 149.6 154.8 166 182 190.5 198.5 205.8 212.6 219 218.6 215.3 214.1 212.7 211 213.5 216.4 221.6 230.7 239.9 253.2 271.9 292.1 302.9 316.2 322.6 325.7 327.6 327.3 326.7 327.2 327.4 328.3 328.1 328.8 325.3 320.5 316.9 313.4 309 304.7 301.6 297.6 293.9 291.1 289.7 288.6 288.8 288.7 286.4 284.6 281.9 277.9 274.7 269.1 264.2 260.2 256.3 252.5 247.7 241.8 235.7 228.3 220.9 212.9 204.8 197.8 190.6 183.5 182.3 176.6 170.9 169.7 170.7 167.2 155.3 152.2 154.6 157 159 156.6 153 153.6 155.8 156.8 158.1 160.2 158.7 156 152.1 151.9 152.4 152.4 153.9 153.2 155.2 158.5 157.3 159.6 161.9 161.3 160.9 161.1 159.1 155.5 154.1 152.6 147.8 151.3 147.6 148.3 151.4 153 154.6 157.3 155.7 157.2 158.5 151.3 150.4 152.6 154.5 155.6 155.3 153.7 150.6 150.1 151.4 149.2 148.1 147.1 144.8 143.7 142.4 145.7 144.2 142.9 144.8
226.3 232.9 244.7 252.7 250.4 247.3 241.1 230.1 195.6 177.3 169.6 159 151.7 151.1 150.5 154.7 161.9 161.2 157.2 156.8 158.2 158.6 158.9 159.4 159.5 159.2 158.8 158.3 157.2 157.6 157.4 157.1 156.8 156.5 156.2 155.9 155.1 154.1 154.8 154.6 153.4 151.9 151.5 150.7 149.3 149.4 151.4 150.3 150.3 149.7 149.3 148.7 148.2 147.8 148.6 148.4 148.1 148.3 148.4 149.3 152.7 155.6 162.6 166.6 173.8 185.5 198.2 205.4 204.3 204.7 207.3 209.7 209.4 207.8 207.6 207.2 209.2 213.3 218.5 226.9 238.9 251.6 271.7 292.3 301.2 310.1 322.3 325.4 326 326.6 326.5 327.6 327 326.9 330.3 327.3 326.2 323.1 320.7 318.2 314.8 310.2 306.5 303.5 299.4 296.6 293.8 291.3 290 289 287.2 285.3 282.6 278.6 274.4 270.8 266 260.3 257.2 252.6 247.4 241.7 235.6 229 223.2 217.1 209.7 201.9 194.7 189.4 184.4 179.9 180.4 171.3 167.9 167.1 163.2 153.2 149.8 155.2 156.5 157.2 155.9 154.9 155.5 155.5 156 157.6 160.2 158.4 155.4 149.8 149.7 150.8 149.8 149.6 152.7 154.9 157.5 157.7 159.8 160.3 159.5 158.3 157.4 152.3 148.6 148.7 147.3 145.2 147 145.9 148.4 151 152.1 150.8 150.9 149.6 151.3 157.2 154.1 148.5 149.7 150.6 151.1 151.5 151.5 148.8 148.7 148.7 147.3 146.8 145.4 143.3 142.9 141.5 142.3 140.9 139.8 141
225.4 226.2 227.5 227.7 232.3 222.4 179.4 178.9 176.5 162.7 152.8 151.8 150.8 150.3 160.2 162.3 161.9 161 160.6 160.3 159.8 160 160.2 160.3 159.9 159.6 159.1 158.7 157.9 157.7 157.5 157.3 157.1 156.8 156.5 155.8 154.7 154.7 155.5 154.7 152.3 152 151.6 150.8 150.7 153.3 154.3 153.5 150.9 152.5 152.6 154.1 151.7 151.9 152.9 153.2 154.3 156.6 161 163.4 169.7 174.5 178.8 181 187.2 194.1 200.5 201.8 199.9 198.3 199.3 201.3 202.2 201.6 201.4 203.7 210.4 215.9 221.3 234.2 248 266 288.5 297.1 302.5 309.3 316.5 319 319.7 320.2 320.2 319.4 321.1 320.9 321.7 320.6 320.3 318.2 316.1 314.2 311.2 308.2 305.6 303.2 298.4 294.1 290.4 288 286.4 284.5 282.9 280.2 276.9 272.9 269.3 265.4 261.7 257.5 253 247.9 241.8 235.4 229 222.4 216.4 210.3 205 196.8 193.7 190.9 187.3 183.4 180.3 173.3 164 163.7 163.2 159.2 154.4 158.3 157.5 157.7 156.9 157.3 157.8 159.6 159.1 159.5 160.6 158.3 155.8 152 150 148.7 149.7 149.4 151.9 154 153.2 155.7 156.9 157.7 156.5 156.4 148.9 146.2 144.5 148.2 145.2 145.5 146.6 147.8 148.5 150.1 151.1 149.4 147.6 146.8 147.7 152.8 153.3 148.5 148.5 148.5 148.5 149.9 149.6 148.8 148.8 148.7 147.4 146.8 144.5 143.1 141.8 140.4 139.3 138.8 136.9 137
219.5 212.5 215.3 201.1 184.3 181 176.5 172.2 159.5 152 151.7 149.9 157.3 160.1 161.3 160.9 161.2 161 160.8 160.7 160.6 160.9 161 160.4 159.9 159.5 159.5 159.1 158.5 157.9 157.7 157.2 156.6 156.1 155.8 154.7 154.1 153.6 154.3 152.8 152.7 153.8 153.9 154.4 154.9 155.5 156.3 155.5 154.9 154.6 154.9 155.6 156.5 156 156.7 159.4 166.7 172.6 177.8 178.7 181.2 182.2 183.6 184.8 184.9 189.8 194.2 194.8 194.8 194.3 192.7 194.2 195.7 194.7 194.3 203.2 210.1 217.1 225.7 241.3 257.5 278.8 289.7 294.2 298.6 304.2 308.2 310.4 311.6 311.7 311.4 312.5 312.7 312.7 313.2 313.6 312.8 311.2 308.8 307.4 305.2 301.9 299.3 295.2 290.3 286.7 284.2 283.5 282.4 280.3 277.1 274.2 270.6 266.9 263.6 259.9 255.4 250.6 246.1 240.9 234.7 228.4 221.1 216.6 210.5 204.8 203.2 198.2 194.6 190.6 187.5 182.5 177 173 161.5 163.9 159.1 156.6 155.8 158.7 159 159.3 161 162.4 162.2 160.6 159.6 159.1 160.6 159 154.8 152.2 150.2 149.6 154 152.6 152.1 153.7 149.8 153.5 153.4 151.8 151.3 152.1 146.8 140.4 139.4 139.3 140.6 143.3 148.4 148.6 148.8 147.7 147.6 148.5 144.1 144.1 146.9 152.5 151 148.5 148.5 148.5 148.5 150.2 149.3 149.7 149.7 148.1 147.6 148.7 148.4 145.5 143.2 139.8 138 137.3 136.5 134.4
205.9 189 189.4 172.4 172.4 175.4 164.6 158.2 153.6 152.2 151.5 154.7 158.8 160 161 162 161.8 161.7 161.6 161.5 161.3 161.7 161.5 160.7 159.9 159.5 159 159 158.6 158.1 157.8 157.5 157.2 156.8 156 155.4 155.5 156.1 156.5 156 156.4 157.2 157.2 157.6 157.5 158.2 158.3 158.3 156.8 155 157.5 159.5 164.3 158.2 166.8 171.1 175.2 177.1 178.7 179 179.2 180.5 181.4 181.7 181.4 181.5 184.9 189.8 190.4 190.6 187.7 189.3 190.1 187.8 196.5 203.6 210.8 218.6 229.6 245.2 262.7 278.8 282.8 287.2 292 297.3 301.4 302 302.8 302.9 303.2 304.6 306.1 305.8 305.1 305.3 304.5 302.7 300.7 299.3 297.4 294.6 291.1 287 282.4 279.7 278.1 277.1 275.9 273.6 270.3 267.1 264 260.7 256.9 253.1 248.7 243.4 238.5 233.7 227.8 221.2 214.9 210.4 206.6 205.4 204.5 195.9 191.1 185.5 183.6 178.9 174.2 171.4 162.4 161.7 158.3 154.9 156.5 159.5 162.5 163.1 163.9 166.5 164 160.7 158.9 157.4 158.8 157.4 152.2 148.3 150.3 153.1 155.3 155 153.8 151.4 150.5 150.2 149.1 146.9 148.2 149 146.6 140.1 140.9 145.7 143.5 144.8 151.4 152.2 149.7 146.3 145 142.6 140.6 143.3 145.2 148.9 150.2 148.5 148.5 148.5 148.5 148.5 149.9 148.3 147.7 147.6 148.3 149.2 148.7 146.9 143.1 140.7 138.6 137.6 137.9 134.8
187.6 180.6 178 176.8 173.8 163.3 159.5 154.8 152.9 151.9 150.6 155.8 159.6 160.5 162 162.7 162.6 162.5 162.4 162.2 162.1 162.1 161.9 161.2 160.4 160.3 160.4 159.4 158.6 158.4 158.4 158.3 158.2 158.2 157.6 157.4 158.2 159 159.7 159.7 160.1 160.7 161 160.8 161.6 161.5 161.1 161.1 161.9 161.3 161.8 164.7 168.5 170.2 163.9 172.4 174.6 175.8 175.9 175.6 175.4 176.6 177.9 179.1 179.5 179.7 182.8 185.6 187.7 188.7 185.6 182.9 183.4 189.1 195.4 202.4 210.3 219.8 231.5 248.7 264.2 271.3 275.4 277.3 282.4 290.2 294.8 295.2 295.4 295.6 296.5 297.5 299.2 298.8 297.8 296.9 296.1 294.7 292.8 291.8 290.3 287.7 284.1 279.9 276.6 273.7 271.4 269.4 268 265.2 261.6 257.9 254.9 250.6 247 243.4 239.4 235.2 231.4 226.6 221.6 217.6 212.5 207.5 203.6 202.8 202.1 198.8 188.6 180.4 177.3 176.9 173.8 173.3 166.6 162.9 158 154.6 157.5 162.3 162.1 161.1 164.2 165.6 164.2 160.5 156.2 156.1 157.9 157.5 150.4 146.4 148.9 148.2 150 149.7 147.9 146.5 148.4 148 143.8 143.4 145.4 146.9 144.3 140.5 141.8 144.2 144.6 149.5 149.7 149.9 145.3 142.4 141 140.4 141 142.6 144.3 147.9 149.2 148.5 148.5 148.5 148.5 148.8 150.4 149.5 147.8 147.5 148 149.4 148.3 146.1 142.7 140.2 139.4 137.6 137.3 135.9
181.8 178.5 171.9 169 163.4 158.5 155.6 153.7 152.6 151.5 152.1 155 159.2 161 162.6 163.1 163.2 163.1 163 163 162.5 162.9 162.3 161.9 161.2 160.5 160.7 159.8 159.5 159.8 159.4 159.3 159.3 160.5 160.7 160.8 161.8 162 162.9 163.8 165.1 166.5 167.3 169.4 170.9 170.1 167.9 166.4 166.9 168.2 167.9 169.8 171.1 172.5 172.6 170.6 169.5 172.5 172.3 172.2 170.9 172.2 173.3 174.4 174.7 175.9 179 182 183.3 184.3 183 178.3 183.7 187.5 194.3 201 209.2 218.5 230.3 246.1 255.2 263 266.3 269.7 275.1 281.3 285.7 287.8 288 289.2 289.6 290.5 291.3 291.4 290.4 289.6 288.6 288.4 287.2 284.8 283 280.1 276.5 272.7 270 267.1 263.7 261 258 255.6 252.2 249.6 246 242.1 239 234.6 231 227.7 224.7 221.9 218.8 215.3 210.7 204.8 200.4 199.9 198.9 196.8 186.1 179.5 174.2 173.5 175.3 171.2 169.2 167.9 160.5 155.8 160.8 164.5 161.9 161.3 163.3 164 163.4 161.2 155.1 155.4 154.9 151.9 148.8 145.7 144.1 146.3 146 142.7 142.7 144.5 147.3 146.5 142.2 142.4 143.6 147 143.3 140.6 140.6 141.1 142.4 145 145 146.2 142.7 143.2 143.3 145.1 145.3 144.8 146 147.8 148.5 148.5 148.5 148.5 149.1 149.6 149.4 149.5 149 148 149.6 149.4 148.9 147.1 144.5 142.1 138.7 136.3 136.2 134.8
174.3 171.2 167.9 164.3 160.7 157.9 155.1 153.3 152.6 152.9 152.5 156.8 160.3 161.7 162.9 163.4 163.8 163.7 163.6 163.7 163.7 163 162.4 162.2 161.9 161.2 161.1 160.4 160.4 160.8 161.2 161.2 162.7 164.9 165.1 166.9 168.7 169.6 169.7 170.5 171.6 174 176.3 178.5 178.9 177.9 175.8 173.6 172.4 174.1 174.9 174.5 174.1 173.2 172.5 171.7 170.6 168.7 166.9 168.6 166.8 169 169.9 171 171.2 173.4 175.7 177.4 178.7 179.7 179.2 176.7 181.6 186.2 192.5 199.2 207.4 216.5 229.4 240.4 247.8 251.6 256.4 261.7 267.8 273.5 277.9 280.3 280.3 281.6 282.9 283.6 283.3 283.1 283.1 282 281.3 281.1 280.6 278.4 274.9 271.9 268.6 265.1 260.6 256.4 252.8 251.1 249.1 246.4 243.4 240.6 236.2 232.5 230.3 227.5 224 221.9 218.9 216.1 212.8 210 205.4 200.8 199.1 197 194.5 188.9 181.3 180 174.5 170.2 171.9 166.9 165.5 163.1 154.2 151.3 156.9 158.1 158.1 158.7 160.3 160.7 159.9 158.5 156 155.6 152.8 146.9 146.9 146.2 142.7 146.7 145.2 143.9 140.7 143.2 145.2 145.2 142.4 141.6 142.6 145.8 145.5 140.8 141.2 139.9 141.4 142.1 141.8 143.7 142.2 144.2 147.3 147.7 147.3 147.4 148.3 149.3 148.5 148.5 148.5 150.4 149.6 149.8 149.9 149.3 148.8 148.3 148.6 148.7 149.4 147.9 144.7 142.6 140.2 136.5 134.8 133.7
171.9 169 166.4 162.8 159.8 157 154.6 152.6 152.6 153.1 153.5 159.6 161.6 162.4 163.1 163.6 164.1 164.3 164.4 164.5 163.9 163.2 162.6 162.3 162.1 161.9 161.5 161.3 161.5 162.2 162.9 164 166.1 169.2 170.8 173.1 177.1 179.3 179.9 181.9 182.8 184.4 186 186 185.8 185 183.1 181 179.6 179.9 179.9 178.4 176.5 174.6 172.8 170.9 169.3 167.7 166.4 165.6 165.2 166.2 166.9 167.6 168.6 170.3 172.1 173.1 174.1 175.1 174.6 174.5 179.4 184.6 190 197.3 205.4 213.8 227.5 234.7 238.5 241.4 245.2 251.4 258.2 265.4 270.6 272.9 273.6 274.6 275.2 276.4 276.6 276.6 276.3 275.8 274.8 274.1 273 271.1 267.7 263.7 259 253.4 247.7 243.2 241.8 242.8 240.7 238.4 235.1 231.1 228 223.7 221 218.3 217 216.3 215.2 210.1 207.4 205.5 200.2 196.1 194.9 194.6 191 180.1 175.8 173.9 171.5 167.5 164.2 163.2 161.8 156 151.8 152.5 150.9 148.5 153.8 154.4 156.6 157.2 153.5 149.4 151.1 150.2 145.7 144.3 146.4 145.9 146.1 148.6 145.4 142.3 141.5 143.6 144 144.5 142.5 141.6 145.5 143.8 145.7 144.2 142.6 141.3 140.9 140.5 141.3 141.8 143.6 146.7 148 148.2 148.4 149 149.7 150.1 149.9 148.5 149 149.5 149.6 149.9 149.9 149.3 148.4 148 147.8 148 148.8 148.4 144.1 141.8 140.2 138.8 136.1 134
169.5 166.7 164.9 161.8 159 156.1 153.7 152.5 153.3 153.9 156.2 161.1 161.6 163.2 164.2 164.3 164.5 164.4 164.8 164.5 163.9 163.4 163 162.8 162.5 162.3 162.6 163.2 163.7 165.2 167.9 171.4 174.7 176.4 178 182.8 187.7 190.8 192.1 193.6 194.4 195.2 195.1 193 192.8 192.8 192 189.3 187 185.2 184.4 182 179.3 176.3 173.9 172 170.3 168.5 166.7 165.8 164 164.2 165.2 166 166.8 167.3 168.9 170.2 170.3 170.5 171 172.7 176.8 181.8 187.4 194.1 201.2 210.2 220.9 227.3 229.8 231.6 236.7 243 250.3 258.7 264.8 264.9 266.1 267.2 268.1 269 270.5 270.7 270.6 270 268.9 267.9 266.2 264.1 260.3 256.7 249.6 241.4 236.1 230.2 231 237 233.2 229.8 225.9 222.2 218.5 216.2 211.8 210.5 210.1 209.7 209.5 207.7 204.7 201.2 196.7 192.2 189 191.5 183.1 175.7 171 168.6 163.5 164.1 161.2 161.1 160.6 156.8 156.2 152 151 153.2 151.9 151.3 153.6 153.4 149.6 146.7 145.7 142.1 141.1 140.7 140.4 141.9 145.4 145.8 142.9 139.9 139.5 142 143.5 143.6 143.3 144.2 143.3 141.7 143 144 142.7 139.9 139.6 139.2 142 146.3 147 147.7 148.3 149.9 149.7 150.3 149.9 149.2 149 149.4 150.6 150.1 150.1 150.4 150 149.7 149.1 148.6 148.4 147.2 147.9 147.6 146.9 145 143.4 139.9 138.2 136.1
167.2 164.9 162.6 159.8 156.8 154 152.8 154 154.8 155.6 160.8 162.1 164.9 165.2 164.2 164.4 164.6 164 164.5 164.8 164.6 164.2 163.8 163.5 163.3 163.7 164.3 165 166 169.4 174.7 179.7 183 184.5 187.7 191.5 196.3 200.9 204.3 205.9 206.5 206.8 204.2 200.1 200.1 200.2 199.6 196.8 195.3 190.7 187.4 184.8 182 178.4 175.4 172.9 170.9 169 167.6 166.6 165.6 163.8 164.1 164.9 165.3 165.2 165.8 167.4 167.6 167.9 168.9 170.6 174.3 179 184.2 189.9 197.6 205.9 215.4 221.4 221.6 219.9 226.6 234.1 243 249.9 254.8 255.9 257.2 259.1 261.2 262.6 264.3 264.8 264.9 264 263 261.8 260 257.7 254.9 250.7 243.5 232.2 228 225.3 220.2 228.1 226.8 221 214.8 210.9 210.2 208.4 206.9 203.7 202.5 203.6 203.3 200.9 197.7 195 191.5 184.6 183.7 184.1 176.9 172.6 168.1 167 163.3 162.6 163.7 163.2 164.2 162.3 155 153.1 154.6 155 153.3 152.2 151 147.9 147.2 145.4 142.6 141.5 141.2 140.7 140.4 144.6 145.1 144.8 139.5 137.9 139.2 139 140.1 142.2 142.2 142 140.7 139.8 141.2 140 140.1 139.4 138.7 139 142.9 144.3 146.2 149 148.4 145.5 145.9 150.5 150.1 148.5 148 149.7 149.9 150.2 150.7 151.6 150.6 149.3 150.1 150.3 149.3 146.2 146.7 147.3 147 145.8 144.9 141.5 138.9 137.4
166.8 163.2 160.3 156.7 154.9 154.2 153.4 154.6 154.6 157.5 162.3 163.7 166 166.3 166 164.7 164.7 164.7 164.6 164.6 164.5 164.5 164.6 164.3 164.8 165.2 165.7 167.3 169.3 174.5 179.8 185.1 187.8 191.1 194.3 198.4 204 209.3 215.1 218.1 218.8 216.2 212.5 209.2 206.6 206.8 206.1 202.9 198.8 194.2 190 187 183.7 180.3 176.7 173.5 171.4 169.5 168.4 167.5 166.1 164.5 163.2 163.6 163.6 163.3 163.9 164.4 165.2 166.1 166.9 168.4 171.5 175.2 180.5 186.7 194.4 203.3 210.5 213.9 214.1 211.4 218.6 226.8 236.4 243.8 246.9 248.4 249.9 251.8 253.4 255.8 258.3 258.9 259 258.1 257.1 255.5 253.8 251.4 248.8 244.4 238.5 230 221.7 220.2 215.8 213.1 215.9 211.6 205.1 202.7 200.9 200.9 201.2 197.9 196.5 197.4 198 195 190 186.6 182.8 179.6 175.7 176.5 173.5 174.4 166.8 168.5 165.7 164.7 165.9 166.1 164.5 160.8 156.3 152.4 155.6 152.8 153.4 153.1 152.9 148.6 145.1 144.7 141.3 141.7 140.2 139.1 140.1 143.7 143.8 143.2 140.5 138.8 138.4 138.3 140.3 141.4 141.8 140.1 138.7 137.4 139.1 138 138.7 138.9 137.9 138.5 143.4 142.4 142 143.1 144.1 142.2 142 145 149 146.9 146.1 147.3 148.1 148.7 149.2 149.9 150.4 148.8 148.5 148.7 148.4 144.9 145.5 145.9 144.9 145.3 144.5 143.2 141 139.8
166 165.9 161.9 158.3 154.4 153.6 153.6 154.9 155.4 163.5 164 166.4 167.1 167.4 167.7 166.6 165.3 165.4 165 164.9 164.9 164.8 165.1 165.5 165.8 166.3 166.7 169.4 173.2 178.6 184.4 188.1 191.5 195.8 200.4 205.8 212.1 218 221.3 221.7 222.2 221 218.5 216 213.5 211.4 208.7 204.9 200.7 196.6 191.1 187.6 184.3 180.8 177.7 174.7 171.9 170.2 169.1 167.7 166.4 164.5 163.1 162.4 161.9 161.5 162.1 162.5 163.4 164.3 164.5 165.1 168.7 172.2 177.2 184 192 200.3 205.6 206 204.3 205.6 211.6 220.6 229.9 237 240.6 241.4 241.7 244.1 247.5 247.5 251.4 253.3 252.6 251.7 250.7 249.3 247.5 245 242.5 238.3 233.4 228.8 218.3 212.8 212.4 206 202 200.6 197.2 194 190.7 192.6 192.6 191.2 190.8 194.5 191.9 187.6 183.5 179.3 178.2 173.8 168.9 169 167.6 168.2 166.4 165 166 162.8 161.8 163.1 161.1 159.5 153.6 154 155.7 152.3 151.1 153.8 156 155 151.1 146.7 142.5 140.2 141.2 139.7 138.5 141.9 142.4 141.7 140.7 137.5 136.9 139.3 140.7 140.4 139.1 138.4 136.9 135.8 137 136.9 137.8 138.7 137.6 136.2 142.3 141.2 140.5 139.1 137.6 139.1 139.2 141.9 143.9 142.8 142.5 145.1 146.8 148.2 148.7 148.9 149.3 148.5 148.1 147.3 146.9 143.1 144.3 144.6 143.5 143.7 141.4 140.6 139.5 136.7
169.2 166.8 161.7 157.2 154.2 153.5 154 155 160 164.6 165.9 167.8 168.1 168.4 168.6 167.7 166.9 166 165.4 165.3 165.6 165.8 166.1 166.5 167.1 167.3 168.2 170.9 175 179.8 186.3 189.9 192.8 196.5 202.5 210.8 218.6 219.8 219.4 221.2 223.6 224.5 220.5 217.4 215.1 212.2 209.2 205.7 201 195.6 188.8 187.7 185 182.2 178.2 175.4 172.6 170.8 169.4 168 166.6 164.9 164.1 162.8 161.3 159.7 159.8 160.7 161.6 162.5 162.7 163.1 166.4 169.8 174.7 181.8 189.6 195.5 198.6 197.3 194.9 199.8 205.2 212.4 222.2 226 227.8 226.1 235.6 240.7 241.4 239.6 243.8 247.1 245.7 244.7 243.7 242.6 241.2 238.6 235.8 232.6 229.2 224 217.4 207.5 202.5 200.2 197.3 194.4 191 187.7 185.7 187.1 188.4 187 185.3 186.3 185.6 181.1 177 174 171.4 168.7 165.3 165.3 163.9 165.4 165.2 164.2 161.2 157.1 157.5 158.9 157.7 157.6 158.2 156.9 154.8 151.5 150.7 151.3 150.3 154.6 151.6 144.9 143.9 141.5 142.7 141.1 139.2 139.7 141.6 140.9 139.7 139 137.3 139.3 139.6 139.1 137.3 137 136 134.8 135.6 136.2 136.9 138 135.9 135 138.3 139 137.4 134.5 135 136.4 137.4 140 139.2 138.8 140.7 143.9 145.6 147 147.8 148 147.9 146.6 146.9 146 144.1 141.5 140.9 140.5 140.5 141.5 140.3 138.4 138.3 136.4
169.7 165.9 160.7 156.4 153.4 154.3 154.8 155.5 163 167.7 169.6 170.6 169.6 169.4 169.3 169.2 168.3 167.5 166.4 166.2 166.5 166.8 167.1 167.5 168.1 168.7 169.5 170.7 171.4 173.9 179.3 187.6 192.7 197.6 203.8 208.6 212 215.8 216.2 217.9 220.1 223.2 221.9 218.5 216 213.2 209.9 205.5 201.1 196 192.1 190.7 187 183.2 179 175.7 173.8 172.1 170.2 168.4 166.9 165.6 164.3 163.3 161.7 160.3 159.3 159.2 159.8 160.7 161.1 161 163.8 167.1 172.1 178.7 184.3 187.6 188.5 188.3 188 193.2 198.2 203.3 211.4 213.3 219.5 230.5 233.5 235.6 236.7 234.5 236.4 238.8 238.5 237.9 236.7 235.5 234.1 229.7 229.5 225.8 221.9 217 211.5 205.4 199 193 190.3 188.7 185.2 182.6 181.1 182.7 186.7 184.1 179.4 180.4 179.7 173.4 169.6 168.6 166 164.6 164.1 165.2 162.6 162 160.4 157.6 154.8 153.5 152.9 153.9 154.7 156.7 157.7 155.1 154.5 154.7 153.1 151.6 152 154.6 152 144.9 143.4 141.2 144.7 142.2 139.1 139.4 141 140.7 139.1 138.5 137.8 138.5 138.9 138 137.9 138.4 137.1 136.4 135.2 136.8 136.3 137.4 134.2 138.4 138 136.3 133.9 132.9 134.6 136.8 136 138.4 138.7 138.4 141.8 144.2 145.3 146.1 146.5 146.7 145.6 144.8 143.6 142.3 140.4 140 140 139 139 139.2 138.6 138.7 139.2 138.6
168.8 164.4 159.2 155.1 153.5 153.9 155.3 158.6 165.5 169.5 173.3 172.5 172 171.8 172.6 171 169.5 168.1 167.7 167.4 167.4 167.3 167.6 168.9 169.9 172.2 173.2 173.8 173.7 172.3 175.3 182.7 187.5 192.9 197.6 201.4 206 209.2 210.9 212.1 215.5 219.7 221.3 219.7 217.2 214.2 209.7 205.4 202.8 198.4 197.3 196 189.9 184.6 180.7 177.4 175.3 173.6 171.9 170.1 168.4 167.6 165.4 164.5 162.9 161.3 159.8 158.5 159.1 159.5 159.3 159.2 161.4 164.2 167.2 173 175.6 177.3 178.4 180 181.4 186.3 191.1 194.8 198.1 213.4 223.9 227.1 230.1 231.7 232.4 231 228 228.7 230.1 231.3 230.8 229.5 228.6 222.4 220.7 216.4 212.9 208.6 204.5 199.9 195.6 191.4 187.8 184.2 181.8 178.7 176.8 178.8 184.2 179.1 177.7 173.6 170.7 167.2 165.3 165.3 165.2 164.9 164.4 164.6 162 159.1 159.3 154.5 152.2 151.2 150.5 150.8 152.1 153.5 154.7 153.2 153.2 154.1 154.8 153 151.7 154.3 152.6 148.7 145.8 146.3 145.1 143.6 139.3 137.7 140.5 140.3 139.7 138.9 138 137 138 137.7 136.5 134.3 138.9 138.3 134.4 138.3 133.8 132.4 132.9 139.6 137 134.9 132.5 132.2 132.5 133.9 135.1 136.3 136.6 139.5 141.5 141.2 142 143.5 143.6 144.1 142.2 142.2 141.7 140.6 138.9 138.3 137.2 135.4 135 134.8 137.7 138 137.7 137.5
166.8 162.8 157 155.1 154.2 154.8 156.2 162.7 168.4 173.4 175.6 174.8 172.8 173.7 175.1 173.2 170.4 169.4 169 168.6 168.5 168.5 169.5 171.4 174.1 177.4 179.8 180.4 178.7 176.8 175.5 177.9 181.6 185.7 190.3 192 198.1 201.2 205.9 211.7 214 217.4 219.4 220.7 219.5 216.8 212.7 210.3 208.2 204.2 201.1 197.6 192.9 186.5 182.5 179.6 177 175.2 173.5 171.9 170.8 168.6 166.9 165.4 163.9 162.3 160.7 159.3 158.5 158.2 157.7 157.7 158.8 160.9 162.8 165.7 168.6 170.5 172 174.3 176.7 180.1 184.5 194.1 204.1 210.6 216.4 221.6 226.4 227.8 228.1 227.6 220.3 219.4 222.6 224.6 224.8 222.7 220.1 217.2 210.1 207.8 203.4 200.2 196.5 194.8 191.7 189.3 186.8 183.9 181.5 178.8 173.8 173.9 175.1 171.8 168.2 167.1 164.8 163 165.3 165.2 165.1 164.7 165.6 161.8 160.1 158.4 157.9 154.1 151.1 150.4 149.1 148.8 149.7 151.1 151.4 151.3 151.4 151.2 154.7 155.6 154.3 154 152.8 150.6 147.6 146.3 145.1 143.7 142.7 139.3 137.9 139 139.7 139 136.6 135.3 134.5 133.6 133.5 137 138.2 137.5 132.6 139 132.4 132.6 131.9 137.4 136.3 134.3 132.1 132.5 132.4 132.3 135 133.6 134.4 137.4 137.7 137.5 137.8 137.9 138.1 138.3 138.1 138.1 138.2 138 136 134.4 133.2 133.3 132.6 130.6 133.3 133.6 133.7 135
166.2 158.4 155.9 154.9 154.6 153.5 161.2 166.6 172.5 181.1 179 176.9 175.5 174.4 174.5 172.9 171.3 170.5 170.3 169.9 169.7 170.6 172.4 176.1 182.3 184 186 187.1 187.9 188.1 184 183.7 183.8 184.7 187.5 193.3 200 201.8 207 213.3 217.8 219.1 217.4 219 222.1 221 219.6 217.9 215.4 209.3 204.4 199.5 193.4 188.9 184.5 182.3 180 178.2 177.2 175.4 173.6 171.7 169.8 167.9 165.3 163.5 161.8 160.2 159.3 158.3 157.3 156.9 157 158.1 159.8 161.9 164.3 167 168.2 170.5 173.4 176.2 179.3 187.9 197.3 204.4 208.8 215.1 220 221.9 223 222.3 217.2 210.2 212.5 216.8 217.8 215.4 211.8 208.7 203.2 198.9 195 193.1 191.5 189.8 187.6 185.3 184.6 184.6 183.4 180.8 174.4 170.1 168.8 170 167.9 163.3 162 162 165.4 165.4 165.6 164.7 162.1 159.1 156.4 155.6 154.6 152.5 150.3 149.1 147.8 147 148.4 150.1 150.1 150.1 150.4 150.6 152.8 154.3 154.5 153.8 152.9 150.8 147.8 146.4 145.1 144.3 144.7 142 138.9 143.1 142.1 140.8 138.3 135 133.9 139.3 136.8 136.3 135.9 136.3 130 130.2 128 129 130.3 132 132.8 132 131.1 131.7 132.4 132.3 132.4 132.9 133.6 135 136.1 136.5 138.5 138.8 137.6 138.1 138.4 136.9 137.9 135.8 133.9 133.5 134.1 134.4 135.5 131.3 133.8 134.7 131.5 131.2
157 156 155.8 155.5 155.3 159 166.8 169.5 172.6 180.4 182.6 179 177.3 175.7 174.8 172.9 171 170.9 170.9 171 171.7 173.5 175.2 180.9 185.8 189.2 192.3 194.6 195.9 197 197.1 195.3 194.1 194.7 196 197.8 203.8 207.5 207.8 211.3 217.3 220.4 223.4 226.2 227.4 227.9 227.2 224.2 219.5 213.5 208.7 202.1 195.2 191.2 188.2 186.2 184.4 183.1 182.2 180.5 179.1 178.3 175.2 171.1 168.1 165.8 164.2 162.6 161 159.3 158.1 157 156 156.5 157.7 160 161.6 164 164.8 166.9 169.2 171.4 172.9 177.7 184.4 193 200.4 208.3 214.1 215.8 216.1 216.2 214.6 205.8 203 212.1 211.2 207.8 202.7 199.1 194.8 191 189.4 188.1 187.4 184.7 184.6 183.7 182.6 181.7 182.3 180 174 169.6 168.4 169.3 166.7 163.2 163.9 163.5 165.4 164.2 163.4 162.5 159.7 157 155.2 153.3 151.6 149.7 148.2 147 145.8 145.6 147.2 149.4 149.2 148.9 147.9 150.7 151.4 151.4 152.2 152.8 148.8 151.1 147.8 146.8 145.7 143.8 143.2 138.9 138.8 140.9 142.3 138.4 132.7 132.1 132.1 132.1 135.7 132.8 133.8 131.4 127.9 126.8 127.2 131.8 132.1 132.1 132.8 131.7 130.1 130 131 131.5 133.8 132.6 134.4 134 134.7 135.5 135.1 134.4 137.1 137.5 137.5 135.4 135.2 133.5 131.5 133.6 133.7 133.3 132.1 130.8 128.9 130 128.5 127.1
157.2 155.5 155.1 156.1 158.1 168 168.8 170.9 173.3 180 184.1 178.3 176.4 174.2 174.3 172.6 171 171 171.3 171.9 173.7 176.5 178.8 184.1 187.1 190.8 197.4 201.3 203.1 204.4 205.6 206 205.1 204.4 204.8 207.1 209.6 212.1 215 218.3 221.6 226.2 230.2 232.2 233.2 232.9 231.4 227.3 222.8 218.1 212.1 206.6 203.7 197.8 194.7 193.4 194.8 194.7 194.1 193.6 192 188.3 186.2 180.9 173.6 168.9 166.9 165.4 162.4 161.2 159.4 158.4 157.1 155.8 156.4 158.1 159.6 161.5 162.1 164.3 166 167.4 168.1 170.5 174.7 181.6 191.3 199.2 205 208.7 208.7 209.3 208.3 204.1 198.7 205.2 202.9 199.7 195.7 189.9 187.4 185.2 184.7 183.3 184 182.7 182.1 181.6 180.4 180.7 180.6 179.2 175 168.8 167.5 167.1 165.9 163.6 162.2 161.1 159.2 159 158.9 158.5 157.7 155.6 154 152.2 151.1 149.7 147.3 145.3 144.1 144 147.2 148.9 147.2 146.4 148.1 149 150.8 153.4 153.6 151.6 147.7 147.6 147 145.2 141.5 141.4 138.2 138.5 139.3 137.6 136.8 134.7 132.1 132.1 132.1 133.2 135 132.3 133.1 131.2 128.8 126.9 126.6 129.8 131.8 132.4 132.2 131.3 129.4 128.8 128.8 131.8 130.6 131.2 132.5 133.1 133 133.7 133.9 133.9 134.7 134.3 134 136.1 133.9 132.7 129.2 130.4 131.6 132.1 131 128.1 125.9 124.7 124.2 124.2
155.5 156 156.7 159.1 165 166.6 169.7 171.9 175.1 177.8 180.7 179.9 174.7 172.8 172.7 172.3 172.2 172.1 173 173.7 175.6 178.2 181.4 186.7 192.3 195.5 200.6 206.7 209 209.2 210.4 211.6 213.2 215.5 216.4 216.6 220.7 224 226.4 231.2 232.5 234.7 236.5 238 238.2 237.3 235.2 231 227.5 222.7 218 215.7 212.4 210.5 209.6 209 209.7 209.2 209.4 209.3 205.2 200.4 197.1 191.2 183.2 173.3 170.8 168.3 164.9 163.3 160.8 159.7 158.2 157 155.1 156.3 157.7 159.8 159.5 160.6 162.1 163.6 164.4 165.9 169 173.9 182 189.1 194.5 197.9 199.9 200.5 201 198.4 188.1 196.6 194.5 191.7 187.9 182.8 180.7 179.5 179.2 178.6 179.9 179.1 179.9 179.9 180.8 179.9 178.8 176.4 173.9 169.7 166.5 165.8 164.9 164.8 164.4 162.7 157.9 155.6 155 154.3 154 153.1 152.7 151.8 150.7 149.5 147.1 145.1 144.2 143 146.6 147.4 145.5 146.6 146.8 147.9 148.7 154.5 154.4 148.8 147.2 145.4 142.5 142.5 140.2 140.4 140.4 140.1 139.7 143.9 143.3 133.2 132.1 132.1 135.2 138 130 132.1 131 129.2 129.2 126.9 126.1 126.7 129 130.7 130.4 129.4 127.3 127.2 127.7 130.5 130.3 130.1 130.9 132.5 132.3 132.5 133 133.1 132.8 133.7 133.7 134.2 133.9 132.2 127.4 128.1 128.2 127.7 127.5 125.3 122.9 121.7 121 121.5
157.8 159.1 162.2 164.7 169.4 171.5 172 173.6 176.1 176.3 175.8 175.9 173.2 173.6 173.7 173.8 173.7 174.1 174.5 176.3 178.4 181.1 184.1 189.2 196 200.3 205.2 210.4 213.2 213 216 219 222.5 225 229.2 231.9 234.7 237.8 239.6 241 241.5 242.4 243.7 242.1 241.6 240.6 238.4 236.3 235.2 231.4 229.7 226.8 224.5 225.3 225.7 227.1 228.8 229.7 229.9 226.9 218.2 211.5 206.3 198.7 190 179.9 175 171.6 168.2 165.5 162.7 160.7 159.1 157.6 155.3 154.1 155.9 155.9 157.6 158.7 159.5 160.3 161.1 162 164.7 168.4 174.5 180.5 185.4 188.8 190.7 191.5 192.8 192.8 188.3 183.2 185.7 182.5 179.4 175.4 174.1 173.4 173.2 172.3 174.4 176.2 177.8 177.7 178.6 177.8 176.2 174.7 171.8 168 166.7 166.2 164.9 164.3 163.2 161.2 157.3 154.7 153 152 151.6 152.1 152.2 151.1 150 148.2 146.5 145.7 145.1 142.3 144.6 144.6 145.4 146.3 146.4 143.9 145.9 148.8 150 147.7 146.4 145.9 143 140.8 140.5 140 140.3 140.4 138.9 142.1 143.1 136 132.1 132.5 137.7 137.1 128.8 129.7 128.6 127.1 126.7 126.7 126.4 125.5 126.4 128.7 129.3 126.4 126.4 126.4 127.4 129.8 130.1 131.1 133.3 133.3 133.3 131.7 130.5 132 131.5 132.4 132.1 131.4 129.4 127.8 123.8 124 124.8 124.9 122.9 121.9 122.3 122.8 121.6 119.8
162.1 163.8 166.8 168.8 171.6 173 173.1 174.1 175.4 175.1 174.6 175.9 177.6 176.9 175.9 175.4 175.5 176.1 178.1 180.6 182.9 185.9 189.6 194.5 200.1 204.6 208 212 215.6 220.8 226.6 230.8 236.5 240.7 244.5 247.3 249.2 250.1 249.8 250.3 250.3 249.3 245.7 244.2 243.5 242.3 240.2 240.8 241 240.7 240.5 240.3 241.9 243.1 244.2 245 243.8 242.3 239.4 234.4 228.8 220.9 215.2 204.6 196.6 193.8 188.9 179.2 172.5 169.2 166.2 163.2 160.8 158.7 156.7 154.7 153.9 155.2 155.4 155.5 155.6 158.6 158.7 159.9 161.9 164.9 169.1 173.8 176.8 179.1 181.1 183 184.9 185.6 181.7 177.7 177.1 173.6 170.6 168.2 168.2 168.2 168.5 168.4 172.3 173.8 175.3 174.8 175.2 174.3 172.9 170.7 169.6 167.7 166.9 164.6 162.2 159.4 156.2 156.1 156.8 153.7 151.3 150.2 149.9 150.8 151.5 150.5 149.1 146.9 146.6 146.6 144.6 138.7 141.1 145.3 145 145.1 145.7 144.3 144.2 143.9 146.1 148.4 151.1 151.8 147.7 142 139.9 138.2 138.7 139.6 139.5 137.7 138.1 134.1 133.5 133 134.1 130.2 127.1 128.3 128.5 127 125.3 125.1 127.1 126.7 126.1 127.4 127.4 124.9 125.5 124 124.9 128 129.4 130.7 131.7 131.8 130.6 129.1 129.8 131.1 132.2 132.5 133.8 133.2 128.6 125.5 120.5 121.1 119.6 120.5 121.5 119.6 120.3 123.8 123 121.3
165.3 169.5 170.8 171.3 173.9 176.9 175.9 174.3 175.3 175.9 176.4 180 188 182 177.2 177 178.5 181.1 183.2 186.7 189.8 192.5 196.1 200 205 209.3 213.6 219.3 226.1 232.2 239.8 247 252.9 257.7 260 262.5 259.6 257.7 257 257.1 255 251.1 246.1 243.6 244.4 241.8 241.1 243.4 244.4 245.2 248.4 250.4 251.4 252.6 252.9 252 249.4 246.3 242.9 238.9 234.7 228.1 221.9 215.6 211.2 207.3 200.7 190.3 180.4 174 171.1 167.9 164.5 161.4 159 157.1 154.7 154.1 155.2 154.1 156.5 150.8 153.8 157.5 160.5 162.2 164.7 167.8 170.7 172.3 173.8 175.6 176.1 177.1 174.5 171.5 169.9 169.4 166.4 163.5 165.2 163.9 163.7 166.4 168 168.7 170.9 170.4 169.2 169.3 167.9 167.2 164.8 164.7 163.4 161.3 157.5 156.3 154.8 152.5 152.8 152.8 150.2 148.5 148.4 149.2 149.7 149.2 148.1 146.1 145.8 145.3 142.9 138.4 138 143.4 142.7 143.7 145.2 145.6 143.1 141.8 145.6 148.4 151.8 150.4 147.6 142.5 138.9 137.2 137 135.7 138.3 136.7 134.2 134.8 132.8 130.5 131 129 127.9 125.7 125 123.8 121.8 122.5 124.7 125.1 125.1 124.9 124.7 123 123.3 123.2 124.2 125.5 127.2 128.3 128.4 128.3 127.7 126.6 129.6 131.2 131 130.1 129 127 124.8 122.9 118 119.7 119.1 117.8 117.7 116.3 116.2 115.5 115.9 116.3
170.9 171.8 171.8 172.4 174.1 177.6 176 175.8 176.7 177.3 178.3 181.1 188 181.5 178.9 180.9 183.9 186.3 190.3 194.6 197.8 200.6 204.1 208.4 211.5 217.1 224.1 230.1 237.2 246.4 255.5 262.6 270.2 270.8 268.4 265.3 263.8 262.3 260.1 257.7 252.9 249.4 244.5 239.1 237.8 235.6 237.2 241.6 244.2 247.1 250.3 253 255.4 257.1 256.7 255.3 252.7 249.6 245.9 241.8 238 233.4 228.7 223.9 219.6 215.1 209.4 200.2 187.8 178.8 176.9 173.7 169.1 165.5 162.5 160 156.9 155.4 157.7 159.1 159.6 159.5 158.5 152.4 151.4 157.9 160.9 163.2 164.9 166.6 168.4 170 171 171.4 170.6 167.8 163.7 167.3 165.4 163.9 162.9 161.2 162.8 164 164.6 164.7 163.5 164.5 165.7 163.4 162.9 160.7 159.4 159.4 158.8 156.4 157.3 156.5 152.4 149.4 151.5 149.6 148.9 147 146.1 146.9 148.9 147.2 147.1 145.6 145.4 144.1 142.6 138.6 133.5 139.4 141.8 144.5 146.4 145.7 142.4 142.3 142.8 142.9 146.1 147.2 144.6 140.5 137.3 134.8 132.7 131.6 133.7 132.1 132.4 133.4 132.6 132.6 130.4 130.3 128.3 124 122.9 121.8 120.4 120 122.3 121.7 122.5 121.5 120.7 122.3 121.7 121.9 123.2 124.7 125.8 125.1 125.2 126 125.1 123.3 125.7 126.4 125.2 124.3 123.7 122.3 120.8 118.9 115.9 117.4 118.1 117.1 115.2 113.2 111.2 110.5 109.9 110.3
172.8 173.2 173.3 173.5 174.7 176.2 176.1 176.7 177.4 178.3 180.2 183 185.1 182 183.1 186.2 189.3 193.5 197.8 202.2 205.6 210.5 216.5 220.5 224.9 229.8 234.5 243.8 253 261.8 270.6 274.4 274.2 272.5 270.5 268 263.9 261.7 257.5 253.8 250.1 246.7 242.6 239 233.7 232.1 232.9 236.6 241.9 247.5 250.8 255.2 258.2 259.4 258.6 256.8 254.6 251.6 248.2 244.1 240.4 236.5 232.4 228.1 221.8 217.4 211.8 204.8 193.8 184.2 182.1 177.2 172.5 168.2 166.3 162.4 159.5 156.8 158.8 161.3 162.6 162 161.1 160.4 159.4 155.4 146 157.4 160 162.4 163.6 165.7 167.6 168.5 168.5 166.9 160.4 159.3 159.6 156.1 159.2 162.3 162.2 162.4 162.9 162.3 160.7 162 162.8 160.4 159.2 158.3 156.5 155.6 155.8 155.2 157.9 157.3 154.2 153.4 149.3 148.5 147.7 147.3 145.5 143.8 144.6 145.6 145.8 145.1 144.5 144.1 142.9 140.8 136.7 131.8 136.2 141.3 144 144.1 142.2 140.2 141.8 142.6 142 140.2 139.2 135.9 135.1 131.8 130.8 129 129.6 129.7 128.9 128.2 131.6 130.9 129.3 125.6 124.5 122.4 121.7 120.5 119 119.7 119.9 118.7 119.3 119.5 119.2 121.5 121 121.2 122.3 124.7 125.3 123.3 125.9 124 123.1 121.6 122.6 121.6 120.8 120.1 118.9 117.5 116 114.7 112.3 114.1 115.7 114.4 113.7 112.9 111.9 110.6 108.8 107.9
173.5 173.5 173.7 174.9 176.1 176.7 176.9 177.6 178.6 180.2 181.9 183.6 184.5 186 189 192.1 196 200.9 205.3 209.6 214.4 221.9 228.5 233.8 239.3 244.6 252 260.8 269.2 273.2 274.9 275.2 274.9 273.5 271.5 269 266.4 262.3 255.5 252 248.7 244.2 240.4 239.6 235.8 231.7 228.5 233.7 241 247.7 253.1 258.4 260.5 260.9 258.8 257.1 255.1 252.5 249.4 245.6 241.8 237.9 233.8 229.1 223.1 218.1 212.7 206.1 196.1 188.5 182.8 178.5 174.3 170.1 167.4 164.8 161.8 158.9 160.4 163.9 164.5 164.1 163.4 162.5 160.7 158.8 156.5 150.8 151.5 157.1 160.8 162.9 165.9 166.8 162.3 159 154.6 154.6 154.1 153.7 155.8 158.9 159.1 160.3 159.7 158 157.6 162.9 162.1 160.2 157.9 157.4 156.4 156.1 156.2 154.8 151 146.9 149.2 149.7 148.2 147.6 147.2 147.5 145.5 143.2 142.6 141 142.7 143.5 142.3 140.3 140.5 139.7 135.1 129.6 127.9 132.3 139.1 139.9 140.1 138.4 138.5 137.7 137.7 136.1 134.1 132.1 130.7 129.4 129.9 129.9 129.6 128.2 127.7 125.1 123.9 125.8 125.8 122.2 122.5 122.8 125.2 119.1 118.8 118.4 117.6 117.2 120.6 118.9 117.8 120 121.3 122.2 122.3 123 122.1 120.2 120.9 119.9 120.8 120.1 119 118 117.1 115.1 114.1 112.7 111.5 110.2 109.8 109.8 110.3 111.3 111 110.9 111 110.1 106.8 105.6
174.4 174.3 175.2 176.6 177.9 177 177.6 178.7 179.7 181.4 183.4 185.2 188.3 191.4 194.5 198.5 202.6 206.8 213.5 219.8 226.7 232.7 239.1 245.9 252.7 260.1 268 274.7 275.8 276.6 276.3 275.8 273.7 272.2 269.8 267.1 264.9 261.6 256.6 254 250.6 243.3 240.2 238.7 236.4 233.5 228.2 229.2 237.1 245.4 254.7 257.8 258.4 258.8 257.8 254.9 252.4 250.2 247.7 244.4 240.2 235.9 231.6 226.1 219.4 215.8 210.3 203.9 195.9 188.4 182.9 178.6 175 169.9 167.5 166.3 164.1 160.8 165.5 166.5 166.3 166.2 165.5 164.9 164.4 161.9 159.4 156.7 152.6 149 158.6 162.8 162.1 159.5 154.7 151.2 149.8 150.8 150.9 150.7 154.2 156.2 156.5 157.3 157.1 156.9 160.1 160.6 160.2 159.8 156.4 157.3 157.2 156 154.9 153.8 149.6 147 146.9 147 146.4 147.2 147.1 145.6 143.4 141.8 141.9 142.9 139.8 137.9 139.3 136.4 134.1 131.9 130.1 138.2 132.3 126.7 130.2 132.5 132.2 133.2 134.4 134.4 133.9 133.2 132.2 130.2 127.1 126.9 128.6 128.9 128.1 126.9 125.3 121.9 118.1 119.2 118.6 116.4 121 122.7 121.4 120 119.4 117.4 116 116.1 117.1 116.6 116.5 116.9 120.4 121.1 119.9 120.3 118.6 118.4 120.6 120.8 119.7 116.5 115.4 114.4 113.4 111.9 110.5 109.4 108.5 107.8 108.1 107.5 107.3 107.4 107.4 107.3 107.2 107.2 104.5 102.4
174.9 175.5 176.7 177.9 178.4 178.1 177.9 179.2 181.2 183.3 184.9 186.9 191.4 196 199.9 204.5 209.7 219.5 226.6 233.1 239.2 245.7 253.8 260.7 267.6 274.9 276.8 278.8 278 277.1 275.3 272.5 270.3 268.5 266.7 262.8 262.3 259.1 256.3 253.4 250.8 243 237.6 236.1 234.7 233.1 229.9 226.1 231.9 237.7 250.4 254.2 254.6 255.5 255.8 253.8 250.8 247.8 244.8 241.4 237.3 232.5 227.7 221.3 215.7 210.1 204.9 199.3 193.6 186.7 182.1 178.2 174.9 169.8 167.7 166.3 163.8 164.6 169.5 170.9 169.6 169 168.9 169.3 168 166 163.6 160.5 157.9 152.4 145.6 156 155.3 150.5 147.1 145.1 145 147.4 148.4 149.3 155 155.6 156.1 158.9 158.2 159.9 158.8 157.7 157.3 157.2 156.4 158.5 156.9 155.2 152.2 150.8 151 148.4 146.9 145.9 145.4 145.4 147.1 145.6 144.4 146.9 141.7 141.8 141.6 138.6 137.6 135.3 137.8 139.6 140 137.8 135.2 132.1 126.5 123.7 123.7 125.9 129.5 131.1 130 129.1 129 128.5 124.5 124.3 125.2 125.7 125.5 122.7 118.7 115.1 113.7 113.1 112.5 113.1 112.2 114.6 117.2 120.4 121.4 119.7 117.3 115.4 115.4 114.3 117.2 114.5 115.3 117.8 117.9 117.9 116.2 117.4 119.3 118.9 117.6 115.1 112.5 112.2 110.7 109.3 108 107 106.3 105.7 105.1 104.8 105.1 105 104.3 104.5 104.8 104.7 103 100.7
176.3 176 177.5 178.8 179.2 179.3 178.4 180 183.4 186.5 188.6 191.8 197.6 202.6 208.9 215.8 224.7 233.5 240.2 248.1 257.1 265 271.9 277 280 279.6 280.1 279.6 276.5 273.3 270.3 267.7 264.8 263.5 261.9 258 257.9 256.1 253.2 250.3 245.8 242.5 239.9 232.2 233.6 230.3 230.2 227 226.3 231.1 241.4 247.5 250.2 252.6 253.7 252.3 249.7 246.7 242.7 238.4 234.3 229.1 223.2 216.3 210.6 204.1 199.2 194 189.3 183.3 179.4 176.2 172.8 169.1 166.4 165.4 166.2 169.6 173.8 175.1 174.4 173.9 173.6 173.6 171.2 168.9 167.1 164.9 163.3 159.5 144.6 140.3 138.9 137.4 141.2 140.4 146.6 146.6 146.5 147.8 153.3 154.2 155.2 158.3 156.2 158.6 157.1 155.4 155.2 155.2 155.9 156.6 153.9 151.6 148.6 148.8 148.3 147.1 146.2 146 145.4 145.1 145.1 144.3 147.5 149.1 144.7 142.1 140.6 139.4 138.4 136.3 138.4 138.2 137.7 139.7 138.9 138.8 136.3 132.9 123.9 121.7 123.7 125.5 124.9 123.8 122.9 122.9 119.4 118.6 119 119.1 119.6 118.2 114.4 112.7 110.5 110.4 110.2 110.6 110.5 109.8 109.9 110.7 119.8 121.1 119.8 115.9 116 115.9 114.3 115.2 111.2 115.8 116.4 115.5 114.1 114.9 116.5 116.1 115.2 112.7 110.6 110.2 109.3 108.2 106.9 106.7 106.3 105.7 104.9 102.9 102.4 103.3 102.8 101.8 102.1 102.1 100.9 98.9
177.6 176.9 177.9 178.8 179 179.6 180.2 182.6 185.7 190.9 194.4 199.5 205 211.5 220.8 230.3 239.6 249.8 260 268.7 278.1 285.5 288.3 286.3 285 283.1 280.3 277.2 272.2 266.9 263.2 260.5 258.3 256.7 256.3 254 250.6 251.5 248.3 245.1 243.1 239.3 235.5 230.6 231.8 228.1 224.1 225.7 220 220.5 231.5 237.6 247 249.9 251.4 250.8 248.7 245.4 241.8 237.6 232.4 227.7 220.8 214.5 205.7 199 193.7 190.1 185.9 179.9 175.9 172.2 170.6 168.2 166.7 168.5 171.7 175.5 178.8 180 180.2 178.8 178.4 175.8 173.8 171.3 168.3 164.4 160.3 153.8 149.8 145.1 140 138.1 137.1 145 146.6 143.3 144.7 146.9 149.8 150.8 152.3 153.2 153 152.4 154.5 154.5 153.9 154.3 155.1 153.3 152.5 150.3 147.1 148.5 147.9 146.8 145.6 143.4 143.7 144.2 144.2 143 143 144.2 142.2 141.1 140.1 138.6 138.3 138.7 138.9 138.6 139.9 143.7 143 142 142.3 143.7 133.2 122 120.6 120.8 119.8 118.5 117.5 115.4 116.2 116.3 114.9 113.5 113.5 113.7 111.7 111.2 109.6 108.9 108.5 108.7 108.9 108.4 107.7 107.5 108.6 115 117.6 116.1 115.7 116.9 115.1 115.7 113.8 111.8 112.7 112.7 111.6 112.1 113.8 113.2 112.8 110.8 109.3 108.2 107.8 106.6 105.3 105.7 106.1 105.5 104.1 102.7 101.3 100.8 100.4 99.3 98.3 97.9 97.5 97.1
178 177.3 177.6 178.1 179 180.2 182.4 185.2 190.3 195.5 201.1 207.3 213.5 223.6 234.6 244.7 258.4 271 281.3 290 295 294.2 292 289.5 285.5 281.3 276.3 270.7 263.5 257.9 255.3 252.8 251.1 249.5 250.3 248.3 246.2 244.4 243.9 241.2 239.1 234.6 230.5 227.9 227.7 226.5 222.2 221.7 223.2 214.1 222.8 232.6 242.6 247.4 248.4 248.6 246.6 243 239.9 236.7 232.6 227.1 222.3 217.4 211 200.9 193.8 189.2 183.7 177.4 172.7 168.7 167.8 168.6 169 173.1 180.3 183.9 185.3 184.4 183.7 181.4 177.9 173.3 169.8 168.8 165 161.1 157.5 155.4 153.2 144.5 137.9 137.1 136.2 141.2 143.9 141.6 143.9 144.2 147.6 149.1 150 151 150.9 151.5 151 148.3 149.1 150.2 150.4 150.2 151.3 148.4 146.9 147 146.7 146.5 145.6 144.7 143.4 143.4 143.1 141.7 141.2 140.9 139.7 139.2 138.6 137.4 136.7 138.6 139.5 139.9 141.2 141.8 143.4 142.9 143.5 143.9 140.6 123.7 120 118.9 117.5 116.6 115.2 113.3 113.9 114.1 112.7 111.6 110.6 111.1 110.6 109.8 109.1 108.2 107.7 107.9 108 107.6 107.2 106.9 106.9 108.5 110.2 112.4 115.8 116.3 117 117 115.2 109.8 108.7 109.3 109.6 110.3 111.1 110.6 110 108.9 107.3 106.9 106.3 104.6 103.9 104.1 103.3 101.8 101 100.6 99.9 99.1 98.5 98 97.4 96.9 96.3 95.6
177.9 177.2 177.1 177.8 179.2 180.9 184.4 187.6 193.9 201.7 209.9 217.6 226.1 237.3 252 266.3 278.6 290.8 297.9 299.4 299.1 296.8 293.9 288.8 283.5 277.6 270.9 262 254.1 248.6 245.7 245.1 243.8 242 242.5 243.1 241.2 237 237.1 236.9 234.6 231.2 226.6 224.4 223.6 223.4 220.7 219.5 221.3 213.3 216.1 228.7 238.7 243.9 245.2 245.2 243.4 241 237.9 234.7 229.9 224.4 220.1 215.7 211 206.7 199.6 194.3 187.9 180.6 174.7 171.4 168 165.8 171.9 183.7 187.5 188.7 186.9 184.4 181.6 178.8 172.6 166.8 164.1 163.4 161.5 157.7 155.9 154.9 151 142.7 141.4 137 137.2 134.4 135.3 139.4 140.2 141.4 146 147.3 148.7 149.4 151.3 152.7 150.3 147.9 145.3 146.3 147.3 147.1 148.3 145.6 144.7 145 144.6 144.7 139.9 145.9 149.6 144.2 142.9 141.7 139.8 139.1 138.6 138.1 137.7 137.5 136.5 139.1 141.8 145.4 143.8 142.3 142 142.1 141.6 141.2 140.6 128.9 119.4 118.1 116.7 115.7 114.6 113.6 112.4 111.9 110.9 110.4 109.8 109.3 109.5 109.1 108.5 108.1 107.3 107.4 107.7 107.3 107 106.6 106.2 107 107.5 108.1 108.8 110.6 112.7 111.6 109.3 108.6 108.1 107.4 107.6 107.9 108.4 107.6 106.7 106 105 104.5 103.8 102.6 102 102 100.1 99.6 99.1 98.7 98.7 98.3 97.7 97.2 96.6 96.1 95.5 94.9
177.3 177 176.6 178.3 180 182.6 186.4 190.5 200.9 208.7 218.2 228.7 237.6 253.6 272.8 290.4 301.8 303.4 305.3 302.4 300 296.2 289.7 283.8 277.4 269.7 260.7 251.5 244.9 240.5 237.2 235.8 235.1 233.6 233.9 237.1 235.9 234 231.2 230.7 230.2 227.5 225 222.5 221.8 220.6 219.1 218.3 219.8 211.8 211.6 222.5 232.5 238.7 240.3 240.4 239.4 237 234.7 232.2 228.7 225 220.9 217.6 212.3 205.2 203.4 199 190.1 181.2 175.8 172.9 168.4 164.3 175 182.4 183.9 182.4 179.4 178.3 175.6 172.7 166.3 162.7 159.9 157.8 156.7 154.6 150.7 150.4 146.2 143.7 144.7 137 139.2 138 134.8 132.6 133.1 138.7 146.3 145.9 147.6 148.3 151 151.5 151 148.8 144.3 144.9 147.7 148 145.8 143.7 143.2 143.7 142.4 138.9 138.2 143.7 148.4 145.3 143.3 141.3 140.2 139.5 138.8 138.4 138.1 138.1 139 140.1 143.7 147.9 148.2 143.5 142 143.5 142.4 140.9 140.2 127.1 118.9 117.4 116.1 115 114 113 112 111.2 110.6 110 109.5 109.1 108.9 108.4 107.9 107.4 107 106.8 107.2 107.1 106.7 106.3 105.9 105.6 106 106.9 108.1 109.4 109.4 109.2 107.1 106.9 106.8 106.4 106.2 105.6 105.7 104.6 103.8 103.3 102.9 102.8 102.6 101.6 100.5 99.8 99.4 99 98.5 98.1 97.7 97.5 97 96.4 96 95.6 95.2 94.9
175.9 176.6 178.1 180.8 182.9 185.4 190 201.4 211.2 219.9 230.5 240.2 256.1 277 298 310.3 311.2 311.3 308.5 305.6 301.3 294.9 287.2 274.7 265.9 257.4 250.1 243.4 239.4 235.3 232.5 229.3 226.7 226.3 226.9 227.9 227.3 226.8 225.1 225.4 224.8 223.2 222.6 221.3 221.1 219.2 218.6 221.3 220.8 213.3 207.7 216.1 222.8 230.2 233.7 234.7 234.3 232 230.2 228.2 224.8 221 218 215.6 211.6 207.6 201.8 197.7 191.8 185.2 177.9 172.9 169 168.2 173.1 177.8 177.4 175.3 173.4 170.9 168.3 166.1 161.9 158.8 156.7 153.3 149.6 148.8 147.3 146.6 146.7 145.8 140 137.5 139.5 138.6 136.9 134 131.4 135.1 141.7 140.8 143.5 143.6 151 148.3 144.7 147.5 144.4 141.7 144.7 145 143 141.2 142.8 143.8 141.3 138.1 139.3 143.1 147.2 145.7 144.1 141.8 141.3 140.9 140.3 139.8 140.1 141.5 142 142.6 147.4 148 147.7 144.1 143.9 144.5 143.6 141.7 140.1 124 117.7 116.6 115.6 114.6 113.6 112.6 111.6 110.9 110.3 109.7 109.2 108.8 108.4 107.9 107.4 107 106.5 106.5 106.8 106.8 106.4 106 105.7 105.4 105.6 106.4 107.6 108.4 107.9 107 106 106.1 106 105.5 105 104.5 104 103.5 102.9 102.4 101.8 101.8 101.7 100.7 99.8 99.2 98.8 98.5 98.1 97.7 97.2 96.8 96.6 96.3 95.9 95.5 95.2 94.8
176.8 178.2 180.4 184.3 187 191.7 201.4 211.6 223.6 234.6 244.7 262.5 282 301.6 318.2 318.4 318.3 315 311.6 307.3 301.8 293.9 281.8 273.8 267.1 260.3 253.7 247.5 242.5 237.7 232.4 228.3 224 221.7 220.9 220.9 220.1 218.7 218.4 219.2 219.5 218.6 218.5 219.3 220.2 219.4 216.8 220.3 216.8 211.6 206.5 206.8 211.8 221.1 225.4 228.7 229 227.5 225.9 224.2 220.1 216.4 213.8 212 208.7 205 201.4 197.4 193.1 186 177 171.8 168 167 171.2 174 174 172 168.5 165.5 159.9 161.8 159.8 153.6 148 144.2 142.4 142 142.6 143.3 143.5 142.2 139.3 137.8 137.9 137.4 135.1 134.1 133.6 131.2 140.3 135.9 139.5 136.5 143.6 142.1 138.2 139.5 140.9 138 140.4 141.5 139.9 140.8 142.3 144.7 139.7 137.9 139.3 140.2 146.3 147 145.1 143.5 143.7 144 141.7 142.8 142.9 144.1 143.8 142.5 147.1 148.1 146.8 145.4 145.3 146.3 146.7 142.4 136 121.7 117.2 115.6 114.8 114.1 113.2 112.1 111.3 110.6 110 109.4 108.9 108.5 108 107.6 107.1 106.6 106.9 106.1 106.3 106.5 106.1 105.8 105.5 105.2 105.2 106 106.6 107.3 106.4 106.1 105.9 105.7 105.3 104.8 104.3 103.8 103.3 102.9 102.4 101.9 101.3 100.9 100.8 99.8 99.2 98.6 98.2 98 97.6 97.2 96.8 96.5 96.5 96.2 95.8 95.5 95.1 94.8
179.4 182.4 185.7 190.1 195.8 204.5 213.4 225.2 238.8 252.5 269.8 287.1 305.6 323.4 324.1 322.8 320.8 317.4 313.8 309.1 304.8 298.8 292.9 289.3 284 275.8 268 261.4 253.2 244.1 234.9 229.7 225.3 219.9 215.9 214.9 214 213.3 213.5 213.8 213.3 212.7 213.1 213.8 215.7 217.6 216.2 216.6 214.2 208.7 208.1 202.4 203.9 210.3 217.1 222.1 222.9 222.2 221.2 218.3 215.3 212 209.6 207.4 204.2 200.8 198.2 194.7 190.8 183 176.6 172.1 168.3 165.8 167 169.2 168.8 165.4 162.9 156.8 153.7 154.5 154.6 148.7 144.5 139.2 139.2 139.5 141.6 141.1 140.3 138.8 137.7 136.6 136.4 135.6 136.5 138.3 136.8 130.4 131.7 133.6 137.1 132.2 137.8 138.4 135.3 134.7 135.6 134.5 135.9 137 137.6 140 141.7 138.7 139.5 135.7 134.7 137.5 143 148.9 148.8 144.5 143.9 144.3 144.3 144.2 143.6 144.8 144.3 141.8 143.9 147 146.9 145.7 142 144.6 146.6 142.1 134.5 121.1 116.2 114.9 114 113.3 112.6 111.7 111 110.4 109.7 109.1 108.6 108.1 107.7 107.2 106.7 106.3 106.1 105.8 106 106.1 105.9 105.6 105.3 105.1 104.8 105.4 105.7 105.8 105.5 105.1 104.8 104.6 104.4 104.1 103.6 103.2 102.7 102.3 101.9 101.4 100.9 100.3 99.9 99.2 98.6 98 97.5 97.5 97.1 96.7 96.3 96.2 96.3 96.1 95.7 95.4 95 94.7
184.1 189.4 194 202.7 209.5 218.1 228.2 239.8 256.5 275.9 294.4 311.7 327.5 329.2 328.1 325.9 323.1 319.8 316.6 313.7 310.7 306.9 302.4 298.2 294.2 288.3 279.6 269.6 261.4 244 235.3 234.1 230.5 222.8 215.7 212.5 211.3 210.8 209.3 207.7 206.6 206.3 205.6 206.3 207.7 210.8 213.2 212.3 212.9 210.2 208.3 203.5 197.2 203.2 210.6 214.8 216.2 214.8 213.5 212 209.8 207.6 205.1 202.6 198.9 195.7 193.6 189.8 186.1 180.7 176.7 173.1 171.8 166.8 163.7 163.9 163.1 161.2 160.1 151.7 150 150.3 147.6 146.9 147.8 141.5 139.2 139.3 140 139.4 141.4 139.3 137.8 138.5 135.6 135.9 137.1 135.3 136.8 132.2 128.2 128.8 131.2 131.6 132.3 133.6 130.9 130.4 132 131.5 132.7 129.3 132.9 138.4 140.5 139.4 138.5 133.2 132.3 131.6 131.8 137.1 140.6 140.4 143.1 149 144.8 145.5 144 144.8 143.4 142.5 141.9 142.7 144.3 140.4 133.3 133.2 133.4 133 130.4 119.4 114.7 113.9 113.5 113.1 112.4 112 110.8 110.1 109.4 108.8 108.3 107.8 107.3 106.9 106.4 106.1 105.8 105.5 105.6 105.3 104.9 105.4 105.1 104.9 104.5 104.5 104.8 104.9 104.5 104.1 103.8 103.7 103.6 103.5 103.1 102.7 102.2 101.8 101.3 100.9 100.4 99.9 99.3 99 98.4 97.8 97.4 96.9 96.7 96.3 95.9 95.9 95.8 95.7 95.6 95.3 95.1 94.7
192.9 200 209.2 218.8 226.9 233.7 242.3 260.2 280.6 300.2 318.9 328 330.6 331 329.8 328.3 326.6 323.6 320.6 318 315.3 311.9 308.6 304.8 299.7 292.6 283.1 269.6 254.8 248.2 248.2 243.8 237.9 232.2 225.2 220.1 216.6 214.4 209.5 211.6 211.2 207.2 204 203.2 201.6 204 206.5 207.3 208.8 207.9 206.3 203.9 197.3 194.2 200.6 205.2 208.6 207.2 206.9 205.7 203.8 202 199.9 198.5 194.7 191.3 188.1 185.4 184 181.9 174.3 171 170.9 168.2 164.9 162.3 159.5 155.1 150.8 149.3 149.8 148.7 147.7 147.5 146.9 145.7 148.1 145.4 146.6 144.4 141.7 141.1 140.3 141.2 139.1 137.4 135.4 135.9 133.6 130.8 128.3 127.8 129.8 132.7 129.2 127 125.7 125.8 128.1 128.7 127.7 126.9 131.4 134.7 137.8 138.1 135.4 131.9 131.2 131.4 129.5 131 133.7 136.4 140.1 145.2 143.6 146 144.8 147 148.3 145.4 141.8 140.5 132.3 125.4 122.5 121.5 121.9 120.7 118.7 115.2 114.1 113.8 113.6 113.3 113.8 113.4 110.6 109.9 109.2 108.5 107.9 107.5 107 106.5 106.1 105.8 105.5 105.2 105.2 104.6 104.2 105.1 104.9 104.5 104.1 103.9 103.9 104 103.6 103.4 103.2 103 102.9 102.8 102.7 102.2 101.8 101.3 100.9 100.5 100 99.5 99 98.8 98.4 97.8 97.4 97 96.3 96.2 96 95.7 95.2 94.3 93.3 93.8 93 91.6
201.5 215.2 224.9 232.4 238.2 246.6 265.1 285.5 306.7 324.5 328.2 330.2 331.9 331.6 330.7 329.3 328 326.5 324.4 321.8 319.1 315.7 311.6 307.3 302.7 295.1 279 268 266.1 265.3 263.7 258.2 250.8 243.5 236.5 231.2 227 223.9 221.4 219 217.1 210.6 205.3 201.7 197.7 198.9 197.9 199.3 204.7 203.6 204.9 204.3 199.3 193.2 191.3 195.3 200.6 201.7 202.5 200.8 198.2 196 193.5 192.5 192.2 190.1 186.6 183.3 178.7 177.3 173.7 169.9 168.4 166.7 165.3 163.4 160.2 157.8 153 149.1 148.6 147.3 147.3 146.5 146.6 148.2 151.9 149.1 147 144.7 145.5 147.7 145.5 144.9 145.1 142.3 138.7 138.6 133 130.8 129.5 129.7 126.7 126.6 125.2 123.4 122.4 122.3 123.4 125.4 125 125.2 126.5 130.2 132.8 134.2 132.1 131.9 132 131.3 128.9 128.4 131 133.5 136.4 139.4 142 146.2 147.3 147.5 147.3 146.6 140.6 133.9 124.6 120.6 117.5 116.9 115.9 115.9 114.8 114.2 114.8 114.4 115.1 114.9 113.9 112.4 110.3 109.6 108.9 108.3 107.6 107.1 106.6 106.2 105.9 105.6 105.3 105 104.8 104.7 104.8 104.8 104.4 104 103.6 103.5 103.4 103.2 103 102.7 102.5 102.4 102.3 102.2 102.1 101.8 101.3 100.9 100.4 100.2 99.7 99.1 98.7 98.4 98.2 97.9 97.4 95.4 94.8 93.9 98.1 97.1 95.5 95.8 95 92 91.4 91.4
216 232.3 237.3 241.9 252.9 270.4 288.4 309.5 322.3 326 329.2 329.5 330.5 330.8 330.5 329.5 328.9 328.2 326.7 324.2 321.7 318.5 315.1 311.2 306.1 299.4 288.5 281.9 279.7 278 275 271.2 264.9 258.1 252.8 247.8 241.3 236.7 234.7 231 226.3 218.9 213.2 207.6 200 196.2 197.5 196.6 198.9 201.6 203.5 203.2 196.5 192.9 188.7 188.5 192.6 194.4 197.1 196 194.5 191.4 189.1 185.9 185.7 185.1 183.5 181.2 178 175.3 172.7 169.7 166.8 165 164 161.4 159.6 158 155.9 150.6 147.1 145.1 145.2 145.5 147.6 149.6 150 149.3 148.8 149.1 150.2 150.7 149 149.1 144.7 143.1 141.9 142 139.1 135.2 133.7 134.8 131 130.9 130.1 127.1 123.4 121.2 120.9 124.9 126 127.2 127.7 127.5 127.4 127.6 126.2 124.2 122.6 126.5 126 123.4 124.9 127.2 130.2 133.8 139.3 144.5 147.9 147.7 146.6 144.9 137.9 123.5 120.4 118.4 117.3 117.1 118.4 117.3 118.2 117.8 118 117.5 116 115.5 113.3 111.2 109.4 109.4 108.7 108.1 107.4 106.8 106.4 106.2 106 106 105.8 105.5 105.2 104.7 104.4 104.1 103.8 103.5 103.2 103.2 103.2 102.9 102.5 102.2 101.9 101.7 101.7 101.6 101.5 101.3 100.9 100.4 100.1 99.8 99.3 98.7 98.4 98.1 97.9 97.6 97.5 96.1 94.1 93.5 95.2 95.9 93.5 92.9 92.9 91.9 91.4 91.4
229.9 240.6 248.7 260.5 275.5 292.8 310.9 318.5 322.2 325.3 327.4 327.9 329.1 329.6 329.2 328.5 328 327.6 327.1 325.4 323.2 320.3 317.3 314.3 310.2 304.7 300.1 296.1 293.7 290.2 286 282.1 277.5 271.9 267 261.5 256.2 250.4 247.6 243.7 237.9 230.5 223.5 217.8 210.9 205.3 198 192.8 193.9 198 201.1 200.5 194.4 186.6 184.5 185.5 185.6 187.2 190.8 189.6 187.3 185.9 183.9 181 180.1 180.1 178.2 177.7 177.3 174.1 170.8 167.9 167.4 165.4 162.8 159.4 157.7 158 155.5 151.4 148.3 146.1 146.2 146.6 147.4 149.9 151.5 153 152.8 152.7 152.7 153 152.7 152.4 147.6 144.8 148.7 146.3 144.2 142.4 139.1 136.6 133.7 132.6 131.2 130.5 124.7 121.5 119.2 124.8 126.6 124.5 123.4 121.7 121.5 121.5 120.6 120.6 119.3 119.5 120.6 120.1 119 118.6 122.2 128 133.5 139.9 143.8 144.4 142.5 138.1 126.2 119.1 118.9 119.4 122.2 122 121.3 121.9 121.3 120.9 119.8 118.7 117.2 115.4 114.1 109.9 108.6 109.1 108.5 107.8 107.1 106.5 106.5 106.4 106.2 106.3 106.2 105.7 104.9 104.3 103.9 103.6 103.4 103.1 103 103.1 103.1 102.6 102.2 101.8 101.5 101.3 101.1 101 100.9 100.8 100.4 100 99.7 99.4 98.9 98.3 98 98 98 97.7 97.6 97.9 94.1 92.9 94.2 92.8 91.4 91.4 91.4 91.4 91.4 91.4
242.1 254.8 268.2 281.3 296.4 312 315.8 318.7 321.6 322.4 323.3 324.7 326 327.1 327.6 326.6 326 326 325.9 324.9 323.2 321.7 319.5 316.3 312.4 308.2 304.8 302.2 300.8 299.1 296.5 292 288.9 285.7 280.6 275.3 269.7 264.2 259.9 256.5 251.2 242.7 235.2 228.8 221.5 214.3 207.8 196.5 189.7 192.3 197.3 196.3 194.9 190.8 185.3 182.8 181.9 182.6 183.5 182.2 182.4 181.3 181.3 180.9 175.8 177.9 174.8 175.1 176.7 170.3 170.5 167.7 165.6 165.1 162.6 159.6 158.1 157.6 155.1 153.3 149 147.3 147.6 147.5 150.1 152.4 152.4 154.5 154.2 154.4 153.9 154.4 154.4 151.7 149 146.2 152.5 151 148.2 147.6 143.9 139.8 138.9 138.6 137.1 133.6 129.7 125 120.1 118.6 120.1 119.7 118.5 117.9 117.5 116.6 117.8 119 117.1 117.4 118.3 118.4 117.7 115.6 117 121 127.4 132.5 136.1 136.9 133.9 127.1 119.2 118.2 123.2 123.4 122.4 122.2 122.2 122.4 122 121.4 119.6 118.5 118.1 115 111.9 109.7 108.7 108.8 108.1 107.4 106.7 106.4 106.4 106.5 106.4 106.4 106.1 105.5 104.8 104.3 103.6 103.3 103.1 102.8 102.9 103 103 102.4 101.9 101.4 101.2 101 100.8 100.6 100.3 100.2 99.9 99.6 99.3 99.1 98.6 98.6 98.6 98.4 98.1 97.8 97.7 97.4 97.2 95.9 99.6 99.2 91.4 91.4 91.4 91.4 94.5 93.6
