ncols 200
nrows 91
xllcorner 340000
yllcorner 202850
cellsize 50
47.8 49.9 50.9 50.8 48.3 46.3 45.6 45.6 44.8 44 43.5 42.6 41.9 42 42.2 42.7 42.8 44.1 42.8 41.8 40.9 40.1 39.8 39.1 38.4 37.6 37.6 37.3 36.6 36.3 36.5 36.6 36.6 36.7 37.3 38.2 40.9 43.6 42.5 41.2 43.6 44.2 42.5 41.1 39.8 40 41.3 43.7 44.6 47.7 52.6 55.6 57.7 58.2 56.4 58.6 64.1 68.6 72.4 71.7 77.1 76.5 70.7 62.3 55.4 52.1 54.6 59.2 63.8 70 77.4 83.5 90.1 94.7 94.2 85.1 78.6 73.2 72.6 80.4 86.1 88.6 84.7 75.2 80.5 89.4 99.9 107.4 109.7 107.3 103.3 99 94.9 90.7 88.3 89.3 94.3 100.5 108.8 120 129.1 137.9 143 144.6 143.1 142 144.2 145.8 145 145.5 143.9 141.2 138.4 135 132.1 133.9 134.4 133.1 130.2 127.4 123.8 117.8 112.3 106.1 101.2 95.1 89.2 92.2 92.5 93.8 98.2 99.9 98.2 94.3 87.6 79.4 71.6 78.1 86 95.7 102.3 106.4 110.1 108.7 102.9 94.7 87.6 80.2 69.5 62.6 70.3 77.1 86.6 94.5 102.1 109.2 114.1 116.1 118.6 120.2 118 115.9 114.3 112.8 111 110.3 107.8 104.9 103.4 100.3 96.7 94.1 99.4 102.2 105 106.4 105.6 108 113.6 119.8 123 126.2 130.2 136.1 140.4 144.3 148.8 153.8 159.6 167.2 167.9 164.8 162.8 174.2 188.5 203.8 214.1 221.7 228.3 232.7
47.9 47.4 49.1 48.9 46.9 44.9 44.4 44.4 44.4 43.4 43.1 43.1 42.4 42.1 41.2 41.7 42.9 42.9 41.6 40.7 39.9 39.3 38.9 38.7 38 37.2 37.7 37.2 36.8 36.5 36.1 36.1 36.1 36.2 36.5 37.1 37.5 39.5 39 39.4 43.2 41.5 40.4 39 39.2 39.6 42.6 45 47 49.9 53 54.7 54.9 55 53.4 57.3 62.1 66.5 66.7 67.8 76.4 76.1 70.6 63 55.2 51.7 53.5 59.6 65.8 72.2 78.5 84.7 90.7 94 92.1 85.7 76.2 68.2 71.4 78.4 85.1 85.7 79.4 73.4 81.6 90.4 100.3 104 104.5 100 95.7 93.8 91.7 87.7 84.2 90.5 96.8 104.2 113.8 123.7 133.2 139.8 142.6 140.2 137.2 138.6 140.7 142.1 142.5 143.5 142.4 139.5 136.5 133.2 130.6 133.2 134.7 133.5 130.5 127.6 125 120.4 114.3 108.6 101.8 95.5 92.2 94.4 97.7 99 101 101.3 98.8 94.5 88.6 80.2 72.5 80.9 89.5 97.7 102.7 106.2 110 109 102.6 94.7 88.5 79.8 70.4 64.7 73 81.1 89.3 95 102.5 109.9 112.3 111.8 115.4 118.2 118.6 120.6 121.6 122.4 123.5 121.3 118 113.8 111.7 108.6 103.8 99.8 103.7 107.1 110.5 111 110 110.1 114 120.2 124.6 129.5 134 140.3 144.9 149.3 154.3 160.1 166.7 178.7 183.7 178.3 171.4 171.7 191.5 202.5 212.8 219.3 225.2 229.6
48.1 46.9 46.9 46.7 44.3 44.2 43.8 43.9 43.8 42.8 42.7 42.8 42.7 41.7 40.3 40.5 41 41.4 40.8 40.1 39.5 38.9 38.3 38.1 37.6 37.2 37.5 37.1 37.1 36.7 36.3 35.8 35.7 35.9 36.1 37 36.5 36 36.6 37.8 40.9 38.4 38.3 38.9 39.4 42.2 46.1 49.2 49.2 50.6 51.8 52 51.4 50.8 50.8 54.8 58.6 60.2 60 68.6 75.1 74.4 70.5 65.7 57 51.4 53.5 60.2 66.5 72.4 78.1 83.8 89.6 91 89.1 83.1 72.9 65 70.3 76.8 82.2 81.3 74.3 74.4 82.3 90.8 96.4 98.7 97.9 92.7 89.8 88 86.4 85.7 88.6 93.1 99.3 109 119.3 129.4 137.2 141.3 139.9 135.4 133 134.2 136.3 138.3 140.4 141.3 139.8 137.8 134.1 131.1 128.6 130.4 132.2 132.4 130.8 128.7 125.5 121.8 114.6 108.4 102.3 98.2 97.4 97.6 100.8 103.7 104 102.1 99 93.3 88.9 82.1 74.3 81.5 91.6 98 102.4 106.9 111 108.7 101.4 94.4 87.5 79 68 68.2 76.7 84.5 89.9 95.2 101.1 107.3 108.5 106.3 108.5 112.8 115.7 120 123.9 128.9 129.6 125.4 121.5 119.1 116.5 112.7 105.5 102.1 105.9 111.6 114.9 115.7 115.7 116.9 118.7 121.8 126.1 132.6 137.9 144.7 149.3 153.8 159.9 165.6 177.4 191.6 203.1 201.4 184 174.2 186 203.1 211.4 217 222.5 227.6
47.7 46.6 45.3 45.2 44.8 44.3 43.8 43.6 42.9 42.6 42.4 42 41.7 41.5 40.9 40.2 39.7 39.9 39.9 39.8 39.2 38.5 38.4 41.7 44.9 46.7 46.9 42.1 36.9 36.2 36 35.7 35.2 35.3 35.6 35.9 36 36.1 36.5 36.5 36.8 38 39.1 39.5 40.7 43.8 47.2 50.1 48.6 49.2 49.9 49.8 48.9 48.5 48.2 50.7 52.5 56.2 63.7 70.1 72.8 72.2 68.7 65.3 57.8 52 52.9 60 66.5 71.4 77.8 83.5 87 88.1 84.6 79.8 70.6 64.3 68.3 73.9 77.3 76.4 68.8 73.6 81 88.3 89.3 91.3 89.8 83 82.7 81.6 80.5 87.9 93.7 99.7 104.1 115.3 126.1 135.5 138.7 138.9 135.8 131.6 128.4 129.8 131.9 135.5 139.1 139.9 139.1 136.9 134.1 130.3 124.4 125.9 129.8 130.7 129.9 128.4 125.5 123.6 118.1 111.4 105.8 100.7 101.1 100.7 102 104.6 106.2 103.8 99.7 94.8 89.6 84.5 76.7 82.6 91.4 95.8 100.6 106.7 111.3 108.4 101.4 93.2 86.7 77.1 68.2 69.1 77 82.3 87.9 92.6 96.8 103.4 103.2 100 101.3 106.9 112.4 118.2 124.6 131.5 129.3 126.7 123.5 122.3 119.9 115.1 109.2 103.9 108.5 114.6 118.4 119.2 120.6 122 124.4 126.1 130.6 134.6 143 149 153.3 159.9 166.3 175.7 188.8 202.6 218.5 209.3 195.2 181.4 191.6 203.7 212.1 216.6 221.8 226.9
48.1 48.7 47.5 45.9 45.6 45.3 44 43.3 42.9 42.5 42.1 42.2 42.5 42.6 42.6 40.5 39.7 39.2 38.8 38.9 39.1 43.3 41.2 45.9 51 51.4 48 40.7 36.8 36.2 36 35.5 35 34.7 35 35.7 36.2 36.3 36.7 40.4 38.8 41.6 42.6 41.8 43 42.9 46.3 46.7 46.5 46.9 48 48.2 46.4 45.9 46.7 49.1 52.6 58.8 65.4 69.2 70 69.7 68.7 64.6 57.8 51.5 52.6 59.9 66.4 69.6 75.3 80.7 84.8 83.8 79.4 76.6 69.3 62.1 65.5 69.5 71.3 70.9 64.5 69.5 74.2 81.3 81.4 82.6 79.5 75 75.9 80.1 84.6 90.8 98.2 104.5 111.7 122.3 130.9 136.8 137.4 133.6 131.8 128.9 124.4 125.7 130.2 134.3 137.8 138.9 138 134.2 129.5 126 120.7 120.9 125.7 127.1 127.6 127.4 126.5 124.7 121 114.1 108.5 106.1 106.1 104.6 103.8 105.4 106.2 104.8 99.8 95 89.2 83.7 79.1 79.9 87.8 93.8 99.2 104.9 110.1 109 101.5 92.6 86.3 78.1 70.3 66.1 70.9 76.9 82.9 88 93 99.7 97 94.8 96.7 103 111.2 117.6 126.2 129.9 127.5 126.1 124.4 124.1 121.9 115.9 113.3 109.8 114.2 120 124.1 124 124 126.8 129.4 132.5 137.6 142.5 148.7 154.7 160.9 166.9 174.3 186.1 199.2 217.7 222.4 213.8 199.8 186.8 196.5 208 215.3 220.3 223.3 227.7
50.6 49.7 47.9 46.8 47.6 46.2 44.1 44 43.5 43.2 43.3 43.6 43.2 43.5 42.4 41.3 40.3 39.6 39.3 41.3 49.5 48.8 43.5 47.7 52 51 46.6 41.4 36.8 36.2 35.9 35.4 34.9 34.3 34.8 35.4 35.9 36.4 36.7 38.8 40.1 42.6 42.7 42.4 40.7 42.2 44 44.6 45.1 44.9 45.8 45.8 44.5 44.4 47.3 51.3 54.5 60.9 66.8 66.5 67.3 66.9 66.5 63.9 59.9 51.4 51.3 58.5 63.5 67.5 72.2 77.2 79.6 76.7 72.4 71.6 66.5 59.8 59.9 61.9 62.9 63.4 62.5 65.7 67.8 70.3 70.6 72.3 78.5 82.9 85.1 87.2 89.8 94.8 102.1 109.2 119 129.3 134.4 135.4 131.8 127.7 126.1 126.5 121.7 123.3 127.6 132 136.7 138.5 136.7 131.7 125.9 121.4 117.9 116.6 120.8 120.6 121.8 123.9 123.7 123.4 121.8 118 115.8 113.1 112.1 110.2 108.2 107.8 106.4 104 99.2 93.1 88.6 89.1 85.4 80.2 83.1 91.2 98.4 102.9 108.2 108.6 101.2 92.2 85.6 78.9 76.4 73.1 68.2 69.1 76.3 83.6 88.7 93.6 92.1 89.8 96.2 102.9 110.3 117.5 125.1 126 123.2 122.1 121.5 121.7 124.6 120.6 117.4 115 121.4 128 132 131.6 130.4 131.6 134.2 137.3 143.2 149.2 154.2 161.6 169.2 176.5 184.6 197.1 215.1 223.3 226.1 215.7 203.6 194.2 200.9 210.3 217.5 222.6 225.2 229
51.7 49.4 48.3 47.9 47.4 46.2 44.4 44.5 44.5 44.4 44.7 45.3 45.5 44.7 44.2 44.2 42.4 41.6 43.9 51.3 55.8 52.8 48 51.1 53.4 50.9 46.5 41 36.9 36.2 35.8 35.3 34.9 34.5 34.5 34.1 33.9 35 37.3 42 40.2 40.3 39.7 38.9 38.9 40.7 43.5 42.9 42.8 42.7 43.7 43 43.3 45.8 47.6 50.4 56.1 61.9 66.4 65.1 64.6 63.8 62.7 60.9 58 51.7 51.1 52.2 54.8 59.7 67.6 72.6 74.3 70.3 66.2 66.6 61.6 57.7 59.1 60.7 62.8 64.8 68.7 71.1 72.9 75 77.6 79.9 81.1 88.5 92.1 95.3 97.8 102 109.3 118 126.3 133.2 133.5 130.9 127.2 123.6 122.4 123.9 120.3 121.4 125.7 131.1 135.7 137.8 134.5 129.9 125.3 122.1 117.8 114.1 114.9 115.4 117.3 119.6 119.8 120.9 121 119.6 118.1 117.1 116.2 114 112.7 110.5 108.4 104.1 99.2 92.8 92.3 93.5 89.5 83.7 80.5 88.1 94.7 100.1 106 108.7 105 95.8 89.9 86.4 81.9 78.2 74.5 71.2 71.3 76.5 81.4 86.5 85.8 86 93.7 101.1 107.2 115.5 122.7 120.3 117.2 116.3 116.6 117.8 124.5 124.1 121.9 122.8 127.9 134.9 136.7 136.8 136.4 137.8 138.8 141.9 149.4 158 164.7 170.7 178.4 188.5 202 217.6 226 227.5 229.1 217.3 205.9 194.6 203.7 211.1 219.2 223.6 226.5 230.3
51.4 49 49.1 48.7 47.4 46 45.9 46.2 46.2 45.7 46 46.8 47.7 47 46.6 46.4 44 43.6 47.6 54 55.3 55.6 53.4 54.2 54.8 51.4 45.7 39.9 37.6 36.2 35.5 35 34.5 34.2 33.8 33.4 33.5 34.2 37 38.5 38 37.5 36.8 37 37.2 38.2 41.2 41 40.4 40.8 42 42.6 46.3 49.7 51.7 53.3 55.1 58.9 63.8 65.4 63.7 63.1 58.6 55.7 55 53.7 52 50.7 50.5 53.1 63.4 68.7 69.5 66.5 62.2 62.3 58.5 57 61.8 65.7 70.3 73.8 75.5 78.3 81.7 86.2 88.6 91.1 87.3 91.8 98.7 103.3 109.5 115.8 122.8 128.3 132.5 134.4 131.7 127.7 123 119.3 118.6 121 118.6 120.1 125.4 130.6 135.2 137.7 136.3 130.9 126.1 121.1 116.9 112.9 109.9 110.5 112.5 115.3 114.8 116.8 119.1 117.9 116.9 116.4 116.6 116.3 114.9 113.2 109.9 104.2 99.5 97.3 97.3 96.8 92.5 86 82 85.9 93.1 99.5 106.2 109 106.9 104.4 99.7 93.6 87.8 83.4 80.4 75 70.7 70.3 72 76.4 79.1 84.6 92 99.5 105.5 112.3 115.9 111.7 110.7 110.9 110.5 115.1 120.6 121.5 125.3 128.4 133.3 139 140.4 141.9 142 143.1 142.9 147.4 159 169.4 177.7 185 197.7 211.4 223.8 231.5 231 229.6 227.1 221.3 209.2 195.7 205.5 213.2 220.2 224.2 227.6 231.3
49.5 48.8 49.7 48.3 47.2 47.1 47.1 47.8 47.4 47 47.1 48.4 48.7 47.8 46 46.4 45.1 47.5 51.1 56.8 55.9 55.1 54.4 53.9 53.9 50.7 44.9 39.9 37.3 36 35.2 34.6 34.1 33.6 33.3 33.1 33.2 33.6 36.5 37.7 34.6 35 35.3 35.8 36.9 37.1 37.9 39.4 39 39.8 41.3 44.6 49.5 53 54.4 55.6 59 61.6 64.2 66.5 65.6 64.1 61.1 60.8 61.1 58.3 57 53.9 50.7 50.6 58.1 63.9 63.8 62.9 58.9 56.4 55.8 58.5 64.9 71.1 78.8 86.3 86.1 92 95.3 98.6 100.7 99.6 93.9 96.7 103.8 112.1 120.8 127.1 131.8 134.9 135 132.9 129.2 124.5 120.2 115.6 116.6 118.6 116 120.2 124.2 130.1 134.2 137.4 134.7 129.7 124.7 119.7 115.7 111.5 108.4 106.2 107.3 111.7 110.6 113.7 114.5 115 114.7 114.5 115.3 114.8 115.1 113.2 111.2 106.3 101.4 100.8 100.2 98.3 93.4 87.2 82.9 88.8 95.4 101.5 106.9 110.4 109.3 107.1 105.6 102.4 95 88.7 84.2 76.7 77.8 77 77.5 72.6 74 81.1 89.6 96.5 103.1 107.1 107.5 104.1 105.2 105.8 106.7 110.8 117.6 117.2 124.3 130.7 135.9 142 146.1 148.4 147 150.2 152.8 157.4 169.9 180.5 193.6 206.4 216.2 225.2 235.7 239.1 235 232 228.7 221.1 210 196.7 205.4 215.7 221.1 224.3 227.9 231.5
50.9 49.5 49.8 48.7 47.9 47.5 47.9 49.1 48.4 48.4 49.2 49.9 49.2 47.3 47.3 48.2 48.6 53.4 56.6 56.7 55.6 54.4 53.7 53.2 52.7 50 44.5 40 38.2 36.7 35.1 34.4 33.9 33.5 33.1 33.1 33.2 33.4 35.9 34.2 34.2 34.7 35.1 35.5 37.9 39.2 39.2 39.6 40.7 41.3 43.1 47.2 53.4 57.2 57.5 57.6 62.2 65.5 67 69.1 69.7 69.9 69.4 68.6 66.4 63.3 60.6 56.8 51.6 50 53.8 59 58.3 57.1 54.7 54.7 58.2 63.8 70.1 79.6 89.2 97.1 101.2 104 104.9 106.9 107.5 105.9 101.7 104.5 110.8 118.9 126.6 131.9 135.9 136.4 133 130.9 129.1 125 120.8 115.5 112.2 114.1 111.4 117.3 122.5 129.5 133.7 137 133.2 128.3 123.3 120.3 117.2 113.2 111 108.1 105.7 104.2 107.2 110.7 110.3 110.1 110.3 111.3 112.9 113.9 114.4 112.6 111.8 106.9 104.7 103.8 102 98.4 93.4 88.4 83.1 89.2 95.2 100.7 106.4 110.7 111.3 109.9 107.8 105.6 100.6 94.4 86.1 78.7 84.2 85.8 85.8 83.8 78.6 76.6 83.4 92.2 96.7 99.8 99 97.2 99.6 101.5 103.1 106.7 111.9 119 127.7 132.1 138.5 145 152.6 158.1 158.8 162.8 168.9 174.3 185.9 199.7 210 221.9 229.4 235.3 240 241.6 236.9 233 229.2 221.2 214.1 202.9 209.3 216.5 221.2 223.8 227.4 231.4
54.4 53.3 52 50.7 49 48.3 48 48.8 49.6 50.4 51 50.6 49.8 49.6 50.4 51 52.6 56.3 56.8 54.9 54 53.1 53.6 52.8 51.5 49.9 44.6 40.3 38.5 37 35.8 34.8 33.8 33.4 33 33.1 33.3 33.4 35 33.3 34 34.4 34.9 35.3 38.4 41.9 42.4 42.6 42.8 45.3 45.5 49.2 54.1 57.3 57.8 58.3 62.1 66.4 68 71.7 75 75.7 74.8 71.8 66.4 62.6 59.1 52 49.5 49.9 50.6 54.4 53.2 53.2 55 59.1 63.7 70.3 79.1 88.5 96.1 102.2 107.3 109.6 111 111.9 111.5 110.6 109.7 112.5 118.7 124.9 130.6 136.2 137.4 134.1 129.5 128.8 127.5 124.3 119.8 116 111.7 109.7 110.2 115.5 121.8 129.6 134.7 136.3 131.9 127.4 124 120.7 118.9 115.4 111.5 109.4 107.6 103.3 102.8 106.3 107.5 107 108 110.7 111.7 114.4 113.7 112.9 112.1 109.7 107.7 105.8 102.4 97.7 93 88.5 85.9 87.5 93.7 99 104.9 109.4 111.9 110 107 104.6 102.1 94.5 86.2 82.1 87.3 92.5 94.8 89.8 82.3 79.8 77.7 85.8 89.1 91.7 92.3 92.8 95.6 99.2 103.8 109.5 114.5 123.3 129.7 134.9 141.3 149.8 158.5 166.3 170.7 178 185.5 194.9 203.8 213.6 224.2 232.6 239.5 242.1 242.3 239 235.7 232.9 227.4 223 216 205.4 209.8 216.8 221 223.7 227.5 231.4
60 57.5 54.4 53 51 49.7 49.1 49.4 52.3 54.3 55.6 54.9 54 52.6 52.8 53.1 55.1 55.9 54.1 52.9 52.7 51.5 52 51.5 49.4 47.2 43.6 40.2 38.3 37.2 36.7 35.6 34.6 33.5 33 33.1 33.3 33.5 34.3 33.7 33.7 34.2 34.7 36 38.4 41.5 44.3 44.9 45.6 47.8 48.2 50.7 53.4 54.8 55.2 59.7 63.4 67.2 70.9 75.2 79.4 79.9 77.5 72.1 66.2 60.9 54.3 49.3 49.5 49.8 50.9 51.9 54.2 57.5 59.7 65.3 70.8 78.6 87.4 93.4 100.6 105.2 109.6 111.9 113.6 114.8 115.7 115.7 116.5 118.4 123.2 128.8 134.2 137.5 134.5 130.9 124 122.8 124 123.1 120.2 117.5 112.5 107.1 109.9 115.3 123.3 130.9 135.7 136.8 133.3 129.5 125.6 121.5 117.5 115 111.9 109.7 107.8 104.8 101.2 103 104.7 104.2 105.9 107.9 109.3 111.9 112.8 111.5 110.9 109.9 107.7 104.6 102.6 98.1 91.7 87.1 90.5 90.3 96.5 101.5 106.6 110 111.7 109.9 106.5 103.6 98.9 89.7 85.1 86.7 90 95.5 98.8 96.1 87.1 81.4 77.3 83.1 86.4 89.5 90.4 91.8 96.8 102.5 105.9 110.8 117.6 125.1 130.9 136.2 144.1 154.3 163.7 173 181 194 202 208 217 226 235.4 240.6 244.8 243.3 241.7 237.6 234.8 231.3 227.5 221.9 213.6 204.7 210.5 216.8 220.4 223.1 226.8 229.8
63.8 60.6 57.5 56.4 53.8 52.6 50.9 51.8 55 59.6 60.1 57.6 56.7 54.7 53.1 53.6 53.7 52.8 52.2 50.4 49.8 49.5 49.3 49.1 47.4 45.6 42.1 39 37.8 37 37.1 36.5 35.4 34.4 32.8 32.8 33 33.2 32.9 33.5 33.6 33.8 34.4 35.8 37.7 40.5 43.8 47.3 48.4 48.5 49 48.9 49.8 51.4 55.1 60.8 63.9 63.2 68.4 76.6 82.3 82.1 78.3 71 62.8 59.5 52.8 49.1 48.8 49.5 53.9 60.3 65.6 69.2 70.3 73.9 79.1 85.7 93.4 99 102.2 104.9 107.9 111.3 114 117.1 118 118.6 119.2 121.4 125.4 129.5 134.6 136 133.4 128.1 119.9 115.3 118.4 120.5 119.3 116 111.2 104.4 110 117.4 126.6 133.3 137 137.2 133.3 129.3 124.1 118.9 113.7 111.1 110.5 109.1 107.1 104.9 101.1 99.2 101.6 102.9 103.9 104.3 106.7 108.1 108.4 108.6 109.1 108.8 106.7 103.6 99.8 97.4 90.5 90 93.6 96 96.2 103 106.3 108.7 111.1 109.9 106.7 102.6 98.1 91.4 92.6 92.2 93.2 98.5 99.4 96.2 90.8 81.2 80.7 86 89.6 95.2 97 95.2 95.3 102.6 105.1 109.5 117.3 125.7 132.3 138.8 146.9 157 167 177.5 190.3 203.6 212 220 228 238 242.4 243.6 244.8 244.2 240.6 236.5 233.4 229.8 225.7 220.4 212.2 206.4 213.7 220.5 222.5 224.5 226.8 229.8
66.5 63.6 61.8 59.5 56.5 54.2 51.5 54.1 58.2 63 60.9 58.3 55.3 53.2 51.5 50.1 50.6 50 48.3 47.5 47 47.1 46.9 46.3 46.1 44 40.6 38.6 37.2 36.9 37.4 37.1 36.3 34.7 32.6 32.4 32.6 32.8 32.3 32.4 33.1 33.5 34.6 35 37.3 39.6 43.2 47.2 47.7 47.6 47.6 47.7 47.9 49.3 53.3 57.6 57.2 62.2 69.6 78.6 83.7 83.2 78.4 70.9 62.1 58.3 53.7 50.5 49 49.1 55.5 63.5 72.5 77.3 79.2 81.2 85.1 90.8 97.5 99.3 99.3 101.5 105.8 109.8 114.9 118.6 119.4 118.9 119.6 120.6 123.5 128.3 132.7 134.7 131.4 126.1 118.2 110.6 114.3 117 116.4 112.3 108.1 102.5 112.8 121.1 129.1 134.8 137.5 136.7 132.7 126.7 121.2 116.1 111.1 107.6 107.8 108.1 106.6 104.4 101.3 97.9 97.6 99.6 100.9 101.9 103.5 104.2 105.1 106.8 108.9 108.2 105.9 103.8 101.4 96.3 91.1 97.3 100.6 101.5 100.1 99.8 102 106.3 110 110.1 107.1 103.8 101.2 97.1 102 99.3 99.4 101.3 98.7 94.5 88.3 79.6 87.4 90.4 94.1 99.1 103.6 103 99.6 102.3 105.4 111.4 119 125.6 132.4 139.8 150 160.1 170 183.2 196.3 210.8 221.3 230.4 239.1 243.3 244.3 244.1 244.7 241.1 238.5 235.6 232.1 228.4 224.5 219.2 213 207.7 217.2 222.7 224.7 226.2 227.9 230.9
67.8 66.4 64.5 60.8 56.9 52.6 52.8 57.5 62.4 59.9 56.7 54.1 52.2 50.7 49.5 47.4 47.5 47.6 45.8 45 44.4 44.7 44.4 44.3 43.9 42.1 39.2 37.6 36.6 36.3 37.3 37.3 37.2 34.8 32.4 32.3 32.1 32.1 32 32 32 32.9 33.8 34.9 37.4 40.2 44.2 46.6 46.6 46.4 45.5 45.6 45.1 47.1 50.4 52.3 58.7 67.1 76.3 83.4 85.6 84.8 79.9 71.5 64.9 60.1 56.6 53.4 48.7 48.8 55.5 66.2 75.8 81.5 81.9 83.8 87.5 92.7 95.6 95.8 92.9 98 104.2 111.3 115.3 117.9 118.3 116.7 115.5 116.6 121.3 125.8 131.3 132.9 130.4 124.6 115.6 107.8 109.4 113.7 112.2 108.2 103.8 104.2 115.5 123.4 130.4 134.5 137 136.2 131.7 125.2 118.7 114.1 109 104.7 104.9 105.8 104.9 102.5 100.8 97.8 94.7 97.9 98.6 98.7 99.6 101 103.1 106.1 107.3 107.6 106.9 104.6 100.7 96.3 93 101.5 105.1 106.1 106.6 106.2 105.4 106.6 110.2 111.3 110.4 107.9 105.7 102.2 105 106.8 108.2 104.5 97.7 91 85.3 85.5 92.3 95.2 98.5 102.4 108.1 110.3 108.8 111.2 113.2 116.6 121.3 126.3 131.9 139.5 149.4 160.4 173 186.5 201 215.6 227.3 239.9 242.6 245.4 245.8 245.4 243.9 240.8 236.8 234.2 230.9 227.5 224.1 221.3 214.6 209.3 219.3 223.9 226.6 227.6 229.2 230.7
69 68.9 66.6 61.9 57 54.4 56 58.3 61.4 58.8 55.4 52.3 49.4 46.7 45.6 44.8 44.8 44.7 43.7 42.9 42.4 42.5 42.6 42.7 41.8 40.1 38.4 36.7 35.7 35.2 36 36.7 36.5 35 32.6 32.1 32 31.8 31.6 32 31.9 32.5 32.5 35.8 38.4 41.4 44.5 45.2 44.4 43.4 42.4 42.5 43.6 46 49.8 54.7 62.8 72.1 81.4 85.6 88.4 84.5 78.6 71.2 64.3 58.4 54.6 53.1 49.3 48.8 57 67.3 76.1 77.9 78.9 80.4 83.2 87.4 90 90.2 89 95.9 104.5 112.4 116.3 117 116.3 113.8 111 112.9 120 125.4 130.3 130.7 128.3 122.2 112.4 104.9 105.5 109.2 107.8 102.5 101 107.4 117.7 124.8 129.9 133.9 136.3 135 129.2 121.5 116.1 111.6 107.4 102.8 101.7 101.7 101.6 101.3 99.2 96.3 93.4 96 96.5 96.5 98.6 101.2 103.3 104.8 106 107.3 106.9 104.2 99.9 95.7 95.3 100.6 106.4 109.3 111.6 112 110.3 108.3 111 113.1 113.4 112.5 109.6 105.1 106.5 108.1 110.1 105.3 97.2 90.8 86.5 86.2 94.8 101 103.1 106.7 111 112.3 111.6 113.4 116 118.6 121.7 126.3 131.8 138.7 146 160.2 173.4 188.7 202.5 217.9 230.7 239.7 244.4 247.2 246.4 245.1 242.3 238.9 235.4 232 228.3 226.4 224.5 220.6 214.4 215.4 218.7 222.2 226 226.7 229.3 230.7
69.7 70.2 67.3 62.6 57.7 58.2 59.3 61.3 62.3 60.7 58.8 56.7 55 50.3 46.8 43.7 41.9 41.6 41.6 41.2 40.5 40.7 40.2 40.5 40.7 39.8 39.1 37.6 35.9 34.4 34.9 35.7 35.9 34 32.2 31.8 31.9 31.8 31.6 32.4 32 32.9 34.8 37.8 41.2 44.4 45.3 43.2 41.5 41.2 40.6 42.4 45.7 48.2 52.1 57.9 67.3 77 85.4 89.1 90.7 85.6 78.3 68.8 60.9 56.1 52.5 49 48.1 50.8 58.6 67.3 73.7 72 71.4 73.4 76.3 79.4 82.1 82.9 87.1 96.1 106.7 113.2 116.2 115.9 111.6 108.1 106.1 111.3 119.1 124.2 128.2 128.9 125.8 119.6 111.1 102 99.7 105 102.6 95.9 104.1 112.6 119.9 125.8 129.5 132.8 135.3 132.4 125.9 118.5 113.4 110.4 105.2 101 98.8 97.2 96.7 96.3 96.9 94.3 92.2 94 94.7 96.3 98.7 100.4 102.4 103.7 104.8 106.4 106.3 104.1 100.6 97.8 97.2 102.1 106.7 109.7 112.7 115.2 115.3 113.6 113.8 115.7 116.5 114.6 111.5 107.8 109.8 110.7 109.9 104.2 95.7 89.9 87 87.1 88.9 96.7 99 103.6 109.7 111.8 109.3 111.2 113.3 117.5 121.6 126.5 131.7 138.3 142.2 157.3 170.9 183.6 202.7 221.5 234.7 241 246.1 247.4 246.3 243.8 240.9 236.5 233 229 226.4 225.1 221.8 217.6 215.6 219.3 221.5 223.3 224.4 226.2 228.3 230
69.4 69.8 66.9 62.2 58.8 59.6 61 63 64.5 64.8 64.7 61.5 57.4 53.1 49.2 45.2 42 40.1 39.9 39.6 39.5 39.2 38.3 38.4 38.6 39 39.8 38.5 36 34.3 33.8 34 34.3 33.2 31.6 31.5 31.6 31.7 31.5 32 32.6 35.7 38.3 39.3 41.1 42.7 43.4 42.2 39 38 42.3 44 47.7 52 56.1 62.5 71.1 81.9 88.4 91.8 92.4 86.7 77 67.9 63.7 58.4 52.5 48.3 48 53.2 59.2 64.3 65.8 62.9 61.1 62 65.1 69.3 74.3 81.2 90 98.7 108.1 114.2 116.2 112.8 107.7 102.1 102.9 108.8 115.8 122.5 126.5 126.8 122.5 116.5 108.8 99.5 94.5 98.4 95.5 100.3 108.9 116.5 121 125.3 128.9 132 133.3 130.3 124.3 118.3 115.9 111.2 105.2 102.3 99.4 97.1 95 92.8 92.2 92.3 90.9 91.2 93.3 94.9 96 98.6 100.9 103.2 105.1 106.8 107.1 105.5 101.1 101.2 98.8 103.6 107.7 111.2 115 117.4 118.8 117.1 118.1 120.1 120.4 118.2 114.4 111.4 112.2 111.1 108.3 101.2 93.6 89.9 90.6 90.7 91.3 94.3 93.1 99.4 106.1 109 107.4 109.3 112.6 117 121.6 126.3 131 136.8 143.2 154 168.4 182.5 201.5 221.6 234.3 244.2 246.7 246.6 244.8 242.5 239.2 235 230.3 226.6 224.2 222.5 221.7 216.8 219.8 221.7 223.2 224.1 225 225.8 227.6 229.5
68 68.4 66 61.3 56.5 57.7 61.4 61.6 62.4 64.2 65 60.8 55.9 51.2 47.2 44.1 41.8 40 38.4 38.3 38 37.7 37 36.7 36.6 37.1 38.5 37.6 36.6 34.8 33.2 32.5 32.2 32 31.6 31.5 31.5 31.4 31.5 31.9 33.3 36 38.6 39 39.2 39.4 39.3 39.2 37.4 40 44.4 47.1 51 57.7 64.7 69.1 78.1 87.9 92.4 96.1 94 90.9 85.1 75.9 70.6 60.5 52 47.2 48.2 51.5 56.1 57.8 54.6 53.7 59.2 64 68.3 73.6 78.6 87.1 95.8 105.3 111.1 115.8 114.8 109 102.2 97.3 103.4 109.8 116.2 122.2 125.6 123.3 119.1 113.5 106.6 98.7 91.1 90.9 98.1 105.4 112.7 117.1 120.2 123.7 127.7 130.8 131.2 127.8 123.7 121.7 116.9 111.2 105.5 103.3 100.8 97.2 94.7 92.2 90.3 89.6 89.5 90.3 91.7 94.2 97.2 99.6 100.7 103 104.9 106.5 106.9 106.7 103.8 103.8 102.1 105.3 111 114.4 116.9 119 121 122.2 122.7 125.1 124.1 122.9 120.9 118.2 116.2 112.6 107.8 99.4 93.8 93.7 94.3 94.7 95.1 97.8 100 97 102.6 104 106.1 109.3 112.8 116.7 121.4 126.1 130.9 135.9 142.2 148.2 166.1 176.4 194.1 215.6 234.1 244.1 245.4 245.8 244.3 241.2 237.7 233.2 229.6 227.3 224.2 220.9 218.5 219.5 221.7 223.5 224.7 225.2 226.2 227.1 229.7 231.4
66.4 66.6 64.7 60 55.5 55.2 58.5 58.4 61 65 63.8 58.4 53.3 49.7 46.5 44 41.8 39.9 38.6 37.1 36.5 36.2 35.7 35.3 35.1 36.3 36.7 36.3 35.1 33.9 32.3 32 31.8 31.7 31.6 31.5 31.5 31.4 31.4 32.2 33.1 35.2 37 37.4 37.4 36.1 36.1 36.7 38.4 40.9 44.5 47.8 52.3 60.6 68.3 77.2 85.9 92.4 96.2 98.9 98.8 94.9 89.2 82.5 71.7 63 55.4 48.1 46.7 47 49.8 50.2 50.9 56.3 64.6 72.6 79.4 83.4 91 98.6 104.9 109.8 113.9 114.4 112.2 106.4 99.7 95 101.7 108.4 115.7 121.5 121.9 119.4 114.6 108.8 102.6 95.5 89.1 95.1 102.3 108.6 113.2 115.4 118.2 122.3 126.2 128.7 128.8 127.6 125.8 121.3 115.8 110.2 107.5 106.7 103 99.3 94.2 91.7 89.6 88.2 88.7 89.8 91 93.4 97.1 98.6 99.5 101.5 103.9 106.3 108.7 109.2 108.7 107.8 105.1 104.6 112.2 116.4 120.1 123.5 125.3 127.1 127.7 129.6 129.5 128.7 127.9 125.4 121.5 114.3 104.6 104.1 105.2 97.1 98.8 99.1 98.8 100.5 102 98.2 98.8 102.5 105.4 108.8 112.9 116.7 121.3 127.2 132.8 136.8 142.7 150.9 162.2 172.4 188 207 228.2 242.9 246 246.5 244.4 241.7 238.2 234 231 227.9 225.2 222.5 220.8 220.5 221.6 224.9 225.6 226.4 227.4 228.4 229.6 231.6
63.5 63.5 63 59.2 54.4 50.7 56.9 55.8 58 64.1 61.5 57.3 54.4 51.1 47.7 44 41.4 40.1 39 37.7 36.9 36.6 35.6 34.7 34.3 34.8 34.6 34.4 33.3 32.4 32.1 32.1 31.9 31.7 31.7 31.6 31.5 31.4 31.4 32.3 32 33.3 34.4 34.4 35.6 34.6 36.1 37.5 39 40.9 44.1 47.8 51.8 57.3 65.9 83.7 90.5 97.5 98.9 98.7 98.4 94 89.8 82.5 74.8 67.9 61 52.7 46.8 46.3 46.2 47.3 49.8 58 66.5 76 85.3 93.1 99.6 104.3 108.5 111.7 113.1 112.7 108.4 102.3 96.7 95.1 102.7 109.7 116.4 120.2 119.9 114.6 109 104.2 97.6 90.9 91.3 98.5 104.9 110 111.2 113 117.4 121.5 124 126 127.3 127.1 125.1 120.2 114.6 110.7 110.9 110.4 105.4 99.2 93.5 90.4 88.2 87.2 89.4 90.4 91.4 93.4 95.4 97.4 100.1 102.8 104.9 108.2 110.8 111.9 112.2 111.2 108.7 107.6 113.7 118.5 123.5 126.3 129.4 132.2 133 133.8 134.6 133.9 133 130.1 126.6 121.1 112.5 112.4 110.7 103.1 103.7 102.3 102.8 103.8 104.8 101.9 99.9 101.1 103.9 107.9 110.8 114.3 119.6 125.8 132.3 138 145.3 152.1 162.5 177.5 192.3 208.8 224.5 242.9 247.1 248.9 247.6 243.9 240.3 236.4 231.9 228.7 226.9 225.3 223.4 222.2 222.4 224.5 225.3 226.8 228.1 228.8 230.3 231.9
61.1 60.4 60 58.4 54.1 49.5 56.1 53.2 57 62.9 61.8 58.1 56.1 52.3 48.1 44.7 42.2 41.8 40.8 39.6 38.7 38.3 37.5 37.1 35.4 34.2 33.4 32.6 32.4 32.6 32.4 32.4 31.8 31.8 31.7 31.7 31.6 31.5 31.3 32.3 32.7 32.6 32.3 33.6 35.7 36.8 38.5 39.8 41.5 41.3 44.5 48.3 53.6 60 69.9 85.1 92.9 101.7 100.9 97.6 93.5 91.2 87.8 84.1 77.4 71.2 64.5 56.9 52.1 49.3 46.7 46.5 50.2 59.2 68.2 78.4 88 97.4 103 106.7 109.4 111.7 111.8 110.2 105.3 99.2 92.6 95 102.5 110.3 116 119.2 116.5 110.7 104 97.6 92.3 86.6 95.1 102.4 106.7 109.2 107.9 110.9 116.4 119.3 121.4 122.9 125 126 123.5 119.4 115.4 114.4 113.8 110.2 104.4 98.7 93.9 89 86.5 87.4 89.9 91.8 92.8 94.9 97.7 100 102.3 106.7 109.5 112.3 114.7 116 114.6 116 113.8 111.8 116.4 120.6 125.6 129.2 132.4 135.8 138.4 139.7 140.4 139.1 138.2 135.7 133.4 127.5 123 119.1 112.5 110.1 108.5 107.1 106.7 106.8 107.8 105.6 103.4 105.1 107.4 112 113.9 119.3 121 124.6 128.3 135.9 143.8 152.6 164.9 181.5 195.6 209.8 225.9 243.3 249.7 252.7 251.6 247.4 243.6 239.3 234.1 230.1 228.6 226.3 224.5 224.1 224.4 225.1 226.1 227.2 227.8 228.7 229.5 231.1
59 58.3 57.7 56.7 53.2 49.7 53.2 51.4 56 61.6 59.8 58.7 56 52.3 48.6 46.4 45.8 44.9 43.2 41.8 41.3 40.7 41.3 40.7 37.7 35.6 35 34.5 34.2 34.2 33.3 32.2 31.6 31.9 31.8 31.7 31.5 31.3 31.2 32.2 32.2 32.6 32.9 35 39.7 40.6 41.7 44.4 46.2 45.2 47.4 52.2 56.9 64.6 74 86.5 96.3 101.6 99.4 94.9 90.6 85.8 83.5 82.4 79 73.8 68.7 63.8 57.5 50.1 46.3 45.9 51.6 59.6 69.6 80.2 91 99.9 103.8 104.9 107.5 109.5 110.4 107.2 101.5 96.2 88.4 94.2 102.2 109.7 115.2 117.9 112.7 105.8 98.8 92.4 85.8 91.7 99.2 104.7 107.5 106.5 105.4 109.2 113.9 115.6 117.9 121.2 124.3 124.4 123.5 120.1 116.3 113.8 110.5 106.9 102 96.1 91.5 87.5 86.2 88.7 90.9 92.9 94.8 97.3 100 103.7 106.5 109.9 113.5 116.7 118.8 119.8 121.6 120.9 117.7 117.4 121.1 124.6 129.5 134.9 138.8 141.4 144.1 145.7 147.2 145.8 144.7 144 139.6 134.2 129 122.1 117 114.8 113.8 111.9 111.9 111.3 111.7 109.3 107.5 109.6 110.3 113.3 119.2 123 128.6 133.3 138.6 143.6 152.5 161.8 172 186.3 200 213.9 230.7 244.3 251.2 254.4 255.4 252.4 248 242.7 237.5 232.9 230.1 227.5 226.6 226.7 227 227.6 227 227.6 228.2 228.7 228.9 230.3
57.4 56.4 55.7 54.9 51.5 46.7 48.7 52 57.8 59.5 57.6 57 56.7 54.3 52.4 51.3 50.6 49.6 48.7 45.6 45.1 44.9 43.7 42.1 38.4 38.1 37.4 36.8 36.3 36.2 35.1 33.5 31.9 31.8 31.6 31.4 31.2 31 30.4 31.9 31.6 32.4 33.7 37.3 42.2 44 45.5 49.8 51.1 51.6 54.8 59.5 65.6 73.4 83 93.9 100.1 99.3 96.8 92.7 87.4 81.3 78.9 77.9 75.5 71.5 69.1 64.6 56.8 47.5 45.5 46.2 53.1 60.4 70.5 80.8 91.9 100.3 101.6 102.3 105 107.2 108.8 104.8 97 92 84.3 94 100.9 108.4 114.4 115.9 109.1 100.2 92.7 84.2 88.6 96.2 102.3 105.3 104.6 103 104.2 108.3 110.2 110 115.8 119.6 122.5 122.8 121.7 120.4 117.4 113.5 107.8 103.3 99 93.3 89.6 86.4 86.5 89 91.3 94.1 96.7 99.7 102.5 106.1 110.7 114.8 118.1 120.8 124.3 126.7 128.6 127.1 123.4 125.8 128.4 132.4 136.7 141.2 145.2 149.4 151 152.5 153.6 153.7 152.9 150.4 146.6 141 133.5 127.2 122.6 118.2 117.7 117.4 116.6 116.2 115.9 116.5 115 119.3 116.9 119.2 123.9 128.6 133.6 139.3 145.1 152.7 160.2 169 182 193.7 207 220.8 236.2 246.2 252.6 255.8 257.1 256.6 251.6 246.8 241 235.3 231.8 230.4 231 231.2 230 229 228.4 228.3 228.2 228.3 228.3 229.5
56.2 54.9 53.6 53.1 49.1 47.8 53.1 56.8 58 57.9 55.9 55.2 55.3 54.7 55.5 55.9 55.5 54.8 53.8 49.8 49.1 47.5 45.8 43.5 40.6 40.9 40.3 39.4 39 36.5 34.5 33.2 31.7 31 31.1 31 30.9 30.8 30.5 31.8 31.4 32.2 34.8 39 43.6 46.6 48.4 52.1 55.1 59.2 64.4 71.1 77.8 84.6 92.2 96.9 98.9 97.3 93 88.5 84.5 76.2 73.4 72 71.1 65.6 65.3 62.5 54 46.4 45 47.1 53.6 61.5 71.6 80.9 91.5 98.1 98.5 99.6 103.6 107.2 106.6 102.2 95 88.1 83.2 93.1 101.7 107.2 113.1 114 107.1 97.9 89.4 83.3 92.1 98.7 103.4 104.4 101.5 99.7 103.2 106.2 106.2 108.5 113.1 116.9 119.6 120.1 120.4 120.7 118.1 112.2 106.5 100.7 95.5 90.7 87.4 84.6 86.7 89.2 91.7 94.5 97.9 102.6 104.8 109.8 115.2 120.6 124.4 130 135.5 135.1 135.2 133.7 130.2 134.2 138 140.8 144.5 148.1 152.1 155.8 159.2 161.6 162.2 162.4 160.3 156.7 152 146.9 140.1 133.4 124.5 124.2 123.9 123.2 121.9 123.3 122.3 123.8 122.3 124.2 124 125.1 129.6 133.9 138.9 145.1 151.9 160.6 168.2 178.3 191.2 204 216.4 229.5 240.3 249.9 254.7 258.1 259.6 258.4 254.3 249.3 243.6 237.8 234.6 232.5 234.2 235.7 234.7 232.9 230.6 229.6 228.4 227.8 227.8 227.9
52.9 52.6 51.5 51.2 47.7 47.6 53.3 56.6 55.8 55.2 54.6 52.7 51.5 53.8 56.2 59.4 59.7 56.8 54.3 51.1 49 47.3 47.4 44.3 44.9 44.1 43.2 41.9 39.3 36.8 34.4 32.9 31.8 31.2 30.8 30.7 30.6 30.6 30.5 31.8 31 32 34.5 38 42 44.2 47.2 50.4 56 62 69.5 76.7 84.1 90.4 96.3 100.2 99.1 95.9 91.2 86.7 80 72.6 67.6 65.2 65 60.5 60.8 56.9 51.1 45.6 44.4 48 55.4 62.8 71.4 80.3 89.7 93.8 94.1 98.6 102.5 105.6 103.5 97.8 90.3 86.6 82.6 92 100.9 107.2 112.8 114.5 106.8 95.8 84.3 83.9 91.8 97.9 102.8 100.9 98.5 98 101.8 103.4 101.1 104.6 108.9 112.2 115.5 117.5 119.7 121.3 118 112.7 106.8 100.9 94.7 88.9 84.9 85.3 87.4 90 92.3 95.9 99.7 105.8 109.3 114.6 120.1 125.5 133.2 141.6 147.9 150.3 146.5 141.2 140 145.3 149.5 152.5 156.9 159 162.8 163.7 167.8 172.5 174.7 170.8 168.8 165.2 159.7 154.2 147.9 141.4 132.7 130.9 130.1 129 128.6 128.3 127.4 128.4 128.1 128.6 130 131.7 135.4 139.7 145.3 152.1 159.7 169.8 179.4 189.9 204.2 215.6 226.7 236.4 242.9 254.6 256.8 259.9 260.7 259.5 256.1 251.2 245.8 240.4 237.3 235.8 236.8 237.8 238 235.5 232.8 230.5 228.9 226.5 226.3 227.9
48.8 49.7 50 48.3 45.5 45.3 51 52.4 52.5 52.8 51.7 49.7 49 53.1 58.1 62.2 60 56.7 53.3 50.1 47.1 47.1 47.7 46.8 47.1 46.4 44.9 42.9 40.2 37.4 35 32.9 31.9 31.2 30.5 30.4 30.3 30.3 30.2 31.6 31 31.8 33.3 35.7 38.9 41.6 44.6 47.8 53.9 60.2 67.4 74 82.1 89.1 95.8 100.4 98.9 94.6 89.3 82.7 76.7 68.1 63.2 60.2 58.1 54.7 52.5 49.7 47.1 45 44.7 49.2 56.6 64.5 72.5 80.5 89.1 88.5 91.9 97.4 101.7 102.8 101.2 93.6 85 80.1 83.5 92.8 101.2 107.7 113.6 114 106.3 93.2 81.8 82.7 90.1 96.2 99.9 98.5 95.4 96.6 100.2 99.9 96.4 98.7 103 106.2 110.9 116.4 120.2 123.1 119.2 112.5 105.3 99.7 94.1 87.8 84 86 88.6 91.3 93.9 97.4 101.5 106.2 113.1 118.6 124.9 132.3 142.2 158.9 172.3 171.2 157.8 152.8 153.5 157.5 161.8 166.9 173.8 178 175 176.5 180.7 183.9 185.8 184.2 179.9 177.7 170.1 166.4 160.8 153.5 147.4 140.7 137.7 136.7 135.9 135.4 134.8 135.4 135.5 136 137 138.4 141.8 146.7 153.4 161.7 170.4 180.2 190.7 205.6 220.1 228.7 234.7 241.5 250.8 256.5 258.8 259.8 260.2 259.9 257.2 252.3 247.1 242.3 240.4 239.3 239.6 239.8 238.9 235.9 233 230.2 227.9 225.8 226.1 228.1
47.1 48.4 49.5 47.4 44.6 43.2 46.5 48.4 50.5 50.8 50.5 48.1 48.2 52.9 57.4 60.4 60.5 56.5 52.3 49 46.5 44.9 45.6 44.8 45.9 45.1 44.8 43.2 40.8 37.9 35.5 33.3 31.9 31.2 30.2 30.1 30 29.9 30.2 31.4 30.7 31.8 33.2 35.4 37.5 39.6 42.8 46.4 49.9 56 61.9 71.2 79.7 88.4 95.5 100.2 98.8 92.9 86.7 79.2 74.8 68.2 69 67.3 61.6 58.1 55.3 51.1 47.5 44.7 44.3 50.4 58.4 66.5 73.3 80.4 85.6 82.6 88.5 94.3 99.7 101.4 97.5 89.7 80 76.8 84.9 94.8 102.5 108.3 113.3 112.3 102.9 91.5 80.3 80.8 88 93.3 97.3 94.2 92.3 93.9 96.2 95 92.6 93.6 97.7 103.5 111.1 117.3 122.4 123.5 118.6 109.7 102.3 96.7 92.3 86.5 83.6 86.4 89.2 92 95.2 99.1 103.7 109.1 115.9 123.3 130.4 138.8 156.6 169.5 182.5 184.6 170.1 165.1 167.3 170.1 174.3 182.9 193.5 201.1 199.4 201 205.1 206.3 203.5 199.4 197 193.2 190.1 186.9 183 175.9 167.9 158.8 150.5 146.4 143.9 143.5 145.5 145.3 144.4 145.6 146.3 146.8 150.3 157.3 167.5 177.5 187.1 194.7 204.5 217.1 229.8 237.3 243 249.2 254 256.8 258.9 259.2 259.6 260.1 258.1 253.7 249.3 244.5 242.7 241.4 240.1 239.3 237.6 234.6 231.6 228.2 225.7 224.6 226.2 227.3
45.9 47.1 49.1 47.5 45 42.2 43.8 48 51.7 51.9 49.5 46.8 47.2 51.3 57.2 61.6 61 57.1 53.2 49 47 45.6 42.6 42.7 44.2 44.3 44.4 44.1 41.5 38.8 36.1 33.7 31.9 30.4 29.9 29.8 29.6 29.8 30.1 31.3 30.8 32.5 33.4 35.4 37.3 39.5 42.9 47.8 50.9 56.1 61.7 71 79.7 88.4 96.4 101.6 98 92.3 86.3 79.9 76.4 76.2 77.6 74.4 67.8 67 63 53.7 46.4 43.8 44 51 58.7 66.7 72.8 77.3 78.1 79.2 86.2 93.7 98.5 101 94.8 84.7 75.9 76.7 87.5 95.6 102.8 108.5 112.9 110.2 103.9 95.4 82.7 77.8 84.5 90.4 93.8 93.1 88 90.4 91.2 89.5 88.3 91.6 97.5 105.3 112.2 118.4 124.7 123.3 116.6 107.5 98.8 94.4 89.9 84.6 83.2 85.8 89.2 92.5 96.2 100.4 105.5 111.5 118.5 126.8 135.7 154.8 166 177.4 189 190.2 184.9 182.1 182.7 186.2 191.1 193.7 197.5 203.8 208.8 217.3 223 228.2 231.2 229 224.7 218.9 211.5 209.8 208.9 201.2 189.4 177.8 168 164 161.8 161.5 161.8 162.3 161.6 158.7 159.4 164 168.8 175.8 185.8 195.9 202.4 209 216.5 226.3 237.4 244.7 248.8 251.9 254.2 256.7 258.5 259.2 260.1 260.3 259.2 255.1 250.7 246.3 243.5 241.3 239.5 238 236.2 233.6 230.8 227.1 223.2 224.1 226 225.8
46.1 44.9 48.7 46.8 44.3 41.8 43.2 49.7 52.4 50.8 48 45.3 46.5 51.7 58.6 62.7 62.6 58.8 54 49.3 47.8 45.4 43.3 42.4 40.7 42 43.8 43.4 42.7 40 37.7 35.1 34 31.7 30.1 29.5 29.6 29.7 30 31.3 31.1 33.2 34.7 35.5 37.5 40.4 42.8 45.4 49.8 53.5 59.1 68.4 79.8 89.7 98.1 102.1 99.8 95.3 88 84.7 84.5 85.6 88.2 83.1 80.6 75.9 66.8 54.9 47 43.5 44.7 51.4 59.1 66.1 70.5 69.3 69.6 77.6 86.6 94.4 99.3 99.8 92.8 82.5 72.9 78.4 87.1 95.1 101.6 107.5 111 107.8 103.2 94.4 81 73.2 79.7 86.5 91 90.9 86.3 84.8 85.1 84.8 88.5 93.5 100.1 106.9 113.9 120.9 126.2 123.2 115 106.3 98.9 96.3 89.1 83.4 83.1 86.2 89.6 93.4 97.6 103.2 108.3 114.2 123.2 133.1 145.3 159.7 172.2 184.4 192 188 180.9 176.5 173.9 176.3 183.1 182.6 188.8 194.8 204.4 213.6 220.9 226.6 232 235.6 239.1 237.2 230.3 225 221.1 216.7 208.3 198.1 189.6 184.2 182 179.9 179 181.2 180.6 181.4 183.2 186.1 187.2 193.2 202.4 208.6 213.5 219.8 227.4 235.9 242.4 247.7 250.2 251.6 254.2 255.6 257.1 259.4 260.5 260.7 259.5 256.2 251.9 248.1 244.9 241.6 238.6 235.5 234 230.7 227.8 224.3 221.4 223.6 225.1 224.6
46 42.9 44.6 43 41.9 40 43.8 52.3 53.8 50.5 47.7 44.6 45.4 51.4 58.1 63.9 62.3 58.5 54.1 49.7 47.4 47.3 46.1 44.7 42.2 39.6 40.7 41 39.8 40 39.3 38 36.3 33.3 30.4 29.5 29.5 29.8 29.4 31.2 30.7 33 34.7 36.5 38.3 40.2 42.3 45.9 50.9 55.8 61.8 71.5 82.3 92.1 101 104.9 103.2 98.2 92.8 92.4 93.7 95 92.8 90 84.8 77.7 67.7 55.1 46.3 43.9 44 51 57.9 63.4 64.2 62.7 69.4 77.8 86.8 94.1 99.3 99.1 91.7 80.3 70.5 78.1 85.7 93.2 99.7 105.5 107.7 104.8 100.6 92.2 84.4 73.5 76 82.9 87 86.1 83.1 77.4 83.1 86.1 91 96 102.1 108.8 115.6 122.5 126.3 122.8 115.5 109.1 104.6 100.7 88.9 83.1 83.3 86.6 89.9 93.9 98.5 103.9 110.5 117.2 127.8 137.7 150.9 163 177.1 188.8 186.5 175.5 168.7 163.7 162.3 164.7 168.5 174.3 180.3 187.8 198.7 208.3 216.7 224.6 230.5 235.4 240 242.4 241 237.8 234.1 230.8 227.7 218.8 210.5 203 201.8 198.7 195.8 197.2 198.3 200 199.9 201.8 202.5 206 213.5 218.4 223.3 229.1 236.9 240.9 244.6 247.8 248.8 250.6 252.6 254.4 255.6 257.9 259.6 259.8 258.3 256.5 253.2 249.5 245.3 242 239 236.2 233.5 228.5 223.8 221.5 221.1 223 223 221.5
45.8 41.4 40.3 40 39.3 38.9 43.7 52.8 54.5 51 47.1 43.8 45.5 51.9 59.2 64.5 62.5 58.2 53.9 50.6 50.3 49.5 48.3 45.8 42.7 39.6 38.1 37.9 37.9 38.8 39.8 39.6 37.8 33.6 31.3 29.6 29.5 29.5 29.9 31.7 32.1 34.6 35.3 36.6 37.6 39.5 42.9 46.4 50.4 56.9 63.5 74 85.6 96.9 105.6 109.5 106.5 101.8 99.1 99.1 98.9 94.9 92.2 89.2 83.2 76 65 54.9 47.3 43.4 43.6 49.2 54 55.8 55.7 62.4 69.7 78.6 86.7 93.7 98.9 96.5 88.7 76.1 69.2 75.6 83.4 90.7 96.8 102.4 103.9 102.2 98.9 94.5 88.6 78.8 72.6 79.5 82.7 80.2 76.6 80.4 87.3 89.4 93 99.4 104.1 110.2 116.9 123.7 125.9 122.9 119.4 115.6 108.7 100.1 87.8 81.8 83.5 86.9 90.2 94.3 99.4 104.8 112.1 121.4 131.2 140.7 154 165.6 180.1 187.4 175 166.8 157.4 152.1 153.5 156 159.9 166 173.5 183.5 193.9 201.1 210.1 219.8 228.4 234.2 238.8 243.4 245.9 246.1 243.8 241.3 238.4 234.2 228.3 220 220.3 220.4 217.9 215.8 214.8 213.1 212.1 214 215.1 219.5 222.4 227.4 232.4 235.8 240.2 244.2 246.9 246.9 246.6 249 251 253 254.4 255.5 256.5 257.5 256.6 255.6 253.7 250.3 246.3 242.5 239.6 236.9 234 228.7 223.6 220.8 218.7 221 219.9 218.7
44 39.9 39.2 39.1 37.7 38.2 41.7 48.8 53.3 49.3 44.8 41.1 45.9 52.9 60.4 65.2 63.3 60.9 57.2 54.7 53.2 51.5 48.6 46.1 42.5 40 37.2 36.4 36.1 37.6 40.8 41.9 38.5 34.4 31.3 29.6 29.5 29.4 29.9 31.7 31.3 33.7 34.9 35.6 36.2 38.6 42.1 45.9 50.3 55.8 64.9 75.7 88.8 100 108.3 112.1 108.4 105.9 103.3 100.7 97 91.8 87.9 84.9 79.9 74.7 67.3 58.2 49.3 43.5 42.7 44.9 48.3 49.3 52.3 59.8 69.3 77.9 86.5 94 98.1 96.3 85.1 73.4 65.2 72.1 79.6 88.3 94.8 100 100.6 98.6 96.7 95.3 90.4 81.2 70.3 74.5 78.1 74.9 75.5 83.9 89 91.3 95.5 100.5 106 111.7 118.2 124.9 124.3 122.1 120.4 116.8 108.3 98.6 87.3 80.9 83.3 86.8 90.5 95.4 100.5 106.1 114.3 124.5 135.4 147.3 160.3 171.9 183.5 177.5 166.2 157.7 152.8 146 144.5 148 152.9 160.3 169.5 179.3 191.2 199.1 208.7 219.8 228.6 234.2 237.9 242.6 245.2 247.2 247.9 247.2 244.4 241.8 238.8 235.4 232.5 232 232.1 228.9 228 227.9 226.2 225.8 227.1 226.5 231.1 235 237.4 239.9 243.7 245.4 246.1 245.8 245.4 247.2 248.8 250.1 251.8 253.4 254.5 255 254.5 254.4 252.2 249.6 246.4 243 240.2 237.5 234.8 229 224.1 220 216.7 216.7 216.6 218.2
40.1 42.2 41 38.7 37.2 38 39.5 46.2 51.3 47.6 42.9 41.3 45.8 52.1 60.4 66.7 67 64 61.6 58.5 55.3 53.2 49.3 45.7 43.1 40.7 37.1 35.7 34.9 37.1 41.9 42.9 38.6 34.8 31.7 29.8 29.5 29.4 29.8 31.5 30.2 31.3 32.4 34 36.3 38.6 42.6 45.6 51.2 56.8 65.8 76.7 88.4 98.5 107.7 112.5 110 106.3 101.5 97.9 94.5 89.3 83 80.2 74.6 70 65.1 56 49.6 44.8 42.9 42.8 44.3 47.5 51.7 58.8 68.8 78.6 87.4 94.7 96.4 94.4 84.8 73.3 64.2 69.6 77.1 85.5 92.2 96.9 96.6 95 94.3 94.8 90.4 79.9 70.3 67.3 72.7 69.6 78.2 85.5 87.9 90.7 95.3 100.7 107.6 113.3 120.2 125.1 122.1 119.2 118 113.5 107.2 96.6 86 80.5 82.6 86.5 90.4 95 101.7 107.7 116.4 127.9 140.3 153.1 166 176.5 182.6 167 156.8 149.3 145.9 139.1 138.6 143.3 149.6 159.5 168.7 177.2 190.3 201.3 210.5 221.3 229.3 235.5 239.4 242.2 244.9 246.5 246.9 246.8 246.2 245.5 244 241.4 238.6 237.6 236.7 236.9 237.1 237.8 236.8 236.1 235.7 234.9 238.1 239.9 242.3 243.6 245.2 246.7 245.3 243.7 243.4 245.1 246 247.1 248.5 250.7 252.4 252.5 252.3 252.2 250.7 248.6 246.6 243.5 240.9 238.6 235.5 230.8 225.5 220.3 216.8 213 215.9 218.4
49.1 45.4 41.1 39 37.1 36.4 38.6 45 48.9 46.4 41.4 40.1 44 54 63.5 66.8 68 67.1 64.9 62.7 58.2 54 50.2 47 43.9 40.6 37 35.1 35 38 43.3 43.1 38.2 34.6 32.8 31.2 29.4 29.5 29.8 31.2 29.6 30.6 31.9 34.1 36.2 38.5 42.2 46 51.7 56.4 65.5 75.8 87.8 99 108.1 112.5 109.3 102.3 96.2 93.2 91.2 87.8 78.8 70 68.1 63.7 60.8 52 46.2 44.5 42.2 42.2 43.2 46.7 52.1 60.2 70.4 80.4 88.7 94.3 93.3 91 85.6 77.5 64.6 66.8 74.8 83 89.7 94.2 92.9 91.1 91.8 93.4 87.6 79.6 73.3 67.6 65.3 71.8 78.5 83 86.9 90.6 95.9 100.9 107.6 114.4 121.7 123.9 119.7 115 113.6 113.1 104.6 94.1 84.8 79.6 82.7 86.4 90.4 94.7 102.2 109 118.8 128.8 143.6 159.2 169.7 177.7 169.8 159.2 150.7 142.9 139.1 134.8 138.8 146 153 160.2 168.3 178.5 191 203.2 213.9 224.3 231 236.5 240.5 243.7 246.1 247.6 247.4 247.1 246.5 244.9 244.8 243.3 241.7 240.5 240.3 240.6 241.6 242.4 242.5 242.3 240.9 239.9 242.3 243.1 243.8 244.4 245.3 245 243.7 242.1 241.7 242.6 243.5 244.3 245.3 247.5 249.8 250.2 250 249.5 248.7 247 245.2 244.3 242 239.7 236.2 231.6 226.5 221.2 216.8 212.1 214.2 218
52.4 47.1 43.3 39.6 37.3 36 37.1 42.4 46.6 45.2 39.7 38.5 44.3 54.4 64.5 65 66 67.1 65.9 64 57.7 52.6 49.2 46.7 44 39.5 35.7 34.2 36 40.6 46.2 43.9 38 35.4 35.4 33.5 30.9 30 29.8 31.2 29.1 30.2 31.4 34.1 36.3 38.4 41.6 45.5 48.9 54.2 62 72.3 85.9 99 107.2 110.5 108 101.5 91.5 87.5 85.7 81.6 75.5 66.1 61.3 57.6 56 47.5 47.8 45.1 41.8 42 42.6 46.4 54.5 62.8 72.3 81.9 90.4 92.7 90.6 87.7 84.4 75.4 65.3 61.8 70.8 79.7 87.2 90.8 88.6 87.5 89.6 91.4 85.9 79.3 75.4 68.2 67.7 73.8 79.5 83.4 86.6 91.1 95.2 101.1 108.6 115.2 121.3 120.6 115 109.6 107.5 108.4 101.7 91.9 83.7 79 82.3 86.2 90.5 94.5 100.6 108.4 120.1 130.6 147.2 158.6 168 168.5 160.2 149.6 142.5 137.1 132.3 135 141 146.4 153.1 161.4 169.7 181.6 194.1 204.7 217 226.6 233.2 238.1 241.5 244.5 247.2 248.5 248.8 247.8 245.9 244 243.8 242.9 241.9 241.3 241.4 241.9 243.3 244.2 244.6 244 243.7 243.7 243.5 243.1 243.2 243.2 243 242.6 241.7 240.5 239.6 239.8 240.7 241.7 243.2 245.1 246.4 246.7 246.7 246.3 245.8 244.9 244.8 244.7 242.9 240.7 236.9 232 226.9 221.7 216.3 213.2 212.7 215.8
53.8 50.3 46 42 38.1 36.1 35.5 38.6 43.5 43.1 39.1 37.1 43.8 55.1 61.3 61.5 62 63.2 62.9 60.4 55.1 51.1 48.3 45.9 42.4 37.8 34.6 34.2 37.5 43.4 47.4 44.5 39.8 39.2 38.6 37.7 35.1 29.3 29.6 31.1 28.8 29.9 30.9 33.1 35.3 37.8 40.8 45.1 51.8 57 64.8 75.4 87.1 98 104.3 107.9 106.9 99.6 89.4 83 79.1 76.5 69.4 62.8 55.4 52.5 49.9 50.9 49.9 44.3 41.6 41.8 44.2 49.4 57.4 67 76.4 85.2 91 90.1 87.9 83.4 80.6 74.7 66.2 59 67.6 76.4 82.5 86.7 84.2 84.7 87.8 90.4 82.8 74.8 70.2 64.4 69.1 76.7 83 85 86.4 89.2 95.4 101.5 108.8 115.1 121.3 118.2 112.2 105 104.7 104.3 98.7 90.7 82.8 79 81.8 85.2 88.7 92.3 99.7 107.9 119.3 131 143.6 154.8 158.5 159.1 148.3 139.2 134 129.3 125.4 134.2 142 148.5 157.4 166.2 175.8 187.4 199.9 211.5 219.7 228.3 235.3 239.5 242.5 245.2 247.5 248.5 249.1 247.9 245.7 242.9 242.5 241.9 241.6 241 240.6 240.2 242.7 244.6 245.4 244.6 243.8 242.8 241.7 241.1 240.5 240.3 240.2 240.1 239.3 238.2 237.4 236.6 237.3 237.9 238.6 241.5 242.3 242.6 243.1 243.3 243.1 244.1 245.1 244.6 242.7 239.7 235.9 231 226.8 222.8 217.2 213 210.8 213.2
57.8 52.3 48.4 44.4 40.3 36.5 35.3 37.1 41.2 41.2 36.6 36.4 44.4 52.2 57.2 56.4 56.8 57.3 57.5 56.9 53.4 48.6 44.6 44.3 40.4 36.2 33.3 34.9 37.5 44.4 47.4 44.4 42.5 41.8 39.9 38.4 36.1 32.1 29.2 31.1 28.6 29.5 30.6 32.8 35.1 37.4 40.2 46.1 53.4 60.4 66.6 74.8 86.1 93.2 100.4 104.8 104.4 98.1 89.2 81.5 72.3 71.7 65.8 58.3 54.9 56.4 56.4 55.4 46.9 41.7 41.3 42.2 47.7 55.2 63.5 72.3 80.6 86.8 89.9 87.6 83.6 79.2 75.8 71.7 66.5 58.9 63.5 72.9 79.3 82.2 79.7 84 87.8 88.7 81 72.3 65.9 63.2 71.2 78.7 83.5 84 83.2 87.5 95 101.5 108.3 114.7 120.7 115.9 109.6 101.3 100 98.5 95.4 87.3 80.5 79.1 82.4 85.6 89 92.7 98.4 106.3 117.4 128.6 140.6 149.2 149.7 147.4 136.7 130.1 124 124.3 131.2 137.8 145.1 152.1 161.7 170 181 194.3 209.1 219.5 225.7 232.7 236.5 240.1 242.9 245.5 247.7 248.5 249.1 247.4 244.6 241.8 241.3 239.9 239.4 238.7 239.7 240.5 240.7 242.9 244.2 244.3 243 241.6 240.2 238.5 237.7 237.3 237.4 237.4 236.8 236 235.3 233.8 233.6 234.4 235.8 237 238.4 239.6 240.7 241.8 243.4 244.3 245.1 242.6 240.4 237.2 233.9 229.8 225.1 222.1 217.1 213.1 209.5 213.3
59.9 54.5 50.3 44.6 40.4 36.9 35.4 35.6 38.4 39.2 35 35 39.5 45.4 50.9 50.9 49 50 50.8 50.5 49 46.5 42.7 42.5 38.6 34.6 32.1 34.3 39.4 43.9 46.6 44.8 43.1 40.2 38.2 36.6 34.7 32 30.4 31.2 28.9 29.5 30.3 32.4 35.2 37.1 40.1 45.3 51.3 58.3 66.1 70.5 79.8 87.6 96.2 102.8 102.6 95.2 86.8 78.3 71.6 64.3 60.4 61.7 65.4 62.8 60.3 55 44.9 41.3 41.5 47.2 53.3 60.4 70.4 76.9 82.7 86.6 87.5 84.5 77.7 73.7 70.1 68 65.4 61.6 60.5 68.9 74.5 77.2 76.5 81.9 87.5 86.1 78.8 71.8 65.1 65.1 72.7 80 82.6 81.6 80 84.5 93.6 101.2 107.9 114.8 118.2 113.8 107.1 98.7 95.4 98.7 91.1 83.7 78 79.3 83.5 86.6 90.1 91.9 96.1 104.1 114.6 125.1 134.2 138.5 140.1 136.6 126.5 122 119.4 128.6 133.3 139.9 147.4 156 166.2 176.6 187.6 201.3 218.2 226.9 232.5 234.6 237.9 240.3 242 244.1 246.7 248.7 248.5 246.2 243.4 240.6 239.7 238.3 237.5 237.3 239.3 240.6 241.3 242.4 242.2 242.2 241.2 239.9 238 236.9 235.1 234.5 234.5 234.6 234.7 234.2 233.3 231.4 230.1 231 232.9 235.1 236.8 238.5 240.1 241.9 243.4 244.4 243.2 240.9 238 234.6 231.3 227.3 224 220.1 215.8 212.2 208.6 213.1
59.9 55.5 51.3 46.1 40.7 37.5 34.6 34.6 35.7 37.8 35.1 34.6 35.5 38.2 42.5 43.9 42.4 42 42.5 44 45.2 44.3 41.1 40.5 37 33.2 31.5 34.9 39 43 43.9 43.4 41.1 38.5 36.7 35.2 32.8 31.8 35.7 30.9 28.9 31 30.3 31.7 34.3 37.8 40.6 45.2 48.9 54.4 57.9 65.7 76.1 84.8 93.9 102.1 104.3 96.5 87.5 79.1 75.6 69 68 71.2 70.6 63.2 58 52.3 43.8 40.7 41.7 49.3 56.6 63.4 72 78.7 83 84.4 84.6 81.1 73.6 68.8 66.4 65.5 61.9 58.7 56.5 63.1 66.9 70.8 76.7 82.8 88.9 83.1 75.1 68.2 63.3 64.8 73 78.5 79.7 78.3 78.4 83.1 92.8 100.5 107.9 114.6 116.3 111.6 105.3 97.5 93.1 93.6 89.4 81.5 76.8 79.7 83.8 87.9 89.4 90.7 93.6 99.7 108.4 118 123.4 127.4 128.7 125.6 119 114.8 121.4 129.5 134.9 142.5 150.5 161.9 171.1 183.1 194.4 210.6 227 232.8 235.6 237.7 239.6 240.9 242.4 244.2 245.7 246.1 246.8 245.2 242 238.9 236.4 236.2 236.6 236.7 238.7 240.1 241.2 243.6 242.2 240.9 239.8 238.8 236.9 234.8 233.6 232.1 232.1 232.4 233.3 233.2 232.2 230.7 227.9 231.5 233.6 235.3 236.5 237.6 239.5 240.8 241.7 242.3 240.9 238.7 235.9 232.5 229.1 225 221.8 217.9 213.4 210 208.5 214.1
57.5 54.2 50.9 45.7 41.1 37.1 34.4 34.4 34.1 34.6 33.7 33.4 33.8 34 35.1 36.2 36.3 36.7 36.2 37.7 40.4 41.1 38.7 38.2 35.1 31.5 31.3 34.8 37.9 39.8 41.5 41.8 39.1 36.5 34.5 32.6 31.4 29.7 29.3 30.6 34.2 34.7 31.2 32.1 33.6 38.8 40.7 44.4 49.7 54.3 59.4 65.1 74 83.4 92.8 102.2 105.3 99.4 92.3 87.8 81.3 78.8 78.5 78.8 71.8 63.2 54.4 50.9 41.9 40.3 41.4 48.1 55.9 63.6 71.7 76.8 80.6 80.1 79 77.5 69.6 64.2 62.5 61.5 57.6 53 56.4 62.9 70.3 75.4 80.8 86.9 88.1 80.8 71.3 65.8 60.5 64.6 72.3 75.2 75.3 73.6 75 84 94.4 101.6 107.9 113.7 114.6 109.4 103.2 97.7 91.6 88.6 82.7 78.8 77.9 80.9 84 86.9 88.1 89.4 91.6 94.8 101.3 106.3 112.2 116.7 119.2 115.6 111 117 123.6 130.5 138.2 145.9 156 166.8 177.7 188.4 204 219.3 232.2 236.4 238.1 239.7 241.6 242.5 243.1 244.2 244.4 244.1 244.4 243.6 240.2 236.4 232.7 232.1 232 234.8 237.9 240.3 241.7 242.5 241.2 240.3 239 238.6 237.8 235.6 233.4 231 230.3 230.4 231.4 231.4 231.3 229.9 227.4 230.7 232.7 234.5 235.4 236.4 237.6 238.2 239 239.6 238.3 236.1 233.7 230.4 227 223.4 219.8 215.8 211.9 208.4 209.4 214.4
52.1 51.7 48.2 44.8 41.4 37 34.5 34 34.1 33.5 33.3 32.8 32.7 33.2 32.5 32.4 32.9 32.3 32.6 33.3 35.2 35.9 35.5 35.3 33.5 30.4 31.4 33.8 34.6 36.9 40.8 40.4 38.4 35.8 33.4 31.2 30.1 29.1 28.6 30.6 28.3 28.6 29.6 32.1 33.7 36.9 40.7 45.2 49.9 52.7 56 62.6 70.9 81.1 90 101.2 107.1 102.6 99.3 95.8 89.6 87.4 82.3 77.2 71.4 63.8 54 47.2 42.5 40.1 40.4 48.4 54 60.4 65.5 72 75.6 74.5 74.5 72.3 67.2 60.5 57.9 56.5 53.4 53.1 60.2 68.1 75.8 81.2 86.1 90 88.8 80.1 70.1 65 60 63.4 68.6 70.9 69 70.1 76.2 85.1 94.2 101.5 107.1 112.3 112.6 108.5 103.1 97.9 93.9 91.3 83.7 77 77.3 80.2 82.6 84.4 85.1 86.8 89.7 91.5 94.2 96.7 100.3 106.8 110 107.1 110.5 118.4 125.5 131.5 140 149.2 161 172.1 184.6 199.6 216.5 230 237.2 238.9 240.1 241.2 242.2 243.2 242.9 242.2 243.1 242.5 241 239.4 235.7 233 229.1 228.8 228.2 232.8 236.7 238.8 240.5 241.6 240.9 239.7 239.1 238.5 237.1 235.4 233.4 231.3 229.1 227.9 229.4 229.3 229.1 228.3 225.7 228.9 231.7 233 232.9 233.9 235.4 235.9 236.4 236.3 235.7 233.7 231.2 228.1 224.7 220.9 217.4 214.2 211.3 207.7 210.9 213.3
48.4 49.2 46.1 43.3 40 36.6 34.8 34.5 36.4 34.1 33.2 32.9 32.6 32.4 32.2 32.4 32.7 31.9 31.9 31.7 31.3 32 32.6 32.4 30.9 30.4 30.8 32 32.6 35.6 39.9 40.7 38.1 35.5 33 31 29.4 28.5 28.9 30 28.2 28.7 30.2 29.9 32.1 35.3 39.3 43.8 47.2 49.2 52.6 60.1 68.9 76.2 84.7 96.5 105.1 105.1 104.9 101 94.2 89.8 81.8 71.5 66.2 61.8 56.4 47.9 42.7 39.8 40.1 46 52.5 55.1 58.3 64 69.5 68.4 68.3 67.5 62.5 56 54.6 52 50.4 57.6 64.5 72.4 80 84.9 89.5 90.2 88.1 82.5 73.1 65.8 59.9 60.7 66.9 66.6 65.8 70.9 77.4 86.2 93.9 100.8 105.4 109.4 110.3 105.8 100.3 95.2 93.2 90.3 83.1 75.6 78.2 79.6 79.8 82.5 84.5 86.1 88.7 91.4 94.5 96.6 98.5 99.2 103.2 108.5 114.6 120.1 127.2 134.7 143.8 155.1 167.7 179.2 192.4 209.5 227.2 237.1 240.9 241.4 241.8 242.5 242.8 242 241.5 240.7 239.9 238.3 237.3 235 231.2 227.8 224.5 222.5 225.9 230.8 234.1 236.6 238.7 240.6 240.4 239.4 238.1 237.2 236 234.2 232.1 229.8 228.3 227.7 227.4 227 226.5 225.7 223.2 226.4 229.1 230.1 230.6 231.5 233.1 233.5 233.4 233.3 233 231.5 228.5 225.4 221.9 218.6 215.6 212.6 208.5 205.8 210 210.5
45.6 45.7 44.1 41.3 38.5 35.4 34.4 38 38.9 36.5 34.1 33.2 32.9 33 33.3 34.3 34.8 33.3 32.3 31.7 31.5 30.8 30.7 30.2 29.7 29.8 29.8 30.4 31.8 36.6 39 39.1 37 34.8 32.4 30.8 29.3 28.3 27.8 29.6 28.2 31.7 31.2 30.5 32.4 34.7 37.6 41.3 43.9 46.1 49.7 56.9 61.6 69.8 81.4 91 98.8 99.4 101.4 102.2 94.6 87.8 80.1 70.4 61 55.7 52.1 47.9 43.1 39.8 39.8 43.5 48.5 50 52.5 58.7 62.5 63.1 62.6 62.2 57.7 52.4 51.4 48.6 53.3 61.3 69.2 77.4 82.7 87.4 89.3 87.6 86.2 82.3 74.7 68.2 60.4 56.2 61.4 62.6 65.9 72.3 79.1 87.9 94.7 100.4 103 106.3 107.6 103.1 97.5 92 91.5 88.3 82.1 74 76.3 78.4 81 83.2 85.2 86.9 89.5 92.9 96.8 104 105.1 105.2 109 113.3 116.6 123 129.9 139 151 162.7 174.7 185.4 200.7 217.9 234.5 240.9 243.1 243.2 243.2 242.5 241.6 240.6 239.7 239.1 237.9 237.3 236 232 227.6 223.2 219.2 216.2 222.4 227.8 231.2 234.2 237.1 238.9 238.8 237.5 236.3 235.4 234.3 232.8 230.8 228.2 226.9 226.1 225.2 225.6 226.8 224.9 220 225.5 228.7 229.5 229.4 229.5 230.7 230.4 230.2 230 229.8 228.2 226 223.5 219.6 216.8 214 211.4 207.8 204.6 207.2 205.7
43.8 42.2 41 38.4 36.5 35.4 35.5 42.6 41 38.3 35.1 33.7 33.4 35.1 35.2 35.8 36.3 34.9 34.4 33.4 32.3 30.8 30.3 30.1 29.6 29.6 29.4 29.4 31.3 34.4 35.6 35.3 33.8 32 31.4 30.6 29.3 28 27.4 29.2 28.6 34.1 35.7 32.5 32.5 35 37.2 39.1 40.9 43.9 47.1 50.9 57.6 65.3 78.1 85.1 89.1 89.7 92.9 97.3 92.8 86.4 78.2 69.1 62.7 56.1 49 45.7 42.2 39.6 39.2 40 42.8 44.2 46.7 52.5 56.5 56.7 57.7 56 53 48.8 47.6 50.5 57.1 65.7 74.3 80.9 85.5 88.3 88.3 84.3 82.8 82.5 76.9 71.3 63.2 57.9 57.4 61 66.1 71.1 78 85.9 92.5 98.5 101.4 104.4 105 100.9 95.3 90.1 88 87.9 80.6 73.2 76.1 78.3 81.3 84.6 86.2 87.3 89.1 92.6 99.7 107 110.7 110.7 111.5 114.6 118.8 124.9 133.4 142.4 156.2 169.6 182.4 196.2 218 228 237.2 242.9 244 243.4 243 242.1 241.1 239.7 238.2 237.2 236.3 235 231.6 227.4 222.7 218 213.4 211.6 218.6 223.6 227.5 232.3 234.6 236.4 237.2 235.6 234.1 233.1 232.1 230.9 229.5 226.6 224 222.8 222.2 223.1 224.1 223.3 220.4 223.9 226.3 227 225.6 226.8 228.6 228.3 227.6 227 226.5 224.6 223 219.6 217.1 213.1 212.2 210.3 204.3 204.3 204.7 206.5
40.9 39.5 38.3 37.3 36.4 36.2 39.9 44.1 41.9 38.7 35.4 35 36.8 38.9 37.8 39.6 41.2 39.1 38.8 37.8 35 32.7 32.2 30.8 29.9 29.6 29.5 29.6 30.2 32.1 31.6 31.3 30.9 30.3 29.8 29.1 28.4 27.8 27.8 28 28.9 34.1 37.6 35.1 34.2 35.2 36.6 38.1 40.3 42.7 47.5 52.6 60.3 68 74.9 78.2 77.2 77.7 83.5 89.6 90.4 86 81.5 76.9 67.9 58 50.3 44.8 41.8 40.2 38.5 39.6 40.6 41.2 43.4 47 51.6 52.3 52.7 51 47.9 45.7 50.7 57.4 63.4 70.2 77.5 82.7 85.6 85.1 84.8 81.5 80.7 80.1 77.4 73.5 68.1 62 55 57.4 62.8 69.2 75.7 80.8 86.4 94.5 100.1 104.2 104.6 99 92.8 87.8 83.9 83.3 78.4 73.1 74.7 78.3 81.7 85.1 85.6 86.3 87.7 91.9 98.7 106.8 111.7 113.4 113.3 115.2 120 127.7 136 147.2 160.8 174.4 187.9 208.9 225.8 234.4 239.4 244.1 244.3 243.7 242.3 241.5 240.2 238.5 236.8 235.3 233.3 230.6 225.6 221.9 217.5 212.8 208.2 209.8 214.3 218.3 223.3 227.9 232.3 233.9 234.1 233.2 230.9 230.1 229.4 229.2 227.6 225.3 222.7 220.2 218.7 219.2 220.2 219.2 217.3 221.1 223 223.7 223.9 224.8 226.1 226.5 225.9 224.9 224.4 222.7 220.5 217.5 212.5 207.1 208 206.5 203.4 205.2 207.3 209.3
38.4 38.2 37.3 37 36.7 39.4 45.6 45.6 41.3 37.9 35.4 37.6 40.9 43.8 43.2 45.5 46.7 44.6 44.3 41.5 36.9 36 34.9 33.6 32.7 31.2 29.7 29.7 30.5 30.9 30.2 29.3 28.7 28.6 29.1 28.8 28.1 27.7 27.6 27.6 29.3 35.2 38.1 35.4 33.9 34.1 35.5 37 39.4 41.7 45.6 52.1 60.3 64.9 65.7 68.8 65.8 67.1 77.1 82 84.2 85 83.6 78.8 69.3 60.5 53.2 45.8 45.5 41.9 39.3 38.5 38.8 39 40.8 42.9 46.5 49 47.4 45.6 44.3 47.4 55 62.7 69.8 75.2 80.8 82.3 80 78.9 80.8 78.8 77.8 77.2 76 73.4 68.7 65.1 59.1 53.3 58.2 66.1 70.1 76.2 85.5 93.7 100 104.8 103.9 97 89.7 84.7 80.7 78.9 76.9 72.5 72 77.6 82.8 84.7 85.1 83.8 85 89.5 95.9 103.1 108.3 109.7 108.8 112.7 119.2 127.3 138.9 149.8 163.7 177 192 215.7 228.3 236.4 241.4 244.5 244.6 243 241.2 240.2 239.1 237.6 235.9 234.2 230.9 226.1 220.4 215.7 212.2 208.1 204.3 204.3 209.7 215.2 220 223.9 227.4 230.4 230.3 229.2 226.7 225.2 226.9 227.8 226 224 221.9 218.3 215.5 215.7 217.3 214.9 215 219.3 220.7 220.3 221.2 223.1 223.9 224.5 224.4 223.8 222.6 220.6 219 214.3 205.1 201.2 203.1 203.3 205.7 208.7 209.8 211.3
37.8 38.5 39.7 39 39.4 41.8 47.1 44.9 41.1 37.3 37.7 41.7 47.5 49.3 48.9 52.3 51.1 51.6 50.4 46.3 42.2 41.2 39.3 37.7 36.4 34.6 31.4 29.4 29.7 29.6 29.4 28.4 28.1 28 28.5 28.5 27.8 27.6 28.1 27.6 30.4 35.4 35.9 33.8 31.9 32.8 34.5 35.9 37.6 40 42.7 49.1 53.6 56.8 57.8 61.3 58 63.3 71.6 74.2 76.2 80.4 82.8 78.9 71 61.3 53.2 49.2 49.8 44.1 41.6 39.5 38.3 38.3 38.8 40.9 43.6 43.9 43 44.2 47.2 54 61.5 68.5 75 80 80.3 77.5 73.4 73.6 76.3 74.9 76.7 75.8 72.8 69.7 67.1 65.5 61.2 55 55.5 60.4 65.4 72.9 82.5 91 97.8 104.8 104.3 97.2 91 85.4 79.3 75.4 74 72.1 72.6 78 82.6 84 83.8 81.4 82.2 86.3 91.5 97.5 101 102 103.5 110.7 120.1 128.9 140.1 151.9 165.3 178.5 195.4 219.3 230.1 236.6 241.1 243.8 244.1 242.5 240 238 236.7 236.1 234.7 232.1 228.4 222.4 217 210.7 207.9 203.6 198.1 204.3 209.1 214.9 218.1 219.8 222.1 226.2 225.6 223.8 221.6 221.8 224.8 225.4 224.5 222.7 220.6 217.7 213.2 210.3 211.3 207.5 213.1 216.3 217.5 217 218.6 220.4 221.8 222.3 222.2 221.2 219.5 217 214.1 206.2 201.1 210.2 208 205.6 208.9 212 212.1 212
39 41 45 44.5 42.8 44 48 44.4 40.4 37.3 39.6 45.8 52.3 53.2 54 57.5 59.1 59.7 55.7 51 48.6 45.9 43.7 40.4 38.1 35.2 32.5 30.2 29 28.7 28.4 28.3 28.3 27.8 27.9 28.2 27.5 27.4 27.7 28.3 30.8 34.6 35 32.6 31.9 32.5 33.2 34.7 35.7 37.6 40.5 42.7 46.4 49 55.5 57.2 53.5 58.7 64.7 64.3 69.1 75.5 80.8 78.5 71.2 61.4 55.8 55.8 54.2 46.6 42.7 39.2 38.1 38 38.4 39.5 40.4 41.3 43.1 47.9 53.8 64.7 68.3 73.5 79 81.2 78.7 72 67.2 69.9 72.7 71.6 74.3 73.3 68.3 65.4 63.7 62.2 58.6 53.9 53.2 60 68.1 76.7 84.4 92.3 99.3 106.1 105.2 99 93.2 87.2 80.5 77.8 75.3 71.5 71 75.8 83 81.9 80.7 79.8 79.6 82.5 86.7 90.3 93.1 95.9 102.3 109.6 119 130.9 141 153.2 168.3 180.5 195.8 220.8 230.9 236.3 240.8 243.2 243.4 241.7 239.1 236.4 234.3 233.5 232.6 229.7 225.8 219.4 214.7 208 204.3 200.2 195.5 200.9 207.2 212.4 216.2 215.7 217 219.7 221.5 219.5 217.7 220 223.2 223.1 222.6 221 217.5 216 211.7 201.3 201.5 204.7 212 213.8 214.1 214.2 216.1 217.3 218.9 219.9 219.7 218.6 216 211.4 202.7 202.5 211.9 212.4 207.7 208.9 212.2 214.5 214.8 214.1
41.6 43 49.3 51 50.1 47.9 49.8 44.4 40.1 38.7 39.6 46.4 52.9 56.3 58.3 62 64 61.9 58.9 54.4 49.8 46.9 45 41 37.2 34.2 32.3 30.5 29.1 28.7 28.4 28.2 28.5 28 27.6 27.8 27.3 27.3 27.4 29.7 30.7 33.7 34.5 31.7 31.1 31.8 32.6 33.1 34.3 36.2 38.1 40.1 42 46.6 52.8 53.5 50.1 53.3 56.8 56.8 63.9 71.3 78 77.5 72.1 66.3 60.1 61.9 57.2 48.3 43.2 39.9 37.7 37.8 38 40.7 43 46.5 51.2 57.3 64.8 70 74.3 78.3 79.4 80 75.2 66.3 62.4 67.2 68.7 68.8 70.3 69 64.1 60.4 57.7 57 52.5 51.3 54.5 59.9 67.1 76.9 86.8 93.7 101.9 107.8 105.8 101.2 95.5 89 83.3 82.1 74.9 71.6 69.7 75.7 81.9 79.1 78 76.9 76.7 78.8 82.6 86.5 90.6 96.2 102.7 108.9 119.4 128.9 140.8 153.5 167.6 181.4 195.5 219.3 229.7 235.5 239.8 241.7 241.7 240.6 238.5 236.1 233.8 232.1 230 227.4 223.1 218.7 213.3 207.7 201.7 197.8 193.3 197.1 204.3 209.6 212.7 209.1 208.3 210.9 213.1 213.2 214.1 217.6 221 221.6 221.3 219.6 215.7 211.6 208 196.5 194 203.6 207.1 206.1 204.7 208 212.6 214.6 215.5 216.4 214.3 214.1 211.5 202.1 202.6 210.2 213.3 212.1 207.7 212.7 214.9 217.4 217.3 215.8
45.2 44.7 50.7 58.8 57.3 51 51.2 44.1 41.9 42 40.7 43.6 50.7 55.8 58.8 62.9 64.1 61.7 58.2 55.3 50.6 47.5 44.7 40.2 35.5 32.6 31.2 30.1 29.2 28.7 30.1 31.2 30 28.3 27.8 27.3 27.2 27.2 27.4 29.4 30.7 32.3 32 30.4 29.9 30.4 31.2 32 33 34.9 36.2 38.4 40 42.6 46.6 50.3 47.4 47.9 50.1 52.4 61 68.7 75.7 79.2 78.8 73.2 67.7 67.9 61 50.3 43.7 39.9 37.8 37.6 37.7 41.5 47.2 52.5 57.9 63.6 67.9 72.3 76.3 78 78.5 77.1 69.6 61.6 60.4 63.3 63.8 64.7 66.3 63.8 58.3 54.8 52.1 50.8 50.7 56.3 59.8 64.3 70.3 80.5 88.9 96.9 103.7 107.5 106.2 101.9 97.2 91.4 87.7 84.5 78 71.6 68.7 73.3 79.4 76.8 75 74.4 77.4 80.4 83.5 87.1 91.8 96.9 102.2 109.3 118.3 127.9 140.3 152.9 167.9 180.4 193.9 217.5 228.6 235.4 237.7 239.4 239.4 239.1 237.8 235.6 232.3 229 226.6 224.3 220 216.2 211.3 206.2 200.7 194.8 188.3 196.8 203 205.8 205.7 199.4 198.9 199.4 201.9 202.6 205.2 210.9 216.4 219.4 219.4 217.6 212.8 207.9 199.2 190.6 189.2 193.8 194.4 193.6 191.7 193 199.7 206.8 208.7 210.5 205.7 198.6 195.1 198 208.7 211.3 212.6 210.6 211.9 213.8 216.6 218.4 218.3 217.6
49.1 50.1 55.5 64 57.9 55.3 51.4 46.4 45.7 44.6 42.3 45.3 49.3 55 56.2 56.9 60.4 61 57.2 54.4 50.9 47 43.6 39.7 35.3 31.8 30.8 29.9 29.1 30 32.7 34.2 32.4 30.9 29.4 27.2 27 27 27.3 27.9 29.9 30.7 30.3 29.1 29.4 29.7 30.2 31.3 32.3 33.3 34.6 36.8 38.1 40.6 42.4 45.2 45.2 43.9 45.3 50.5 59.1 66.1 74.1 81.6 82.5 78.5 75.2 73.1 65.3 53.3 44.2 40.1 37.8 37.6 37.3 41.6 47.8 54.2 60.5 64.6 67.6 70.8 75.3 77 75.8 72.1 66.7 59.4 55.8 60 59.7 61.6 62.5 58.7 52.6 50.1 49.5 54.3 57.1 57.5 62.9 68.9 76.6 87.5 95.2 99.3 105.3 108.2 104.4 100 96 91.6 88.2 85.1 80.1 72.1 69.2 70.7 74.7 74.3 72.6 75.3 79.1 84.5 86.3 88.6 93.2 98 102.3 109 117.6 127 138.3 152.3 166.1 178.7 192.6 215.3 226.1 232.8 235.2 237 236.7 236.4 236 234.2 230.9 227.1 222.5 219.4 216.3 213.7 208.7 204.1 199 192.2 185.5 195.9 202.5 201.9 196.5 186.5 187.3 187.3 190.2 192 195.7 203.5 209.8 213.8 214.7 217.3 209.9 201.5 190.6 180.9 181.8 182.2 183 181.7 188.3 190.6 189.1 191.9 195.8 196.2 195.6 201.8 208.1 204.8 202.5 208.8 209.6 209.8 211.9 214.4 217.6 219.2 219.5 219.2
51.7 55.5 61.4 66.3 60.1 58.3 50.9 53.1 51.4 46 42.7 46.6 53.6 56.5 53.1 51.7 55 56.7 53.9 52.2 48.7 45.1 41.2 37.4 33.8 32.3 31.5 30.8 30.8 31.8 34.5 36.2 34.4 32.3 29.4 26.8 26.8 27 27.1 27.4 28.1 29 28.7 28.5 28.8 29.1 29.8 31.6 32.6 33.8 34.6 35.3 36.8 38.1 39.2 40.9 41.1 41.4 44.1 48.9 56.6 65 73.2 81.2 81 79.8 77.9 73.9 66.8 57.5 46.1 40.3 37.6 37 36.5 41 46.8 53.4 58.9 62.2 64.1 69.1 74.7 73.9 72.4 69 63.8 59.3 53.5 55.9 58.2 59.3 59.1 51.8 46.6 49.2 56.6 63.4 62.1 60.9 67 73.9 85.1 95.8 100.1 103.7 107.5 108.5 103.4 98.4 94.5 90.6 88 84 80.2 71.6 67.4 68.5 70.9 69.4 72.9 77.2 83.8 89.3 89.5 91.1 94.9 98.2 102.7 108.6 117.1 125.9 137.1 151.6 165.9 178.8 191.1 212.1 223.3 230.5 233.3 234 233.3 232.8 232.5 231.6 228.9 225 219 212.2 210.1 208.7 205.1 202.1 195.8 189.6 184.6 193.7 199.9 196.7 186.3 174.5 173 175.3 176.5 180.9 188.4 196.2 203.3 208.8 209.8 209.5 204.5 193.8 179.5 177.8 179.1 179.8 187.3 195.8 203.7 204.1 196.7 198.5 195.8 194 207.2 212.1 211.9 210 205.7 203.9 207.5 209.9 213.2 216.1 218.7 219.8 220.1 220.3
54.7 61 66.2 66.4 64 59.3 53.8 58.8 53.1 46.6 44.4 45.7 52.4 57.5 53.6 49.4 49.1 49.7 50 47.8 45.2 41.6 38.5 36 34.4 33.8 32.7 32 32.7 33.5 36.5 36.7 34.5 31.4 28.8 26.6 26.7 26.8 26.9 26.9 27.7 27.6 27.8 28.1 28.5 28.8 30 32.7 33.8 34.7 35.3 35.5 35.6 37.1 37.7 38 39.1 39.9 43.5 49 57.7 67 74 79 77.7 75.8 74.6 71 65.9 59.6 49.9 41.5 37.5 36.7 36.3 39.7 45.9 52.3 56.1 58.3 62.1 67.5 72.2 73.2 68.5 65.8 61.9 58.2 54 50.3 56.2 56.7 51.8 45.7 49.4 56.3 64.5 68 65.4 65.1 71.7 82.2 94.1 100.2 103.3 105.3 108.6 107.7 102.7 97.7 92.9 88.2 86.6 83.2 79.2 71.6 67.2 66.7 67.7 70.8 75.3 81.1 90.5 93.7 92.9 93.5 96.5 100 104.5 110.3 117.7 125.9 136 150.2 165.4 176.5 189.3 208 221 227.8 230.9 231.4 230.4 229.8 229 228 225.4 221.3 214.2 206.4 204.1 203 200.4 195.9 190 180.4 183.3 188 192.6 186.3 172 161.4 158.4 158 162.6 169.2 180.5 189.6 194.5 198.2 199.4 198.6 192.7 183.2 175.5 182.5 188.5 194.4 201.4 211.1 211.6 208.8 202.3 207.8 210.3 209.1 209.5 212.4 213 211.3 209.2 207.5 206.9 211.1 214.7 217.4 219.6 220.3 220.2 220
61.1 64.5 68.8 66.9 64.1 58.9 60.9 63 55.9 49.6 47.4 47 52.7 57.5 55.5 50.6 45.3 44.2 44.1 41.7 40.3 38.2 35.9 35.6 37.4 36.7 35.3 34.1 34.5 36 38.6 36.8 33.1 30.6 28.1 26.6 26.4 26.5 26.6 26.6 27.1 26.9 27.3 27.7 28.2 28.7 30.1 32.6 35 35.7 36.3 36 35.4 35.7 35.8 36 37.2 39.4 43.6 50.1 58.9 66.7 72.2 73.6 72.8 70.3 69 66.9 62.7 58.4 52.5 43.1 37.8 36.4 36.5 37.2 44.3 50.3 51.6 53.8 59.3 64.9 69.7 70.7 66.4 61.8 59.3 55.5 50.6 49.1 53.1 51.1 46.2 47.4 53.5 61.4 67.9 71.1 70 70.9 77.9 89.5 99.7 103.3 104.2 105.8 107.4 105.7 100.9 96.3 91.7 86.8 86.1 83.2 78.4 72 68.3 66.4 69.2 72.9 79.1 86 94.2 95.4 94 94.5 97.5 100.4 105.3 110.8 117.7 126.1 135.5 149.4 164.3 173.9 187 203.7 218 224 227.6 228.1 227.6 227 225.6 223.3 220 215.6 209.3 202.2 198.7 199.5 196.7 191.1 182.5 168.4 177.7 184.2 182.2 172 156 148.1 144.8 148.7 154.1 162.5 174.6 184.4 186.2 188.4 189.6 189.5 184.7 176 177.1 189.4 199.9 208.1 213.5 214.7 212.6 208.8 205.7 209.4 211.2 211.5 211.5 212.4 214.3 213.6 211.9 209.4 206.6 211.9 215.7 218.3 218.7 218.9 218.9 220.1
65.8 68.4 68 66.6 64.4 62.2 65.9 65 57.9 52.7 51.7 50.3 54.3 58.3 55.7 51.1 45.3 45.2 44.2 42.9 41 38.5 37.6 38.2 39.8 40.4 39 37.6 37.8 39 39.7 35.7 31.7 29.5 27 26.5 26.3 26.3 26.4 26.5 26.7 26.6 26.9 27.5 27.9 28.9 30.4 32 34.2 35.5 36.6 36.5 36 34.9 34.8 35 36.3 39.1 44 53 61.6 65.9 67.9 66.5 65.8 64.8 63.3 61.9 58.1 54.3 51.5 46.3 41.1 36.8 36.5 36.2 41.4 45.4 48.4 50.5 55.4 60.4 65.7 68.5 65.7 58 55.7 52.2 47.3 45.6 47.5 46.3 44 49.3 55.3 63.4 69.2 75.3 76.6 78.9 84.8 95.7 101.6 103.7 102.2 103.7 105.9 104.6 99.7 94.7 89.7 85 85.7 83.1 78.4 71.6 68.4 66.2 70.5 77.4 83.3 90.4 96.5 97.1 96.2 95.4 97 99.7 104.7 109.7 116.5 126.3 135.2 149.1 162.7 172.9 183.8 203.9 215.9 219.4 221.5 222.9 223.1 224.8 222.7 219.7 216 211 203 196.9 193.4 192.2 190.8 184.9 176.2 160.9 171.3 177 170.2 157.2 143.3 143 157.9 162.7 153.4 153.9 162.3 166.8 168.9 173.1 178 179.9 172.3 172.4 186.2 199.2 211.8 215.5 216.6 216.1 214.2 210.2 209.9 213 213.8 213.9 213.4 213.9 215.2 215.2 213.9 211.2 207.2 211.7 215.4 218 217.9 217.2 217.8 219.5
67.6 69.5 66.3 63.8 62.8 60.4 64.4 64.2 58.4 55.7 54.2 54.5 58.6 60.1 56.2 52.4 48.3 48 48.2 46.7 43.3 41.4 40 41 42.1 42.7 41.5 40.5 40.5 40.3 40.3 36.3 33.1 29.4 26.3 26.2 26 26.2 26.4 26.4 26.6 26.8 26.9 27.6 28.5 29.4 30.7 31.3 33.5 34.6 35.7 36.5 35.2 33.8 33.5 34 35.6 39.7 47.4 56 61.1 63.3 63.3 59.9 57.8 57.3 56.9 56.5 52.6 48.2 46.3 44.4 43.7 40.2 36.4 35.7 37.8 42.4 43.6 47.5 51.7 56.5 61.5 64.8 64.6 57.6 49.7 47.4 44.6 44 44.3 45.1 47.4 51.2 57.8 66.4 72.9 78.6 82.6 87.3 91.9 99.2 102.7 101.9 100.1 101.3 103.4 102.4 98.8 94.1 88.9 83.6 85.1 84.1 78 71 65.6 66.3 71.2 78.2 86.5 93.8 97.9 98 95.1 94.8 95.8 98 101.3 106.3 112.8 124 131.5 145.4 158.6 169.6 182.1 200.5 210.1 212.2 212 214.4 217.9 220.3 220.1 216.8 211.3 204 196.1 190.4 186.6 184.7 182.7 178.3 170.5 155 162.4 166.4 159.6 144.3 136.2 156 168.5 180.5 166.9 154 156.2 159 160.5 160.6 164.3 167.5 175.7 188.1 197.3 208.8 214.1 216.6 217.5 217.2 215.6 212.7 213 215.3 216.2 216.4 215.4 215.6 216.5 216.2 215.1 212.5 208.6 209.9 213.9 216.1 215.8 215.7 217 219.1
63.8 65.7 63.7 57.9 60.1 55.8 59.5 62.3 58.4 55.9 54.7 55.3 58.6 60.6 57.6 53.8 50.1 50 50.1 47.5 44.3 42.4 40.4 41.8 42.4 42.3 41.5 40.6 41.6 42.9 41.4 38.8 34.3 29.2 27 26.1 25.7 25.7 26.2 27.9 26.7 26.7 26.8 27.1 28.4 30.2 31.3 32.3 32.6 33.8 34.8 35.7 34.7 33 32.6 33.8 36.1 42.5 50.2 56.2 59.2 60.4 58.7 56 52.2 52.2 51.7 50.5 46.2 43.1 42 40.8 41.8 41.5 38.8 35.4 35.7 38 39.2 42.1 46.2 51.7 57.8 63.1 61.9 55.8 47.6 43.2 43.6 46 49.2 51.8 55.5 56.9 61.5 70.7 77.3 82.6 86.7 92.7 97.8 99 100.3 98.9 97.8 99.5 101.8 99.7 96.7 91.4 87.4 82.6 84.1 83.1 76.7 70 64.4 66.4 71.8 77.9 86.8 95 98.3 97.5 92.1 92.1 93.2 94.9 98.1 103.1 110.2 120 128.3 139.4 152.3 164.5 176.2 191.2 204 202 203.9 203.4 207.4 213.5 216.7 214.1 204 197.3 186.7 181.6 177.5 174.8 175.5 174.6 166.2 150.7 143.2 146.8 146.8 135.2 148.4 165.1 174.8 189.9 191.8 179 174.8 176.9 177.6 178.1 182.9 188.8 195.9 205.4 207.1 210.4 213.3 216.5 217.8 217.7 216.3 213.3 213.8 215.8 217.4 218.1 217.3 217.1 218.1 217.5 216.3 213.7 209 208.5 210 212.7 213.4 215.4 217.3 219.2
58.2 59.6 61.5 57.9 55.9 52.9 55.2 58.7 57 54.5 51.6 52.9 56.7 59.9 58.3 54.5 48.7 48 48.3 45.2 42.2 39.8 38.7 40 41.3 41.1 41 41 42.1 44.2 43.7 39.7 33.8 31.2 28.5 26.8 26.1 26 26.3 29.1 26.5 26.6 26.7 26.7 28.3 30.1 32 32.3 31.2 32.7 34.2 33.9 33 31.7 31.6 33.2 36.4 44.2 49.7 53.6 55.9 55.1 53.2 50 47.8 45.1 44.8 43.6 41.6 37.5 37 36.9 39 41.1 41.7 37.3 35.7 35.1 36 37.7 40.5 47.1 56.3 60.4 58.7 52.8 44.7 42.7 45.5 48.6 55 59.9 63.8 65.2 69.3 75.6 81.2 85.8 90.4 96.2 97.4 95.8 95 94.4 95.7 99.3 100.9 96.7 92.9 88.1 84 80.1 82.5 81.1 74.4 67.5 64.5 68.3 73.6 79.8 88.8 96 98 96.1 90.1 88.2 89.5 91.9 95 99.9 106 115.4 123.4 132.3 144.7 156.3 165.2 175 185.7 192.1 188.2 185.4 186.7 191.4 197.5 202.3 197.1 189.3 179.4 170.6 163.3 162.4 162.3 161.8 159.4 150.1 137.2 133.3 133.4 137.3 147.3 163.9 178.7 190.4 196.5 199.9 200.7 205.5 206.9 205.1 207.1 208.8 210.9 211.7 212.2 213.1 212.9 215.8 217.5 217.7 216 212.6 214.7 216.1 217.5 219.1 218.8 218.3 219.4 219.1 217.4 214.5 212.1 213 210.7 210.9 212.6 215.8 217.7 219.3
56.6 53 56.6 57.7 51.5 51.8 51.2 55.8 54.3 51.5 48.9 50.1 54.4 58.4 57.9 54.6 47 45.2 44.6 41.8 39.4 36.9 37 38 39.9 39.1 38.1 38.1 39.2 43.5 44 39.5 33.9 31.9 30.9 28.8 26.2 26.1 26.1 28.9 26.5 26.6 26.6 26.7 27.7 29.4 31.5 31.3 29.9 31.3 32.6 33 31.8 30.7 30.6 32.7 36.1 43.2 45.7 48.3 48.6 49.2 46.8 43.9 41.9 39.6 38.4 38.3 36.3 34.2 33.7 33.9 35.8 38.1 40.6 40.8 38.1 35.7 35.5 34.8 37 42.5 51.9 57.6 56 49.8 42.8 42.5 44.6 50.2 55.1 60.5 67.3 71.9 77 82.4 85.9 89.1 93 95.8 94.4 91.7 89.8 92.5 95.8 98 100.2 96 90.9 84.7 80.8 77.2 78.5 78.2 71.7 65.1 64.5 69.4 75.7 82.1 91.8 96.4 95.9 94.1 88.3 86 87.1 88.9 92.4 95.2 100.8 108.3 115.4 122.2 130.6 140.5 148.3 157.8 165.1 168.9 166.6 165.2 163.2 167.4 173.2 178.3 183.6 179.1 168.9 153.6 140.2 137.9 139.8 146.6 151 140.5 120.7 122.8 124.9 138.7 152.3 167.1 180.6 187.4 194 199.8 204.2 207.7 211.3 213.1 214.9 214.8 215.4 216.1 216.5 216.6 215.5 216.7 218.3 217.7 216.9 214.9 215.5 217.1 219 219.9 219.9 219.5 220 219.1 216.9 214.5 215.4 215.3 213.5 213.6 213.1 215.9 218.6 221.6
58.2 53 49.4 51.9 50.1 47.1 46.9 51 51.4 47.5 48.2 47.9 49.9 53.5 54.4 51.8 44.5 40.4 39 37.8 36.5 35.1 34.8 36 38.4 37.1 35.8 34.6 36.2 39.6 41.6 38.1 34 33.1 32 28.9 26.4 26 25.9 28.8 26.5 26.6 26.6 26.6 27.4 29.8 30.5 29.7 28.8 29.5 31.1 31.5 30.7 29.9 30 31.4 34.1 38.8 42 42 42.2 41.5 40.5 38.2 36.6 35.5 34.5 33.5 32.6 32.5 32.8 33.4 33.6 33.8 35.9 38.4 37.7 35.9 35.7 34.9 34.9 41.6 50.8 55.1 52.2 47.5 41.6 41.7 44 48.9 54.7 60.8 67.8 75.3 81.6 85.8 89.1 90.4 92.8 93.9 91.5 88.1 86.3 91.3 94.5 97.1 99 95.4 90.4 84.2 77.1 74.2 73.8 74.7 68.5 62.8 65.3 71.6 78.3 84.7 92.3 95.3 94.8 92.8 87.4 84.1 84.6 87 89.1 91 94.6 100.2 105.7 111.4 117.1 126 134.2 139.6 144.2 147.7 145.2 144.1 142.9 144.2 149.1 153.7 159.9 161.6 148.9 133.5 122.3 114.6 117.9 120.6 127.1 121.8 122.1 134.7 144.8 153.6 160.2 163.1 173.4 185.7 194.2 200.6 204.9 208.4 211.9 215.1 216.9 217.7 218 218.7 218.2 218.9 219 219.1 219.5 218.7 217.9 217.3 217.3 219 219.8 220.7 220.8 220.8 220 219 216.8 215.8 217.6 217.1 215 215.7 215.6 215.3 219.2 222.9
60.7 56.9 51.8 47.4 47 44.4 42.9 46.1 49.2 46 44.1 47.2 49 50.9 55.6 50.5 45.2 40.5 39 36.1 34.9 33.3 33.1 34.1 36 35.2 33.8 32.4 33.1 35.8 37.7 35.9 32.2 30.5 30.2 28.8 26.9 25.6 25.5 27.5 26.5 26.5 26.5 26.5 27.3 29.6 29.4 28.4 28.1 28 29.6 30 29.2 28.8 29.8 30.7 31.4 34.2 36.8 37.1 37 36.4 35.5 34.3 33.2 33 32.5 31.6 32 32.3 32.7 33.1 33.2 33.4 33.9 33.8 33.5 34.2 35 34.7 36.1 43.3 52.9 52.7 48.2 43.2 40.9 41.3 44.5 49.7 55.5 61.7 69.7 78.2 85.6 88.6 87.5 87.7 90 90.9 88.2 85.1 83.8 89.5 93.1 95.8 97.7 93.9 88.5 82.2 74.2 69.7 69.7 70.4 64.6 61.9 67.7 76.1 81.5 86.2 90.1 93.8 93.4 91.4 86.9 83 82.2 84.8 86.3 87.8 90.4 92.6 97 101.2 106.5 111.7 118.2 123.8 128.3 128.8 125.2 123.9 124.1 128.2 129.3 134.3 140.1 141 133 121.3 109.5 118.7 123.5 122.2 116.8 120.3 140.7 152.1 160.3 168 175.8 179.1 186.2 193 197.5 201.3 205.7 208.7 211.6 214.8 217 218.4 219.6 219.5 218.6 218.4 220.1 219.2 219.2 219.6 218.9 218.5 218.8 219.9 220.9 221.5 222 221.6 220.1 218.6 217.3 218 219.1 218.5 217.6 217.5 218 217.4 219 224
60.9 57.6 52.1 52.4 49.4 46.2 43.8 40.3 45 42.8 42.2 43.9 46.5 49.9 53.7 49.5 43.9 44.2 40.4 37.2 35 32.6 32.6 32.8 33.4 32.3 31.6 31.3 31.6 32.7 33.4 33.3 30.5 28.7 28.5 27.9 26.4 25.4 26.8 26.3 26.3 26.4 26.4 26.4 27.4 28.6 28.4 27.6 27.9 27.9 28.1 28.6 27.9 28.9 29.7 30.1 30.3 31.8 32.5 32.8 33.3 32.6 31.9 31.1 31.1 31 31 31.4 32.3 32.5 32.9 33.2 33.2 33.3 33.8 33.8 34.1 34.5 34.4 35.5 40.9 49.6 52.3 49.5 44.2 40.4 40.3 41.3 45 50.7 56.2 63.2 71.9 80.7 88.3 90 84.7 82.6 86.7 88.8 86.2 82.5 82.1 86.6 91.1 94.2 96 93.2 89.8 82.4 74 67.4 65.4 65.8 61.1 64.6 72.6 82.5 84.2 84 86.6 89.8 91.9 89.8 85.8 81 79.6 82.4 83.8 84.6 85.6 86.9 90.1 93.7 99.1 102.3 106.6 109.2 112.3 111 111.3 109.2 107 109.3 111.9 115.2 119.8 123.7 118.5 107.2 119.2 133 144.3 148.8 138.9 139.6 153.1 165.5 175.4 182.6 188 188.1 192 196.4 200 203.2 206 208.9 211.6 213.6 215.9 217.6 218.2 219 218.6 218.2 218.5 218.5 218.6 219.1 219.7 220 220.3 222.1 223.4 223.6 223.3 221.9 220.6 219.3 219.7 220.5 220.8 220.3 221 222.1 222.3 221.3 219.5 225
63.2 58.1 55.9 53.9 49.9 49.1 47.4 42.3 40.2 39.4 42.6 48.8 51.2 52.4 53.4 49.8 47.2 46.1 41.1 38.2 36.1 32.8 30.6 33 32 30.4 30.1 29.4 29.9 31 30.9 30.7 28.5 27.1 26.8 26.5 25.5 25.3 28.7 26.2 26.2 26.3 26.4 26.5 26.7 27.5 27.9 26.8 27.5 27.9 27.2 27.2 27.3 28.8 29.1 29.2 29.4 29.9 30.8 30.9 31.6 31 30.6 30.4 30.7 31.2 31.6 32 32.8 33.1 33.1 33.2 33.4 33.7 34 34.3 34.6 35.1 39.4 44 49.6 52.9 50.4 45.3 40.1 39.9 42.4 42.9 45 50.2 56.9 64.8 73.3 82.3 90.3 88.9 83.6 78.4 83.9 86.4 83.4 80 80 85 89.5 92.1 93.9 91.7 87.8 81.9 73.5 66.2 63.5 61.3 63.1 68.7 78.8 84.7 83.9 82.3 83.3 87.8 90.6 88 84.7 78.4 77.5 80 81.1 81.5 82.2 83.3 85.3 87.6 90.8 93 94.6 95.7 97.9 97.9 93.9 92.3 93.7 93.6 96.4 95.9 100.3 103 105.6 117.2 132 147.6 164.9 167.1 149.4 146.3 163.5 179.2 188.8 190.5 191.9 192.8 196.1 198.9 201.8 204.2 206.4 209.3 210.8 212.3 214.4 215 215.6 216.5 216 215.4 215.8 216.8 218.5 219.4 221.1 221.2 222.1 223.6 225.3 225.4 223.9 222.7 221.4 221.7 221.9 222.9 222.7 222.3 223.4 224.5 225.2 225.4 223.8 223.4
67.6 60 56.7 53.4 49.5 48.7 48.3 43.9 39.8 38.5 43 50.9 54.8 53.6 52.1 49.9 50.6 47.5 44.4 40.9 36.5 32.7 30.8 30.2 29.6 28.7 28.7 28.1 28.1 29 28.9 29 26.7 25.7 25.7 25.6 25.8 25.8 28.4 26.5 26.5 26.5 26.6 26.6 26.6 27.1 27.6 27.5 27 27.3 27.9 28.2 28.5 27.8 28.2 28.7 29.1 30.2 30.8 30 30 30.1 30.5 30.8 31 31.3 32.4 32.7 33.3 33.7 33.7 33.8 34.1 34.3 34.3 34.5 34.8 36.3 41.3 47.2 50.3 50.2 46.6 40.7 39.2 42 47.5 47.5 45.6 50.1 57.9 65.6 74.4 83.7 90.6 89.4 80.2 75.5 81 81.5 80.3 76.8 79.7 85.1 87.6 89 92.1 89.8 85.3 78.2 71.1 65.5 62.3 61 65.3 73 81 83.6 82.6 80.6 80.2 84.4 87.6 86.1 83.2 77.3 74.7 76 77 78.1 79.3 80.6 81 79.6 82.5 84.3 84.7 86 86.5 88 91.5 95.2 100.1 103.4 106.4 106.4 106.8 113.6 121.9 132.4 148 164.6 177.3 172.6 160.4 147.3 165.1 174.3 186.2 191.6 193.3 194.9 197.7 200.4 202.7 205 206.9 208.4 209.9 211.2 212.6 213.6 214.6 214.5 213.2 212.6 212.8 213.9 216 220.2 222.5 222.4 222.5 224.5 225.8 227.1 225.5 223.7 223.7 224.3 224.5 224.7 223.9 223.5 225.1 226.5 226.8 226.8 226.2 225.1
68.7 61.3 54.1 51.1 47.5 46.1 46.8 44.4 40.8 37.4 42.8 50.8 55.7 52.6 51.4 51.4 52.6 50.4 46.7 40.7 36.4 33 30.4 29.3 29.1 28.8 27.9 27.7 27.7 27.2 27.7 27.8 26.1 25.8 25.6 25.6 25.9 26.8 25.9 26.7 26.8 26.9 26.9 26.6 26.7 27.5 27.6 27.7 27.6 27.4 28 28.3 28.5 28.6 28.5 29 29.1 30.1 29.9 30.3 30.2 30.5 30.8 31.1 31.3 31.5 32.6 33.5 33.3 35.3 37.1 37.2 36.6 35.7 34.5 34.5 34.8 35.3 39.8 44.6 47.2 45.1 42.1 39.2 40.1 46.1 51.4 52.5 48.9 52.7 59.7 67.7 76.4 84.8 90.2 86.2 76.4 72 77.2 79 75.2 75.9 80 85 86.4 86.8 90.9 88.1 83.3 74.3 66.8 62.7 60.5 62.3 66.6 73.4 80.3 80.9 79.9 78.3 75.5 78.5 84.1 82.2 79.6 75.3 72.7 73.3 75.2 76.8 77.8 79.5 79.9 81.9 84 85 90.5 94.6 97.5 99.2 102.3 105.8 109.8 112.5 116.4 119.1 127.1 135.8 142.2 150.9 165.3 180.8 184.5 180.4 172.1 157.1 160.1 168.1 181.7 191.1 194.3 196.7 199.6 201.2 202.4 204.3 205.6 207.2 208.4 209.6 211.7 212.3 213.2 211.9 209.9 208.6 208.3 209.7 213 218.4 223 223 222.3 224.3 226.8 228.5 228.1 226.8 226.7 226.1 225.5 224.6 224.3 224.6 225.4 226.5 227.6 228.2 228.2 228.3
66.7 61.3 53 48.4 45.5 43.6 44.2 42.9 39.7 36.9 43.3 52.7 54.5 51.5 50.3 50.9 54 52.4 47.6 41.7 37.5 33 30.5 30.8 30.3 29.3 28.2 28.1 28.1 28.2 27 26.6 26.8 26.4 25.5 25.7 26 28.4 25.9 26.7 27.2 26.5 26.3 26.5 26.7 27.3 27.5 27.6 27.7 27.6 28 28.2 28.4 28.6 28.8 28.8 29.3 30 30.2 31.8 31.7 31.5 32.1 31.9 32 33.6 34.1 34.1 35.1 39.7 41.3 40.7 38.5 36.3 35 34.7 34.8 35.3 38 42.3 42.4 40.3 38.3 38 40.4 46.9 52.2 55 52.1 57.5 63.5 71.2 80 86.2 89.4 84.1 73.5 68.3 73.1 74 71.8 76 80.2 83.9 82.5 86.6 90.9 86.7 81.4 72.8 66.9 62.6 60.6 61.3 66.1 72.8 78.7 77.9 76.6 74.8 72.2 72.9 76.5 76 73.1 71.4 73 74.6 76 77.5 78.7 80.1 81 85.4 90.1 94.6 98.8 103.8 107.7 110.4 111.3 114.5 118.8 121.3 124.5 131.1 146.9 158.3 163.6 169.9 183.3 196.1 193 187 177.5 169.8 172.4 164.9 173 187.3 193.3 196 197.6 199.6 200.8 202.8 205 206.6 207.3 208.9 211.2 212.4 210.9 208.6 204.4 201.7 201 204.2 207.7 211.5 215.9 217.1 218.3 224.4 229.2 230.7 230.1 228.4 227.9 226.4 225.2 224.1 223.7 223.6 224.5 225.9 227.8 228.3 229.2 229.9
63 60.6 52.3 45.3 40.9 39.6 40.3 40.5 37.1 36.5 44.8 54.3 53.8 50.2 49.1 51.3 55 54.4 48.9 43.6 38.5 33.6 31.8 32.4 31.7 30.3 29.9 29.8 29.3 29 28.9 27.1 27.9 26.5 25.7 26.2 26.5 26.1 26.1 26.7 26 26.1 26.3 26.5 26.6 27 27.3 27.4 27.6 27.8 28 28.2 28.4 28.6 28.8 28.6 29.4 30 31.5 33.3 35.3 35.7 34.6 35.4 36 35.7 36.6 36.7 39.4 44.1 46.5 43.7 40.6 37.8 36.7 35.1 35.2 35.6 36.4 38.7 37.7 37.2 37.8 39.3 44.3 49.9 53.7 56.9 57.4 62.6 67.9 75 83 86.5 89.6 83.2 71.9 65.2 67.1 67.1 72.7 77.5 80.9 81.6 76.9 79.1 87.1 83.8 79.5 74.8 70.7 63.3 59 60.3 65 71.1 75.8 73.8 73.2 71.1 69.3 68.8 69.1 69.6 69.2 71.1 72.7 74.3 75.6 76.8 78.1 79.8 83.4 88.4 94.2 100.5 106.2 113.6 116.6 118.7 121.1 123.7 127.9 131.1 140.8 154 170.5 182.4 184.6 189.1 201.8 202.4 196.2 190.1 182.3 179.3 179.6 175.9 172.3 172.6 182.8 187 190 195.7 200.6 204.3 206.1 207.5 208.7 210 212.2 211.1 208.7 205.3 199.7 194.1 194.5 199.4 200.3 199.8 200.7 204.8 214.1 223.7 230.8 232.6 231.5 228.7 227.3 224.8 222.4 220.1 219.7 222.5 223.5 224.6 225.7 227.8 229.2 231.8
60.3 59.6 50.9 44.9 39.2 37.7 36.8 37.1 34.9 37.5 45.6 53.6 53.2 49.6 47.2 50.2 54 55.9 49.8 44.1 37.9 33.7 33.7 33.8 32.5 30.8 30.5 31.7 31.6 31.1 30.7 28.8 27.5 26.4 30.7 33 28.3 31.6 32 25.7 25.9 26 26.2 26.4 26.6 26.7 27.1 27.3 27.4 27.7 28 28.3 28.5 28.7 28.7 28.9 30.5 32 33.3 35.1 37.3 39.8 40.8 42.8 41.4 39.5 40.3 42.2 45.1 48.3 50.4 46.1 42.8 42.3 39.7 35.3 35.4 35.4 35.6 36.7 36.7 37.3 40.5 45 48.9 54.7 58.6 60.9 62.3 66.2 71.7 78.9 84 87.2 88.4 84.6 74.5 65.3 62.2 68.5 73.8 78.3 79.9 78.7 72.8 77.8 82.4 80.7 76.5 72.9 68.8 63 59.3 59.8 64.2 70.3 72 70.4 69.6 68.4 67.2 67.3 67.4 68.1 69.2 70.5 72.4 74 75.2 77.1 79.3 81.9 86.4 93.1 101.9 110.1 116.6 122 126.9 133 135.2 135.3 138.8 147.3 160.6 173.9 188 196 205 210 209.2 206.8 199.2 193.6 187.5 183.9 187.4 188.5 187.7 185.6 188.3 193.1 198.4 201 204 205.8 207.2 208.6 210 212 211.6 210.3 206.8 200.7 192.5 186.3 188.5 194.3 194.6 190.6 189.9 198.5 210.3 224.2 233 235.7 233.4 229.5 224.6 220 217.4 214.5 216.3 218.4 218.3 218.7 222.1 223.7 228.2 234.1
59.8 53.8 47.1 40.9 37.1 36.3 34.3 33.8 34.8 38.9 45.8 52.8 52.4 48.9 47.3 51.9 56.6 55.5 50.2 43.9 38.3 35 34.9 34.9 32.7 31.1 32.6 33.1 32.4 33.4 33.1 28.7 26.1 25.7 25.8 26.7 26.9 25.3 25.7 25.6 25.7 25.9 26.1 26.3 26.5 26.7 27 27.1 27.4 27.6 27.9 28.2 28.5 28.7 28.8 30 31.6 33.8 35.9 37.8 39 44.5 47.9 48.8 48.9 47.4 50.5 52 55 55.3 53.8 51.7 48.7 47.8 45.3 38.7 35.4 35.6 36 36.1 36.7 38.3 44.6 49 52.9 58.7 63.8 67.3 68.5 71.1 76.2 81 83.3 85.9 87.1 83.1 74.8 64.4 63.7 68.4 73.9 77.8 77.3 75 69.5 75.7 77.4 76.2 71.7 66.2 63.5 60.8 57.7 59.6 64.2 67.9 67.6 66.9 65.5 65.7 66.2 66 67 68.4 69.2 70.4 72 73.8 76 79.1 82.3 84.8 91.9 101.5 112.8 125.3 131.2 134.9 143 151.4 156.9 159.7 160.4 166.1 175.8 189.5 203.3 210.5 213.9 217 214.1 209.9 203.3 198.3 192.4 188.7 192 194.7 196.9 196.2 197.3 200.4 203.3 205.2 207.1 208.2 209.3 210.6 211.9 211.4 209.4 208.2 204.1 197 184.9 180 181.4 188.1 187.7 184.2 186.8 194.1 204 219.7 231.9 235.4 233.7 229.3 222.7 215.1 210 205.1 208.2 209.1 208.2 211.4 216.6 225.4 231.8 239
54.1 46.8 42.4 38.1 33.8 33.7 33.1 35.8 38.2 43 48.4 54.1 50.5 46.6 47.8 54 60.1 57.5 48.9 43.1 38.5 35.8 36.2 35.3 32.6 31.9 32.6 34.6 35.5 34.3 30 26.7 25.3 25.4 25.9 28.2 25.9 25.6 25.4 25.5 25.6 25.8 26 26.2 26.4 26.6 26.8 27 27.3 27.5 27.8 28.1 28.4 28.7 30.1 31.5 33.1 35.4 38.5 40.7 41.6 44 51.4 58.4 58.3 61.6 64.7 67.7 66.1 63.8 60.4 58 55.1 53.7 52.7 47.6 41.2 36.9 36.4 36.3 36.7 38.7 45.4 50.3 56.4 63.2 67.9 72.2 74.5 77.8 79.5 81.3 80.5 83.4 84.8 80.7 73.1 63 61.7 66.8 71.9 75.9 74 70.9 64.6 71.3 70.9 68.5 64.8 60.4 56.9 57.2 57.4 59.2 62.6 62.9 63.2 63.3 64 64.7 65.1 66.7 68.4 69.3 70.5 70.7 72.5 74.1 77.1 80.5 83.8 88.5 96.6 107 123 134.7 143.9 150.5 161.1 173.4 177.6 178.5 183.2 187 194.5 206.6 218.2 219.1 220 219.4 216.3 213 207.2 200.9 196 194.2 195.1 199.4 200.4 200.6 202.8 205.9 207.4 208.7 208.5 209.8 210.8 212.2 210.7 208.3 205.5 205 202.3 194.8 182.9 176.5 176.6 182.1 181.3 180.6 185.3 192.1 199.7 213.6 226.3 231.1 232.8 228.3 220.5 212.1 199.3 193.9 194.5 197.9 206.3 215.3 222.2 230.5 237.1 244.7
49 41.8 37.5 34.4 31.9 31.8 34 38.5 42.1 45.8 49.8 53.8 49.4 44.5 48.6 54.2 62.4 56.9 49.2 43.6 39.4 37.4 37 36 33.9 32.4 34.3 36.1 36.7 32.5 27.7 25.5 24.9 25 26.1 25.9 25.3 25.3 25.3 25.4 25.6 25.7 25.8 26.1 26.3 26.5 26.7 27.1 27.2 27.5 27.7 28 28.6 29.3 30.8 32.8 34.5 36.1 39.7 44.5 45.1 46.8 53.1 65.2 71.1 73.8 75.5 75.5 73.1 71 67.9 64.2 61.1 59.4 58 55.3 49.1 42.8 36.4 36.8 36.7 40.4 47.1 52.6 59.6 65.5 71.2 76 78.7 79.8 78.2 77.3 77 80.7 81.9 78.7 69.7 61.5 59.8 64.3 69 73.6 71.5 66.6 62 64.6 65.2 61.8 59 56.3 56.1 57.2 57.5 58.6 58.9 59.8 60.5 61.1 61.8 63.2 65.4 67.6 69.1 70.2 72.6 74.8 74.5 74.9 77.7 81.2 85.2 90.4 101 112 126.9 140.4 152.2 162.8 173 183.4 185.5 193.6 201.1 208.2 217.3 219.5 222.6 222.6 222.2 220.9 218.2 215.9 210.4 204.3 201.5 199.4 199.9 201.5 203.8 204.4 207.4 209.6 210.8 211.2 211 210.7 211.4 210.9 207.2 202 200.1 200.5 198 192.6 184.1 175.5 174.5 175.9 176 178.8 183.4 188.8 196.3 208.1 219.2 225.8 229.9 225.2 217.2 204.2 190.7 190.5 200.1 208.4 217.1 223.8 228.8 235.5 243.4 254.5
41.2 38.4 34.5 32.3 31.1 31.1 35.8 40.3 43.7 45.7 51.3 52 47.7 43.2 46.9 52.7 62.1 56.2 48.5 44.5 40.3 38.7 38.2 36.1 34.1 33.3 36.1 37.6 34.7 30.1 26.8 25.3 24.8 24.5 27.9 25.7 25.6 25.1 25.2 25.3 25.5 25.6 25.7 25.9 26.3 26.6 27.1 28.1 27.7 28 28.3 28.6 29 30 31.4 33.4 35.6 38.1 41.7 46.1 49.9 52.4 57.5 70.5 77 80.8 82.8 81.6 79.1 75.7 72.9 69.3 66.1 64.1 61.8 58 54.5 45.3 37.6 36.8 38.1 42.1 48.6 55.4 62.2 68.3 73.9 79 81 78.2 73.3 70.9 73 76.9 79.1 78.5 70.2 61.3 57.5 61.5 66.4 69.2 68.5 63.6 59.8 59.7 59 56.3 56 56.1 56 57.4 57.2 57.8 58.7 59.8 60.9 61.8 63.3 65.4 67.5 69.9 70.5 73 76.5 78.4 75.6 76.6 79.4 82.4 87.3 92.6 102.6 114.9 128.1 142.6 156.3 165.6 180.7 191.5 193.2 204.5 213 218.3 220.2 220.2 222.8 223.4 222.9 222.2 220 217 212.3 208 205.7 204.3 204.7 205 206 207.9 209.9 211 211.5 211.5 211.4 211 210.1 207.4 201.5 194.5 192 195.6 192.8 188.6 182 175.2 171.9 171.9 174.6 177.6 180.9 185.5 192.7 203 215 223.5 225.4 219.9 211.4 197.6 185.7 192.6 203.8 213.9 220.7 225 231.6 238.7 250.5 261.9
34.1 32.4 31.7 31.2 30.2 30.9 37.3 40.6 42.3 44 50.6 48.4 44.7 41.3 44.3 50.8 59.4 54.1 43.9 41.7 40.6 39.6 38.8 36 34.6 34.6 36.9 37.8 35.7 31.8 27.2 25.2 24.6 27.6 24.8 25.3 25.3 24.9 25.1 25.2 25.3 25.5 25.6 26.9 27.3 28.6 29.8 30.8 30.1 30.2 30 29.6 29.8 30.5 32.2 34.3 36.4 38.7 42.6 47.4 52.5 57 62.1 75.8 82.5 87.2 87.5 84.5 81.7 77.8 73.9 70.5 67.3 65 62.3 58.7 53.4 45.5 37.3 36.8 37.3 41.4 48 56.4 63.8 70.6 76.3 81.3 81.4 76.5 69.5 64.5 69.2 73 76 76.4 70.6 61.8 56.1 58.6 63.4 64 62.7 59.8 56.5 53.9 53.3 53.8 54.8 55.4 56.2 57.6 57.6 58.8 60.1 61.4 62.7 63.8 65.5 68.2 70.4 73.2 75.6 78.1 79.7 80.9 76.6 78.8 82.1 85.1 89.4 95.4 104.4 116.3 128.4 143.7 156.1 166 184.2 197 201.6 211.6 219.1 221.2 219.8 221.6 223.2 223.4 223.1 222.5 220.3 217.7 214.7 210.1 208.7 207.4 207.3 207.3 206.4 207.9 208.6 209.3 210.5 210.3 210.1 209 207.4 203.3 196.1 184.7 183.2 188.8 188.7 184.6 179.2 174 170.6 170.1 173.2 176.4 179.5 183.2 190.5 200.1 211.4 216.3 215 208 202.5 192.2 183.5 193.5 205.7 214.9 219.2 220.8 230 241.6 255.1 267.9
34.5 38.1 33.8 33.3 31.5 29.5 37.2 38.4 38.4 43.8 48.5 46.7 43.3 40.3 43.4 51.2 59.9 53.7 41.9 40.2 40.5 39.4 38.6 35.9 35.2 34.5 35.2 34 33.2 31.6 27 24.9 26.5 25.7 25.1 24.6 24.9 24.8 24.9 25.1 25.3 25.4 25.6 28 30.3 31.1 31.4 32.3 32.3 32.1 31.4 30.7 30.7 31.6 33.3 35.2 37.4 39.4 42.7 46.1 52.5 58.9 64.8 77.3 87 89.8 87.6 84.1 80.6 76.7 72.5 68 64.4 61.6 58.6 55.7 51.4 41.7 37.8 37.1 37.3 39.2 45.8 54.6 63.7 72.3 78.6 84 81.5 74.7 67.3 61 64.7 68.6 71.7 73.9 70.5 62.7 54.8 57.1 59.1 59 57.6 55.8 54.3 53.4 53.4 53.9 54.9 55.8 56.6 57.6 60.2 62 63.3 63.8 66.6 66.5 66.9 70.4 73.3 75.8 78.4 81.9 82.3 82.3 77.9 80.1 83.3 86.6 91.1 97.5 105.9 115.7 127 141.1 154.4 165.6 179.6 200.2 205.6 205.7 217.4 219.2 218.5 220.3 222.2 223 222.5 222.1 221.5 219 215.8 212.6 211.5 209.5 209 207.5 206.5 206.6 206.5 207.8 209 209 208.7 205.4 202.5 197.6 188.7 176.1 175.5 182.1 184 180.5 175.7 171.4 168.7 169.1 172.3 175.3 178.5 182.1 189.2 195.6 198.1 197.6 193 190 193.4 187.6 181.8 195.3 206.7 211.5 212.5 217.5 229.7 243.5 257.4 269.2
43.3 43.3 37.9 35.5 31.3 29.4 35.7 34.9 37.4 44.5 47.8 44.3 41.1 38.9 42.9 51.6 59.9 51.4 40.7 38.2 39.1 39 37.9 35.5 34.9 34.5 33.1 30.3 29.4 28 26.4 25.5 27.6 24.6 24.6 24.6 24.5 24.7 24.9 25.1 25.2 25.4 25.6 27.7 30.2 31.5 31.7 31.4 30.8 30.8 30.7 31.4 31.7 32.8 34.5 36.3 38.1 40.4 43.1 46.3 51.3 57.6 66.3 78.8 88.6 88.5 84.6 81.4 76 71.7 67.1 61.3 57 54.7 51.5 50.2 46.5 43 38.8 37.2 37.4 37.7 42.7 52.7 62.7 71.6 78.7 84.7 81.8 74.4 65 59.3 61.1 64.8 67.9 70.8 68.7 63.1 54.4 54.1 56 54.9 53.2 53.4 52.9 52.6 52.9 54.4 56.6 57.7 58.8 60.5 63.6 66.3 69.8 69.7 71.4 69.9 67.6 70.6 75.2 78.6 81.8 85.2 85.8 84.1 79.8 81.7 83.5 86.9 91.6 98.6 106.6 114.6 123.6 137.2 149.6 161.3 171.7 186.6 192.6 197.5 207.2 215.5 214.8 217 219.8 221.2 221.5 222 221.7 220.1 216.7 214.4 212.9 211 208.9 207.1 205.7 204.7 205 205.9 207.5 207.9 206.6 201.8 195 188.1 178.5 173.5 171.4 176.3 178.7 177.6 174.1 169.4 166.5 168 171.3 174.8 178.7 181.4 186.4 190.6 187.6 181.4 177.9 178.4 180.3 177.7 184.8 198.5 203.2 202.5 206.4 216.4 230.2 245.3 259.6 269.9
49.1 45.5 38.7 34.1 31.1 28.7 32.5 31.3 37.4 45.4 47.1 42.3 38.8 38.1 42.8 50.9 59.3 51.3 43.1 36.1 35.5 39.7 36.9 34.5 33.8 33.5 32.3 30.4 29.1 27.2 25.8 27.7 24.7 24.6 24.5 24.5 24.5 24.4 24.5 24.8 25 25.2 25.4 26.9 29.7 30.4 30.7 29.9 29.3 29.3 30.1 31.5 32.5 33.9 35.8 37.9 39.6 41.6 44.5 47.1 52.3 59.5 68.4 79.8 89.2 88.2 84.1 78 71.4 65.8 61 56.7 52.7 48.7 47.3 44.1 41.7 40.2 38.7 37.9 37.5 38 39 48.1 59.8 68.4 74.8 82.8 81.9 73 62.5 57 57.7 61 64.3 66.4 66.1 61.5 54.3 52.5 53.1 51.2 51.1 51.1 51.6 51.9 53.9 57 61.2 61.6 60.4 62.7 67.3 72 77.1 76.4 74.4 71.3 69.3 71.8 76.7 80.7 85.2 89.1 88.6 86.6 81.8 82.7 86.2 88.5 92.6 96.8 106 113.9 122.5 131.6 143.3 154.2 164.2 173.6 179 185.2 189.2 207.5 209.6 213.1 216.9 219.9 220.5 221.9 221.8 220.2 217 215.3 213.9 211.7 209.6 207.5 205.6 204.2 204 205.7 206.8 207.2 205.7 197.7 189.3 179.5 173.6 170 168.1 171.5 175.3 173.1 171.5 168.3 165.5 166.1 170.4 174.3 177.4 180.2 183.3 186.7 183.1 172.6 170.9 171.6 171.9 176.2 186.2 196.9 193.5 196.6 207.2 218.7 232.7 247.5 261.2 268.3
51.8 47.5 41.3 35.8 31.2 28.8 28.3 30.4 34.7 42.8 45.9 41.2 37.5 37.6 43.2 50.4 58.2 51.9 42.6 35.2 34 38.2 35.4 32.4 32.5 32.8 32.1 30.2 28.7 27.1 27.5 24.8 24.5 24.5 24.5 24.5 24.4 24.4 24.3 24.4 24.6 24.8 25.6 26.1 28 28.6 28.5 27.9 28.3 29.2 30.2 31.7 33.4 34.7 37.1 38.3 40.1 42.9 46.3 49.4 54.3 60.4 68.8 78.7 89.5 91 88.7 83.4 77 71 65.8 61.1 56 52.8 52.2 48 42.6 40.7 40.2 40.5 37.6 37.9 38.3 40.9 50.4 60.1 70 78.1 81.1 74.2 63.6 55.4 54.6 57.6 60.3 62 62.5 59 54.4 49.9 51.2 49.9 49.6 50.6 51.4 53.7 56 61.6 65.7 65.2 63.2 64.4 70.2 75 81.2 81.1 77 72.1 69.8 71.9 77.3 82.3 87.3 91.7 92.3 88.4 83.5 83.7 87.7 90.9 94.2 98 104.9 112.3 119.6 126.8 135.2 147.4 154.7 160.5 166.6 172.1 178.4 185.9 201.4 207.9 213.6 217.8 219.9 221.7 221.9 220.6 218.2 216.4 214.7 212.4 210 207.5 205.6 203.6 204.5 206.1 206.6 206.7 204.4 198.7 189.9 178.7 171.8 168.4 165.1 166.9 168 168.3 167.8 166.5 163.9 165 168.9 172.3 175.6 178.8 181.5 181.1 175.8 168.5 165.8 167.4 170.6 176.4 181.8 184.8 191.6 201.8 212.7 224.7 236.7 249.8 263 269.4
52.3 47.9 42.1 36.2 31.9 29.6 27.9 28.7 32 40.5 45.1 40.2 36.8 36.8 41.4 48.8 56.8 50.5 41.2 34.2 32.5 36.2 33.5 30.2 30.5 32 32 30.7 28.8 27.5 26.3 24.4 24.5 24.5 24.4 24.4 24.4 24.4 24.3 24.2 24.2 24.7 25.3 25.8 26 27 26.8 27.5 28.4 29.2 30.2 31.7 33.1 36.5 38 38.9 41.3 44.2 47.8 51.8 56 63.8 72.5 81.8 91 94.3 93 89.9 84.7 78.5 72.6 67.4 62.3 57.7 53.3 48.4 45.2 42.6 42.4 43.7 40.3 38.2 38.4 38.8 44.8 53.8 64.3 74.5 80.3 76.3 65.5 55.3 52 54 56.1 56.9 56.4 55.8 51.8 49 49.1 49.2 49.5 51.6 54.2 56.9 60 65.8 70.2 70 66.1 66.9 72 77.3 83.8 83.5 80.6 76.7 71.4 71.5 77.3 82.7 88.1 93.7 94.7 89.6 85.3 85.4 88.4 92.1 96.3 100.4 104.4 109.8 115.9 120.9 127.6 137.9 142.7 147.9 154.5 160.4 167.7 175.4 191.6 203.3 211.2 216.7 220.1 221.2 222.1 221.1 219.3 217.5 214.3 211.1 208.7 206.4 204.3 203.6 205.2 206.6 207.2 205.5 202.7 197.2 187.8 177.6 170.6 167.6 164.6 161.9 162.5 164.4 164.6 163.3 162.4 164.1 167.5 171.4 175 177.4 177.3 175.9 171 164.9 167.4 170.6 173.8 176.8 181.9 188.5 198.4 208.9 216.7 226.4 238.7 250.4 261.9 270.5
51.5 46.3 41.8 37.6 35.5 31.7 28.9 27.4 30.5 40.4 44.1 39.1 35.9 35.7 39.7 47.3 53 49.3 38.9 32.8 30 33.4 31.9 28 27.9 30.5 32.9 30.6 27.2 26.6 25.5 24.3 24.3 24.4 24.4 24.4 24.4 24.3 24.2 24.2 24.1 24.4 25 25.4 25.6 25.8 26.6 27.7 28.8 29.6 30.4 31.8 33.7 37.7 38.6 40 42.6 45.7 49.1 53.3 59.2 67 78.1 89.6 96.9 99.3 97.1 94.1 90 84.5 77.9 71.4 64.3 58.1 54.7 53.7 48.8 46.7 48.8 48.1 41.9 38.2 38.4 38.9 42.2 49.4 60.5 70.8 76.8 74 65.6 54.7 50.5 51.7 52.8 52.1 51.8 51.3 48.7 47.7 48.3 49.1 51.1 55.2 58.6 64.1 67.8 73.6 77 75.9 71.7 70.8 74.4 79.9 85.3 84.6 84.8 80 74.1 73.6 77.5 82.7 89.1 95.5 97.1 91.7 88 89.2 90.1 92.3 95.7 100.4 104 107.3 111.4 115.6 121.2 127.5 133.1 138 143.6 150.7 157.9 165.3 177.8 196.3 207.8 214.6 219.8 220.8 221.2 220.2 220.3 217.7 214.1 209.7 207 205.1 203 203.6 205.2 206.1 206.4 205.2 201.2 192.6 183.5 174.5 169.8 166.6 164.1 162.1 159.2 160.6 161.6 160.2 163.2 166.8 168.9 171.4 175.2 174.6 174 171.2 166.2 162.1 170.7 174.2 177.1 181.5 186.3 193.8 201.8 209.1 215.9 227.7 238 249.2 261.2 270.8
52.3 49.9 45.4 40.5 36.6 33.9 29.4 27.1 30.4 40.3 43.1 38.5 34.5 34.6 39.8 46 51.1 47.5 37.1 31.8 28.9 32.7 31 27.5 26.1 28 29.8 26.7 25.9 25.2 24.5 24.2 24.2 24.2 24.2 24.2 24.2 24.2 24.3 24.3 24.2 24.2 24.7 25.1 25.3 25.9 26.8 27.9 29.1 30 30.9 32.4 35.1 37.4 39.2 42.7 46.3 47.7 50.7 55.5 62.6 71.2 84.8 97.3 101.6 102.3 99.7 96.2 93.7 87.6 80.4 73.3 66 60.7 61.5 57.9 50.8 50 54 51.2 43.6 39.6 38.6 39 39 47.2 56.4 66 71.6 71.6 64.9 54.9 50.5 49.3 49.1 48.8 48.2 47.5 47.8 48 49.5 53.4 56.7 61.2 65.6 69.3 72.4 77.1 80.3 80.1 76 76.1 77.8 83.3 89.3 88.5 88 83.1 77.1 75.6 80.1 85.3 93.1 98 99.3 95.4 91.9 91.7 90.8 92.1 94.3 98.7 101.2 103.4 106 109.2 114.1 118.7 124.8 131 135.3 143.6 151.1 157.7 167.4 186.5 200.4 209.8 218 219.1 219.2 218.6 218.6 217.2 213.2 208.8 205.5 203.1 202.3 203.6 205.3 205.4 204.1 202.6 198.2 191.6 183.9 176 172.2 167 164.2 162.2 158.6 157.1 157.5 160.8 165.2 169.2 172.5 174 173.7 172.1 170.6 166.9 160.2 163.4 168.8 173.7 178.6 184.3 188.8 194.2 200.5 205.2 213.8 225.6 236 246.9 257.9 268.2
54.7 51 43.7 38.7 34.5 31.7 28.6 26.5 30.5 40.4 41.5 37.1 33.4 34 38.3 44.5 49.9 46.3 34.7 30 27 31.9 30.6 27 24.8 26.3 27 26.2 25 24.4 24.1 24.1 24.1 24.1 24.1 24.1 24.1 24.1 24.1 24.2 24.3 24.3 24.4 24.8 25.4 26.1 26.9 28.1 29.2 30.4 31.7 33.8 35 37 39.9 43.5 47.3 50.7 54.3 58.1 65.2 77.8 91.3 101.9 104.4 103.6 100.4 97 93.3 88.7 81.7 74.3 68.7 67.4 66.2 60.1 52.3 53 56.9 52.8 45 39.7 39.9 39.8 39.6 43.1 51.2 60.8 66.8 67.5 62.3 53.8 48.5 47.8 46.8 46.5 46.4 46.6 48 51.6 56.9 61.8 64 64.4 67.3 70.2 73 75.9 79.7 82.6 81.4 80.6 81.7 88.2 92.8 90.1 88.6 84.5 78.7 78 83 88.4 97.1 100.6 101.5 98.4 93.9 90 89.7 90.7 92.4 94.9 97.4 98.8 100.8 104.6 108.3 112.5 119.2 125.7 130.9 136.9 145 151 158.8 171.4 191.4 204.1 211.5 216.4 216.1 215.6 216.2 214.8 212.1 207.5 204.4 201.2 201.9 203.6 204.1 201.3 198.4 197.3 195.2 190 182.8 176.8 172.9 167.8 164.8 162.2 159.9 156.4 157 161.5 165.7 170.5 172.5 173.3 171.9 170.1 168.2 162.7 159.6 163.2 169.1 174.5 179.2 184.8 189.4 192.5 195.1 201.9 212 221.7 233 243.5 254.6 265.8
57.1 50.1 42.3 37.4 33.5 30 27.5 26.5 31.7 40.5 39.3 34.5 32.3 34.1 37.9 43.8 49 47.1 34.5 28.5 26.4 30.5 30 26.6 25.3 26.6 25.9 25.1 24.3 24 24 24 23.9 23.9 23.9 23.9 23.9 23.9 23.9 24 24.1 24.2 24.3 24.9 25.6 26.4 27.7 29 30.2 31.8 33.3 34.5 36.1 37.9 40.2 43.9 47.9 52.4 58.7 66 74.2 85.4 97.3 103 103.5 101.6 99.3 96.9 93.4 89.7 83.3 76.2 74.1 71.9 68.8 60.5 55.3 58.5 59.3 54.9 49.2 42.3 39.4 39.3 39.2 40.5 46.9 55.8 62 62.8 58.7 50.8 46.7 46.3 45.2 44.3 45.9 47.6 51.7 56.2 59 62.9 65 64.6 65.6 67.5 70.3 72.5 78.2 83.3 84.8 84.6 88.6 94.8 95.1 91.6 88.8 86 82 81 85.2 91.5 100.2 102.7 101.7 99 93.3 89 87.3 88.3 90.5 91.2 93.6 95.3 97.8 101.6 106.2 110.9 116 121.1 126.5 131.7 139.4 145.5 153 159.7 179.7 197.8 205.2 210.4 211.8 212.3 212.2 212 209.1 204.9 202.3 200 201.8 203.1 201.6 198.3 195.2 192.7 190.5 186.8 183.1 178.7 174.3 169.4 166.8 164.4 161.5 157.4 153.4 158 163.3 167.9 168.3 169 169.6 169.4 165.5 159.4 158.7 165.7 171 175.4 178.8 181 184.7 186 191.2 199.5 209.5 220 230 240.2 250.8 260.2
54.5 49.1 43.4 38.3 34.1 30.2 27.2 26.1 31.6 39.5 37.4 33.4 32.7 35 39.3 44.1 47.7 45.9 35.5 28.6 25.3 28.1 28.8 26.4 25 24.1 24.8 24.8 23.9 23.9 23.9 23.8 23.8 23.7 23.7 23.7 23.7 23.7 23.7 23.8 23.9 24 24.4 24.9 25.9 27.2 28.6 29.9 31.5 33.5 34 35.4 37.1 39.7 42.6 45.5 49 54.7 62.5 74.4 86.7 95.3 100.9 102.2 101.5 99.5 96.8 95.5 92.3 88.6 84.3 80.8 78.4 75.1 67.8 62.4 60.4 62.9 61.3 56.2 50.8 44 39.5 39.4 39.4 39.5 43.9 51.4 56.9 57.8 54.4 48.7 45.6 44.9 44.7 44.7 46.3 48.9 53.5 55.1 56.3 59 59.6 57.5 58.9 60.3 64.3 68.9 76.3 82.8 87.2 88.7 94.4 98.7 96.5 93.7 90.6 88.8 85.2 84.4 87.4 93.4 102.3 103.4 101.7 97.2 91.4 87.8 85.7 86.2 87.5 88.9 90.6 93.4 96.7 100.3 104.8 109.3 113.7 117.2 122.3 127.7 134.2 140.3 146.5 152.7 166.4 191.5 196.6 202.1 203.9 205.4 206.1 206.6 205 202.9 200.6 199.3 200.1 200.6 198.7 196.1 193.2 190.6 188.2 186.8 183.4 180.4 177.4 172.6 169.8 165.9 161.8 157 153.8 154.6 159.5 162.2 162.6 164.1 166.6 168 163.2 157.3 161.2 167.4 171.9 175.3 178.2 178.2 178.4 183.9 190 199.1 207.3 216.6 229.2 238 245.7 254.6
51.6 46.8 41.7 38 34.3 29.3 26.3 25.6 32.2 39.4 36 31.8 32.9 36.1 40.8 45.5 46.3 44.8 35.4 27.8 24.6 26.3 26.8 25.4 24 23.7 24.3 24.6 23.8 23.8 23.8 23.7 23.7 23.6 23.7 23.6 23.6 23.6 23.6 23.6 23.7 24.2 24.6 25.1 26.4 28.2 29.7 31 33 34.5 35.8 37.1 38.7 41 44.3 47.5 51.6 58.6 68.1 82.5 95.6 99.6 100.1 100.1 99.6 96.2 93.3 92.3 90.9 87.8 85.7 83.4 81.2 76.8 72.2 68 65.3 67.4 62 55.5 49.2 43.6 40.9 39.9 39.7 40.3 42.9 49 53.3 52.1 47.7 44.5 44.6 44.4 45 45.2 45.5 47 50.5 48.8 49.1 50.2 50.3 50.4 50.9 53.2 58.2 64.7 73.5 82.2 87.6 90.6 95.6 99.4 98.9 96.7 93.8 90.7 87.8 88.7 92 95.7 102.9 102.5 100.1 95.5 89.8 85.1 83.2 83.6 84.8 86.6 89 92.3 94.9 98.5 101.7 105.6 109.2 114.3 118.8 123.5 129.4 135.6 143 148.3 160.2 175.6 184.3 189.6 192.5 195.1 198.5 199.8 202 202.3 201.7 200.8 197.3 197.4 196.8 194.5 191.3 188.2 184.8 184.3 182.7 180 178.1 174.3 172.1 168.1 163.3 158.2 153.9 151.8 155 157.4 159.3 162.5 165 166 160.2 156.9 161.8 167.6 170.6 173.2 174.1 173.6 176.7 181.6 188.1 197.7 204.5 215.7 226.9 234.4 242.2 250.1
50 44.8 39.6 37 32.8 28.8 25.9 26.5 32.2 37.3 34.4 30.1 32.8 36.2 41.2 46.4 44.6 42 34.7 27.5 24.5 26.6 25.9 24.5 24 23.6 23.8 24.3 23.7 24.1 24 23.6 23.6 23.6 23.6 23.7 23.6 23.6 23.5 23.5 23.9 24.4 24.9 25.4 26.8 28.2 29.8 31.7 34.2 36.2 37.8 39.1 41.3 43.8 46.7 50.7 55.1 62.4 73.7 89.6 97.6 98.2 97.4 97.6 97.3 95 90.8 88.5 89.5 88.2 86.2 84.2 82.2 80.3 76.7 72.3 71.1 71.2 65.5 58.6 49.8 44.9 42 40.6 40.3 40.1 40.9 44.2 48.3 47.4 43.9 43.5 43.8 44.8 45.7 49.6 47 46.8 46.7 47.6 49.2 49.4 50.4 51.2 51.2 50.4 53.2 62.2 70.9 80.5 85.1 86.9 91.8 98 99.5 98.9 95.9 93.7 91.1 93.6 96.6 100.1 102.3 100.3 97.7 94.3 88.7 84 81.2 81.1 83 85 87.1 89.6 92.7 95.4 97.8 102.6 105.8 111.6 115.7 119.8 125 130.8 137.2 144.3 152.3 163.6 174.3 179.3 184.5 189.7 194.1 198 204.6 205.2 203 201.2 198 196 192.9 192.8 189.6 185.4 182.3 181.1 180.1 179.8 178.4 176 173.9 170.3 165.3 160.2 155.5 152.8 152.1 154.5 157.5 161.5 164.8 163.9 158.6 154.9 160.9 165.5 169 170.1 168.2 169.2 174 179.5 185.5 193.1 202.1 214.8 223.3 230.1 237.7 245.2
47.8 43.6 37.7 34.8 32.6 29.1 25.8 26.3 29.5 33.1 31.3 30 32 36.4 41.1 44.8 42.9 40.5 33 27.1 25.2 24.5 24.4 24.3 24 23.5 23.7 23.9 24.1 25.1 24.5 24 23.5 23.5 23.6 23.6 23.6 23.6 23.5 23.6 23.7 24.2 24.8 25.9 27.2 28.6 30 31.6 34.5 36.4 38.5 41.7 44.5 47.1 50.8 56 60.6 68.2 82.1 93.3 97.9 96.3 95.4 96.1 96.6 94.8 89.7 84.9 86.1 86.3 85 83.9 82.7 82.1 79.4 76.4 76.5 75.1 69.1 61.8 53.3 47.9 44.2 42.3 41.1 41 41.4 41.8 44.5 43 43.2 43.3 43.6 47.8 53.1 58.7 57.2 50 48.3 52 54.7 58.2 59.9 59.1 56.4 52.3 52.8 60.3 70.3 79.6 82.9 80.9 86.6 95.4 98.9 100.5 98.3 96.1 94.6 97.3 99.1 102.3 102.1 97.6 94.9 92.7 87 81.7 79.5 80.6 81 83.3 86.5 88.3 92.1 97 100.4 105.6 109.8 114 120 125.8 131.5 137.9 143.3 148.8 157.6 164.8 170.9 176.1 184.9 190 195.4 203.3 208.7 207.3 204.2 201.3 198.6 196 193.4 188.3 185.4 182.8 179 175.5 175.5 176.6 177.8 176.9 175.6 171.8 166.8 161.8 157.1 152.3 150.9 152.5 156 160.7 164.3 163 157.7 153.1 158.9 162.9 166.7 164.2 163.7 167.2 170.8 177.4 183.7 191.2 201.3 212.4 219.2 226.4 233.8 240.2
45.3 41.8 36.9 32.9 30.2 27 25.2 25.4 26.3 26.5 27.3 28.9 32.6 37 41 43.9 41.5 37.5 31.7 26.7 25.3 23.2 23.3 24.1 22.7 23.4 23.8 24 25.1 25.7 24.9 24.2 23.5 23.5 23.5 23.6 23.6 23.6 23.6 23.7 23.7 24.2 25.1 26.4 27.8 29.1 31.1 32.4 34.8 37.5 40.7 45.2 48.2 52.8 57.4 61 68.9 79 91.9 96.6 96.4 94.9 93.2 93.8 94.4 93.3 89.8 83.2 80.2 81.4 80.9 81 82.1 83.3 83.7 82.7 81.3 78.3 73 65.8 57.6 51.5 46.5 44.3 42.8 41.8 42.3 41.9 42 42.4 43.1 44.8 48.3 53.4 59.2 70.3 67.7 56.7 51.1 58.1 65.2 72.7 72 67.5 59.4 52.2 53.3 60.9 70.9 78.2 78.2 74.4 83.9 92.3 97.7 101.2 99.2 97.2 95.5 96.8 98 101.3 98.8 94.6 90.9 89.5 85.7 80.2 77.4 79.7 80.9 83.1 89.6 93.8 97.1 101.3 106.8 110 114 118.7 125.2 131.3 138.5 145.1 152.2 158.6 165.9 173.5 178.5 183.6 191 197.4 200.3 207.8 211 208.7 205.1 200.5 197.7 195.7 193 188.5 186.2 183.6 180.3 175.7 171.8 170.8 172.1 173.5 174.2 172.5 168.2 163.1 158.1 153 149.9 148.9 155.1 159.6 162.4 160.3 156.2 152.8 156.4 159.5 159.4 159.7 163.3 166.6 170.7 176.4 182.5 191.8 201.9 209.8 215.3 222 229 235.2
42 38.7 34.9 32.9 30.4 26.2 25.2 25.1 25.4 29.1 28.5 28.8 32 36.2 40.4 42.5 39.9 35.8 29.8 25.9 23.8 23.4 23.3 23.3 23.3 23.3 23.4 23.6 24.1 24.6 24.9 24.2 23.5 23.5 23.5 23.6 23.6 23.6 23.6 23.6 23.9 24.5 25.6 26.8 28.3 30.5 32.5 34.1 36.8 39.3 43.4 49.2 53.9 57.8 65.6 72.4 81.5 90.9 96.1 97 94.9 93.3 91.6 91.7 92.2 91.8 88.8 85.1 80 74.7 76.2 77.9 79 81.5 84.1 85.2 84.2 81 76.6 68.9 60.5 53.6 49.5 46.7 44.8 42.6 42.4 42.2 42.6 43.1 46.1 49.9 53.7 58.8 68.2 77.9 69.7 58 54 62.2 71.2 78.7 77.2 70.2 60.2 52.7 54.6 61.6 70.7 76.3 74.4 69 74.7 88 94.1 97.8 96.5 94.8 93.1 92.8 92 96.2 95.4 91 86.3 85 82.6 77.5 74.2 79 81.1 87.3 92.5 97 101 105.2 110.3 113.4 118.2 123.4 130.1 137.6 145.3 151.2 161.9 175.3 186.9 189.9 192.6 199.5 204.3 206.7 208.3 211.1 211.8 208.9 205.3 201.2 199.5 198 195.7 191.5 190.2 186.6 183.6 180.2 176.4 171.5 166.2 167.3 171 170.6 167.7 162.5 157.8 153.1 149.2 144.1 150.5 158.8 159.2 157.9 154.7 149.5 152.9 153.8 155.6 159.2 163.3 167.5 171.5 176.7 183.9 192.7 201.4 207.7 213.5 219.3 223.7 228.9
36.5 34 31.6 30.2 28.5 25.9 25.6 25.2 28.5 34.6 32.8 29.1 31.7 35.8 39.8 39.9 37.6 33.5 25.7 24.2 22.8 23.3 21.3 23.5 23.5 23.5 23.5 23.5 23.4 23.6 24.2 24.2 23.5 23.5 23.5 23.6 23.6 23.6 23.5 23.6 24.1 25.1 26.4 27.5 28.7 31 33.5 35.5 38.3 41 45.2 51.5 58.2 65.3 74.6 83.8 91.1 94.3 94.8 95.1 93.4 91.9 88.6 89.3 89.7 90.1 87.6 84.8 80.7 74.1 69.7 73.3 75.4 79.5 84.3 86.5 86 82.5 77.8 72.6 64.6 58 52.8 49.2 47.3 45.8 47.5 45.5 46.3 48.6 51.7 55.3 60.1 67.1 77.3 82.4 70.3 60.1 58.6 66.4 75.2 83.3 79.8 73.2 61.9 53 54.7 61.7 69.1 72.6 71.5 65.2 67.7 79.5 88 92.2 92.2 89.6 87.4 87 86.5 90 91.4 87.3 82.5 79.8 77.5 73.2 76.9 79.2 83.3 87.9 93.7 98.6 102.7 107.2 111.8 117.3 123.1 129.2 135.6 143.1 152 158.1 175.3 192.2 198.4 203.6 209.9 212.3 215.3 213.7 214.2 213.4 212.1 209.5 205.5 203.4 201.9 200.1 198.4 195.8 193 189.6 186.6 183.5 179.7 174.1 167.8 163.3 165.5 166.5 165 161.9 157.7 153.5 150 145.4 144.4 153.9 155 154.8 152.5 148.6 150.2 153 155.9 160 164.7 169.4 174.6 178.3 184.4 191.8 198.6 203.9 209.2 213.8 218.4 224.8
39.4 35.4 30.1 27.8 26.6 26.3 25.7 25.3 27.8 35.9 31.8 30.1 32.2 36 38.6 38.1 34.4 26.4 24.9 23.7 23.6 21 23.5 23.6 23.7 23.7 23.6 23.5 23.4 23.4 23.4 23.7 23.5 23.5 23.6 23.6 23.7 23.6 23.6 23.9 24.3 25 26.6 28.3 29.1 30.4 33.4 36.7 39.2 42.2 46.5 53.1 60.7 72.9 82.1 84.4 88.3 91 91.6 90.4 89 86.5 82.7 86 87.1 87.6 84.4 81.5 79.2 74.1 66.8 68.3 72.8 77.9 83.9 86.9 87.6 85.8 81.8 76.4 70.9 63.6 57.7 54.2 51.2 50.9 52.5 51.8 52.7 55.7 60.7 64.8 71.5 79.4 87.4 84.3 72.8 63 62.4 69.7 79.3 85.6 81.3 73 63.3 54.2 54.4 59 64.9 67.5 65.1 61.1 62 69.9 80.8 86 86.8 84.9 80.5 80.1 81.7 83.5 86 84.3 79.5 75.5 70.9 75 78.7 80.2 82.7 87.9 92.5 96.6 100.4 108.7 115.6 121.7 127.6 134.5 140.9 150.8 158.4 170.5 189.5 202.5 206.6 213.7 217.3 221.3 220.4 219.6 218.3 216.2 212.7 209.8 208.1 205.9 204.2 202.6 200.5 198 195.3 192.7 189.5 186.4 181.8 176 170.7 165.1 160.5 162.5 163 161.1 157.2 153.8 149.7 145.2 143.4 147 151.3 151.1 149.1 147.5 151.4 155.4 159.4 163.1 166.9 171.7 176.2 180.7 185.8 190.3 194.4 198.4 204 209.7 213.4 218.3
