ncols 200
nrows 96
xllcorner 360000
yllcorner 201600
cellsize 50
99 99.4 94.9 113.9 117 114.6 114.7 125.9 135.6 134 131.3 128.7 126.5 123 119.3 115.1 110.2 104.5 99 90.9 85.5 79.7 74.8 84.7 88.1 75.8 63.2 55.7 49.4 53.3 58.4 53.2 48.9 46.8 43.3 36.8 33.3 33 34.3 37 42.7 46.8 49.5 52.1 55.1 61.7 64.1 47.9 58.3 64.3 66.8 57.6 69 78.5 89.6 96.9 104 113.2 121.1 128.6 135.2 142.7 148.8 154.8 159.3 165.7 171.5 174.5 177.3 177.8 177.6 177 175.5 173.3 170.7 169.3 167.4 165.4 162.6 160.5 158.2 155.9 154.6 154.7 152.6 148.6 141.1 134.8 142.3 147 145.5 143.3 140.2 137 133.7 130.6 127.8 126.3 127.8 129 131.1 132.7 133.6 133.9 133.7 133.4 131.7 130 132.5 135 138.3 139.2 138.5 137 136.1 137.5 137 136.1 133.2 127 121 107.8 94.2 87.4 82.4 75.8 64.5 51 49.1 46.9 44.8 41.9 50.4 62.6 77.3 81.2 83.1 85.9 82.9 76 69.8 67.2 66.6 64.8 59.3 55.2 51.9 46.8 40.2 41.6 44.9 43.3 41.3 34.8 33.1 31.9 28.7 25.2 23 25.4 26 26.6 27 26.7 25.5 25.5 27.9 31.3 30.5 31.8 36 39.3 40.3 35.9 29.2 23.2 17.6 13.3 10.8 10.3 13 14.9 13.5 12.7 12.9 13.2 11.9 8.9 -1.5 -1.5 -1.5 -1.5 -1.5 -1.5 -1.5 -1.5 -1.5 -1.5 -1.5 -1.5
97.7 98.3 108.5 124.2 123.5 117.8 120.2 131.5 138.5 137.4 134.6 132.6 128.7 124 119.6 115.4 110.5 105.6 98.6 91.9 86.7 81 76.1 74.3 73.3 65.2 57.8 56.8 50.3 49.1 56.1 56.9 50.4 47.5 45.2 39.2 33.1 32.7 33.4 36.6 42 43.9 46.1 48.5 53.5 58.3 60.5 47.2 57.7 64.2 65 57.6 68.5 81.2 92.4 99.6 108.1 119 127.6 134.8 141.7 147.5 153 158.3 162.7 167.6 171.7 174.9 176.4 176.9 176.7 176.2 173.4 169.2 167.3 166.3 164.5 162 160.1 157.3 155.6 153.9 154.1 154.1 151.8 149.1 143 130.6 140.6 144.9 142.1 140.4 137.1 133.3 130.8 127.6 125.9 125 126.7 128.6 131 131.9 132.5 132.6 131.8 130.8 129.3 130.8 134 136.8 138.1 137.6 135.6 134.8 135.5 135 132.7 131.1 127.5 122 114.3 106 97.1 91.3 85.9 79.8 72.2 63.5 61.7 59.7 49 46.1 55.7 69.9 83.1 83.8 84.8 86.2 82.4 78.7 78 76.3 72 68.5 62.6 56.7 50.7 45 44.3 48 49.4 48.1 44.8 40.2 40.3 35.6 30.9 27.4 24 25.1 26.8 29 29.5 29.8 29.3 29 30.2 34.2 33.5 34.3 38.4 39.8 42.1 36 29.7 22.9 17.5 12.6 9.9 9.6 13 13.6 13.2 12.3 11 11.9 9.3 -1.5 -1.5 -1.5 -1.5 -1.5 -1.5 -1.5 -1.5 -1.5 -1.5 -1.5 -1.5 -1.5
109.1 110.9 119.4 129.2 126.6 123.2 124.8 132.9 141.6 142 137.8 134.1 132.7 127 120.4 114.7 109.5 105.7 100.8 95.6 90.1 85.1 80.2 75.6 69.9 64.6 59.4 55.3 51.2 47.3 50 57.7 50.9 47.4 45.4 39.8 32.8 32.5 32.9 36.6 38.1 40 42.7 43.1 47.7 51.6 55.1 51.6 56.8 59 57.9 61.4 72.8 82.6 93.7 103.5 113.3 123.4 131.9 139.3 146.6 152.3 157.6 162.6 166 169.6 172.6 174.7 174.9 175.4 174.9 173.5 170.9 166.4 164.5 162.7 161 159.1 158.3 155 153.4 152 153.1 152.9 150.8 148.3 144.8 129.5 130.3 139.1 137.1 135.6 133.2 129.1 126.5 125.4 123.9 124.8 125.5 128 129.8 130.7 131.2 130.6 129.5 128.4 129.2 132.1 134.7 136.5 135.9 134.4 132.4 132.1 131.6 129.2 127.4 124.3 120.2 115.8 109.8 101.1 95.7 89.8 86.4 81 75.5 72.5 71.3 67.4 53.4 50.3 58.8 74.3 82.9 83.7 85 85.3 82.4 81.1 81.8 79.3 75.3 70.1 64.2 57.7 50.9 47.4 47.7 52.3 53 52.3 48.9 47 46.2 40.8 33.8 28.5 25.4 27.5 28.9 32.2 32.4 33.4 32.8 32.5 34.1 37.4 37.2 38.3 41 42.9 41.9 36.8 29.4 23 17.5 13.1 10.3 9.1 11.5 12.8 12.9 11.8 9.6 8.8 3.5 -1.5 -1.5 -1.5 -1.5 -1.5 -1.5 -1.5 -1.5 -1.5 -1.5 -1.5 -1.5 -1.5
120.6 125.5 126.3 129.5 130.3 129.3 126.5 134 145.4 146.4 141.5 136.9 134.7 129.7 122.3 114.9 111.9 108.1 104.9 98.7 92.5 87 82.7 78.4 71.3 66.3 59.8 59 56.5 45.7 46.6 54 52.8 48.4 45.9 40.1 33.2 32.9 32.7 36.7 35.6 34.8 38.3 43.3 39.2 39.7 38.7 49.5 53.8 58.1 61.6 66.2 80.7 86.5 95.6 105.2 117.2 127.6 136.1 143.7 151.5 156.8 161.5 166.2 169.6 171.4 173.1 174.1 174.2 174.2 173.2 170.7 167.4 165.2 162.6 160 157.6 156.2 154.8 152.5 150.7 151.5 152 151.1 149.7 147.4 144.8 134.3 122.1 125.4 130.6 128.7 127.5 125.4 123.8 122.7 122.9 124.4 125.7 128.2 129 129.5 129.9 128.7 127 127.5 129.5 132.1 134.1 133.7 131.8 129.7 126.9 124.9 123 121.9 118.7 116 110.6 106.4 102.8 98.3 94 88.7 83.2 79.5 77 75.9 74.1 69.9 59.3 53.5 60.6 72.6 79.6 83.1 84.4 84.1 83 83.5 83.4 80.4 76.6 70.2 63.4 55.6 53.6 53.3 51.6 55 56.1 55.6 54.2 51.8 50.6 45.9 37.3 31.2 29.2 31 32.1 35.5 35.7 37.8 36.8 36.6 37.4 40.8 41 41.7 43.7 44 41.6 36.9 29.9 24.2 18.9 14.5 11.2 10.5 9.8 10.2 11.9 11.5 8.2 -1.5 -1.5 -1.5 -1.5 -1.5 -1.5 -1.5 -1.5 -1.5 -1.5 -1.5 -1.5 -1.5 -1.5 -1.5
120.9 130.8 133.9 134.2 133.4 134.8 134.8 138.5 146.4 148.2 144.5 139.1 135.7 130.3 124.3 120.2 115.4 111.9 107.7 101.3 95.5 89.4 83.8 78.5 72.6 68.2 63.4 59.5 59.3 47.7 39.8 50.1 54.7 49.3 45.5 41.7 31.7 31.9 31.7 35.9 36.6 38 39.2 40 41.7 42.4 45.1 53.7 56.2 58.8 62.1 70 82.1 89.5 98.3 107.6 117.7 129.3 139.6 148.5 154.3 159.4 164.2 168.7 170.8 172.3 173.2 173.5 173.4 172.6 170.4 167.2 164.2 162.3 159.7 156.5 153.8 152.3 150.5 148.9 149 151.1 151.5 150 148.9 147.3 144.7 136.7 126.2 119.8 117.2 122.4 123.4 122.9 121.8 120.5 120.5 123.7 125.7 127.8 127.5 127.5 127.7 126.4 126.4 129.6 129.6 130.2 130.9 129.2 126.3 123.8 120.7 117.4 113.3 111.3 109.8 107.5 103.2 98.3 95.7 92.9 90 85.6 80.6 79 76.8 75.8 74.6 71.1 64.1 56.5 65.8 76.4 81.1 83.5 83.9 83 83.6 84.4 82.6 80.5 75.9 71.5 66.8 62 58.5 56.3 55.5 56.5 57.3 57.2 56.3 54.7 52.7 48 40.1 33.9 34 34.6 35.8 38.5 39 40.6 40.3 40.3 41 43 44.5 44.3 45.2 45.2 41.9 36.7 31.6 26 21.5 16.2 12.6 11.5 10.7 8.7 10.2 7.9 -1.5 -1.5 -1.5 -1.5 -1.5 -1.5 -1.5 -1.5 -1.5 -1.5 -1.5 -1.5 -1.5 -1.5 -1.5 -1.5
127.3 126.7 135 136.6 136.8 138.3 141.3 143.8 148.8 149.3 146.2 142.8 138.8 135.6 128.7 124.5 118.8 112.8 107.5 102 96.4 91 84.1 79.3 73.9 69.8 65.7 60.8 59.6 46.8 41.4 44.4 52 50.7 44 40 31.3 31.3 31.6 36.2 37.7 38.8 40.9 41.7 42.3 43.5 48.6 53.9 58.1 61 66.6 72.2 82.5 90.7 100.7 109.2 116.2 129.1 141.3 149.8 155.9 161.8 165.9 169.1 170.5 171.3 172 172.3 171.7 169.9 167.1 164.1 160.7 158.9 156 153.4 150.4 146.9 146.3 147.2 148.3 150.4 149.8 149.8 148.3 146.9 144.6 139.4 131.5 123.8 113.9 112.6 117.7 120.1 118.6 117.3 120.1 123.8 126.3 126.4 126.6 126.5 124.8 124.7 127.6 129.5 131.5 129.2 127 124.8 121.1 116.9 111.7 109.4 104.6 103.2 101.3 98.5 93.3 89.9 89.7 87.4 84.6 81.3 78.7 76.8 76.1 74.9 73.4 70.7 65.2 60.7 69.5 78.6 82.6 83 81.8 81.8 82.8 84.4 83.2 80.8 76.7 72.6 68.3 63.2 59.5 57 56.6 57.1 58.1 57.5 56.5 55 53.6 49.5 42.7 37.1 37.4 37.4 39 41.4 41.6 43.2 43.2 42.8 43.1 44.6 45.9 45.6 46.4 45.1 41.7 38 34 27.8 21.7 16.6 12.9 11.5 10.8 8.7 5.6 -1.5 -1.5 -1.5 -1.5 -1.5 -1.5 -1.5 -1.5 -1.5 -1.5 -1.5 -1.5 -1.5 -1.5 -1.5 -1.5 -1.5
134.3 132.1 132.4 137 139.6 140.9 142.7 146.4 149.7 150.3 147.6 145.9 143.9 139.7 132.4 127.6 121.9 114 109 103.9 98.6 93.2 84.7 80.7 75.1 71.1 67.8 61.9 56 48.6 43 40.2 47.8 52.1 44.8 35.9 31.3 31.1 32.6 35.7 37.5 39.3 43 42.7 42.9 50.1 52.5 55 57.9 61.8 71.2 71.5 79.4 92.2 103.1 110 116.5 129.1 141.7 149.5 157 163.8 165.2 167.9 168.8 169.9 170.7 170.2 168.8 166.6 164 161.4 158.5 155.3 152.8 150 144.6 143.4 144.4 146.9 148.5 149.5 149.4 149.1 147.8 146.5 144.4 140.7 135.3 127.6 116 109.2 114.3 117.3 115.2 117.2 121.5 124.2 126.2 124.6 124.7 124.2 123.2 126.8 128.7 129.9 127 124.5 121.2 117 109.7 104.3 100.9 98.7 97.3 96.3 93.4 89.8 86.5 84.5 84.1 81.5 78.9 77.1 75.8 75.3 75.1 74.8 74.2 71.5 67.5 66.6 71.1 80.1 82.2 81.4 80.1 80.3 83.1 84.6 83.4 80.6 77.1 72.4 68 63.4 59.8 57.6 56.6 56.3 56.3 56 54.5 54 53 49.5 43.5 40.3 38.8 39.1 40.8 42.9 43 43.7 44.4 43.9 44.3 44.7 46.3 46.6 47.5 45.7 43.6 40.7 35.6 28.6 21.8 16 11.7 10.7 9.4 6.1 -1.5 -1.5 -1.5 -1.5 -1.5 -1.5 -1.5 -1.5 -1.5 -1.5 -1.5 -1.5 -1.5 -1.5 -1.5 -1.5 -1.5 -1.5
143.2 137.5 136.2 137.5 139.1 141.8 145.1 148.5 150.4 150.9 149.1 148.8 147.6 144.1 139.6 132 126.8 118.4 111.3 106.4 100.6 94.4 86.8 81.5 76.1 71.3 67.8 63.1 58.7 50.4 45.2 39.1 44.5 51.5 44.7 34.9 31 30.8 31.9 35.6 37.6 39.9 44.8 48 49.4 52.8 54.1 56.5 59 62.8 73.7 74.2 77.2 94.4 101 110.8 123.3 129.2 140.4 149.6 156.7 161.6 164.6 165.9 167.1 168.2 168.6 167.6 165.4 163.3 160.7 157.6 154 150.9 148.8 142.6 141.3 141.3 144.7 148.1 149.6 149.7 149.3 148.1 146.9 145.7 144 140.6 135.8 128.3 115.4 109.4 108.1 113.8 111.7 118.4 122.2 123.3 123.6 122.4 121.7 121.9 124.4 127 127.7 125.7 121.9 117.5 112.1 105.5 99.4 96.4 94.1 92.2 90.3 88.8 86.5 84.2 81.2 79.7 78.1 75.6 73.6 72.4 74.7 74.4 74.3 74.1 73.6 72.1 68.6 69.8 71.1 78.1 81.4 79.3 77.9 80.3 83.3 84.4 82.6 79.6 76.5 71.7 68 63.9 60.6 58.4 55.7 55.1 54.8 54.2 52.3 52.6 52.9 48.6 42.9 40.6 39.5 39.6 40.7 42.5 42.4 43.2 44.2 44 44.4 44.7 46.1 47.5 47.5 46 43.6 41.2 36.1 29.3 21.4 14.5 10.7 8.9 4.9 -1.5 -1.5 -1.5 -1.5 -1.5 -1.5 -1.5 -1.5 -1.5 -1.5 -1.5 -1.5 -1.5 -1.5 -1.5 -1.5 -1.5 -1.5 -1.5
153.7 147.4 142.6 143.2 145.5 146.1 147.2 149.5 151.1 151.7 151.3 150.6 149.7 146.3 143.2 137.2 130 123.5 114.6 107.5 101.1 95.7 89.7 84.5 79.4 73.6 67.6 63.4 58.2 49.8 45.1 41.2 45.7 53.5 45.7 35.2 30.6 30.6 31.2 33.6 37.4 39.9 44.5 48 50.7 52.9 54.9 57.7 60.2 64.4 75.4 76.5 81.5 95.5 96.1 114.6 124.5 131.5 139.2 148.8 155.6 160.4 163.4 165 165.6 165.8 165.9 164.3 162 159.7 156.8 152.8 148.9 145.2 140.5 137.9 138.8 142.3 146.1 148.8 150 150.5 148.8 147.5 146.1 145 143.9 140.6 135.8 128.4 120.5 113.4 103.8 107.4 112.6 118.6 121.1 121.1 120.2 119.4 121.3 123.9 127 127 125 121.2 117 111.1 101.5 95.5 92.5 90.3 88.1 86.2 84.7 82.9 81.3 78.9 74.9 73.1 72 70 69 70.2 72.7 72.9 72.8 73.1 73 71.8 68.1 70.8 75.7 80.9 78.7 76.4 76.8 79.6 81 81.9 81.3 78.1 75.4 71 68.4 65.1 62 59.1 56.3 54.7 52 49.6 48 49.3 50.7 46.5 41.5 38.9 37.9 38.2 39.2 40.9 41.7 42.7 43.7 44.6 44 44.2 46.7 48.1 49.3 47.8 44 40.3 34.3 26.7 19.3 11.1 8.7 -1.5 -1.5 -1.5 -1.5 -1.5 -1.5 -1.5 -1.5 -1.5 -1.5 -1.5 -1.5 -1.5 -1.5 -1.5 -1.5 -1.5 -1.5 -1.5 -1.5 -1.5
158.6 157.1 153.1 149.5 148.6 148.9 149.3 151.2 153.2 153.9 154.1 152.2 150.8 148.1 143.6 138.5 134.8 128.4 119.4 110.6 104.3 98.4 91.4 85.9 81.1 75.3 68.3 62.4 55.7 47 43.7 41.9 46.2 49.5 44.8 37.1 30.9 30.7 30.8 32.3 35.9 39.5 41.9 44.4 48.4 51.7 54.9 58.7 61.9 67 77.3 78.4 82.7 94.9 100.4 116.6 125.4 131.1 137.9 148.8 155.2 159.5 162 163.6 163.2 163 162.3 161.1 158.9 156.2 153 148.9 144.4 137.4 136 134.4 139.5 143.5 146.3 148.4 149.7 149.2 148.2 146.9 145.4 144.2 143.1 140 135.6 129.2 122.2 116.3 108.6 102.1 111.1 116.1 117.2 117.3 117.2 120.5 123.8 127.4 126.9 123.5 119.1 115 110.4 102.7 94.3 90.2 87.5 84.8 82.7 81.1 79.7 77.8 76.2 74.1 70.3 66.3 66.2 65 64.1 68.1 71.9 70.5 70.4 70.8 70.7 69.3 67.5 71.4 77.2 78 76 73.4 75.3 79 80.2 80.8 79.7 76 73.2 70.3 68.3 65 61.7 58.8 55.2 54.2 52.6 49.8 47 45.4 47 43.4 38.8 36.2 35.8 36.3 36.8 38.5 40.7 42.3 43.2 43.1 42 42 45.6 48.3 50.1 48.2 44 39.5 34.9 26.5 14.4 5.3 2.5 -1.5 -1.5 -1.5 -1.5 -1.5 -1.5 -1.5 -1.5 -1.5 -1.5 -1.5 -1.5 -1.5 -1.5 -1.5 -1.5 -1.5 -1.5 -1.5 -1.5 -1.5
159.8 159.7 159.4 160 159 153.4 152.6 155.2 155.8 155.3 154.7 153.6 151.2 148.4 145.1 140.1 134.2 130.1 123.3 116.4 110.9 106.6 95.2 88.5 83 76.3 69.6 63.2 55.1 45.6 43.5 37.4 39.5 45.6 41.1 35.9 30.9 30.5 30.5 31.4 35.4 39 42.5 44.8 47.8 52 55.9 60.2 63.9 66.6 78.6 81.2 85.2 92.7 103.3 117.2 126.4 131.6 137.6 147.4 155.3 158.5 160.7 161.2 158.8 159.3 159.3 157.7 155.5 152.3 148.4 143.8 135.6 133.9 132 134.8 139.8 143.4 145.8 147.7 147.9 147.8 147.3 146 144.8 143.6 141.7 138 133.8 127.9 122.2 116.4 110.7 99.7 103.4 111.7 112 114.7 119.2 123 125.7 127.3 123.4 118.6 113.6 108.4 100.6 92.5 87.6 84.3 82 79.9 78.3 77.1 75.6 72.6 71 68.9 66.1 62.4 61.4 60 60.1 66.4 69.9 66.9 65.9 66.9 66.5 63.5 66.4 71.5 78.1 75.3 73.4 69.4 73.4 77 78.3 78.5 76.8 73.6 71.5 69.3 67 64 62.1 58.4 54.7 53 51 49.1 48.6 46.1 41.3 38.9 35.4 34.2 33.8 34.3 36.2 38.8 41.1 42.6 39.3 37.8 37.1 40.8 47.5 50 49.7 47.3 42.4 37.4 33.5 16.5 4.9 3 -1.5 -1.5 -1.5 -1.5 -1.5 -1.5 -1.5 -1.5 -1.5 -1.5 -1.5 -1.5 -1.5 -1.5 -1.5 -1.5 -1.5 -1.5 -1.5 -1.5 -1.5 -1.5
158.5 161.5 162.8 163.5 163.5 161.8 160.4 161.4 159.6 158.2 156.2 155.1 152.9 149.3 144.8 141.4 135.1 128.6 124.4 120.2 113.5 108.7 100 90.9 84.9 77.3 70.1 63.6 50.5 46 43.8 40.2 36.9 37.8 38.2 33.9 30.4 30 30.4 30.4 34.4 37.5 41.8 44.4 49.2 52.6 57.4 61.7 64.7 66.5 76.8 83.2 88 93.8 105.3 117.5 127.4 133.1 140.7 148.3 154 157 158.1 156.6 155.9 156.7 157 155.1 152.4 149 140.7 134.1 133 131.1 131.5 135.6 138.7 143.3 145.8 146.7 146.2 146.6 146.2 145.2 144.2 142.4 139.8 135.2 131.3 126.4 120.9 115.6 109.7 99.3 100.8 106.8 108.5 115.9 121.6 124.1 124.8 122.9 116.8 112 107 99.5 92 87 82.7 79.3 77.1 75.9 74.7 74 72.4 67.8 64.5 63.3 61.3 57.8 56.1 54.9 57 63.6 67 64.1 60.2 60.7 63 62.1 64.8 71.1 76.3 73 71.9 67.3 70.3 73.4 76.4 76.1 73.9 71.5 69.3 68.9 67.4 64.9 62.1 58 54.6 51.7 48 46.8 48 47.3 42.4 36 31.9 31.8 30.4 32.6 37.3 38.6 40.4 41.1 37.5 24.8 32.1 41.6 47.6 50.8 51.1 48.5 40.2 31.3 15.8 4.9 2.9 0.9 -1.5 -1.5 -1.5 -1.5 -1.5 -1.5 -1.5 -1.5 -1.5 -1.5 -1.5 -1.5 -1.5 -1.5 -1.5 -1.5 -1.5 -1.5 -1.5 -1.5 -1.5 -1.5
156.4 159.3 161.9 163.1 163.9 163 163.2 162.9 162.7 160.5 159 156.8 152.2 149 145.4 140.8 137.6 129.9 122.9 119.6 115.8 109.4 101.5 93.5 86.5 79 71 59.8 52.8 49 45.3 41.2 38.6 35.6 37.4 34.3 33.2 30.3 30.7 30.4 30.3 36.8 41.2 45 51.4 56.1 59.5 63 66.1 68 80.2 86.3 92 98.6 108.8 120.6 127.8 132.7 138.2 143.9 149.3 153.7 153.5 152.4 153.7 154.9 154.5 152 149 143.2 133.6 129.8 128.2 127.6 132.8 137.3 140.2 144.3 146.1 146 145.8 145.2 144.8 144.2 142.9 140.8 136.5 131.7 128.7 124.4 119.1 114.1 107.1 99.4 96.8 102.4 109.8 116.9 121.7 123.9 122.6 115.5 110.8 105 98.8 92 86.6 82.2 78 75.2 73.2 72.2 71.9 74.2 75 72.1 64.7 60.7 59.5 58.5 56.8 52 51.2 56.1 58.2 57.8 55.5 57.7 58.5 60.6 61.8 70 74.2 70.6 69.6 63.3 64.5 69.9 74.3 72.8 70.3 67.2 65.9 68.1 68.2 65.6 63.4 60.1 55.9 53.4 49.1 45.6 45.6 46.3 41.6 36.5 31.3 28.3 28.5 32.9 36.8 37.9 39.2 36 26.6 19.1 31 40.3 48 51.1 51.8 42.9 28.8 7.5 4.2 2.6 0.9 -1.5 -1.5 -1.5 -1.5 -1.5 -1.5 -1.5 -1.5 -1.5 -1.5 -1.5 -1.5 -1.5 -1.5 -1.5 -1.5 -1.5 -1.5 -1.5 -1.5 -1.5 -1.5 -1.5
155 158 160.1 161.4 162.7 162.4 162.4 162.4 162.4 162.7 161.2 158.1 155.1 149.9 145.2 139.9 134.9 131 121.3 114.7 110.8 107.5 103.2 89.3 82.6 74.5 66.3 60 55.4 51.8 46.7 43.8 40.5 43.7 37.3 39.7 37 34.7 31.5 30.2 30.2 32.4 39 43 50.3 57.5 59.8 62.7 66.2 71 84.4 90.7 95.4 100.9 110.5 122.8 127 130.7 135.3 140.4 145.5 149.2 149.4 150.8 151.9 153.4 151.3 149 144.3 135.2 127.4 126.7 123.2 128.1 133.7 137.8 141.5 145.2 145.7 145.3 144.7 143.6 143.7 142.7 141.3 139.1 134.3 129.6 126.3 121.8 117.3 112.1 106.5 96 95.1 103.1 110.8 118.6 123.6 122.4 117 111.1 104.6 98.2 91.9 85.8 81.5 77.1 73.9 71.2 69.5 69.7 70.4 74.2 77.3 74.3 69.2 68.1 65.3 60.5 59.1 56.7 53.4 47.6 49.2 50.8 51.9 55.6 59.3 58.4 61 70 71.7 67.8 65.6 60 62.1 70.7 71.5 69.1 65.7 62.9 64 68.8 70 67.7 64.7 61.1 57.2 52.6 48.9 45.2 43.4 42.7 38.8 34.2 30.5 27 24.6 33.1 36 36.5 35.7 31.3 20.8 18.7 33.4 42.3 48.4 49.1 31 10.3 5 3.7 2.1 0.4 -1.5 -1.5 -1.5 -1.5 -1.5 -1.5 -1.5 -1.5 -1.5 -1.5 -1.5 -1.5 -1.5 -1.5 -1.5 -1.5 -1.5 -1.5 -1.5 -1.5 -1.5 -1.5 -1.5 -1.5
153.8 156.4 157.9 159 158.6 160.8 161.2 160.9 161.9 162.5 162.3 159.2 156 152.2 145.5 141.8 135.3 128.5 124.1 110.3 104.8 101.1 93.8 84.3 80.4 78.7 73.1 65.2 59.3 53.4 48.2 45.4 41.6 40.3 42.8 45.3 43.1 39.8 33.1 30.3 29.7 30.2 33.7 40.8 50.4 53.2 60 63.3 66.5 73.5 88.2 93.8 97.5 102.1 110.7 119.6 124.5 128 132.4 137.3 142.2 145.1 146.8 148.4 150.4 150.5 148.2 145.7 139.3 129.2 127.5 124.4 124 130.2 135.4 139.6 142.6 145 144.6 143.1 142.6 141.5 142.1 141 139.6 136.7 131.4 127.1 123.3 118.9 114.5 110.3 100.3 93.5 96 105.1 114.9 122.4 122.5 117.5 112.5 106 98.4 91.8 85.8 80.8 76.4 72.3 69.6 67.4 67.1 68.7 73.1 76.8 77.9 75.7 73.3 74.2 68.9 62.1 58.5 58.4 56.4 51 46.1 47.6 51.2 55.8 57.1 55.1 59.2 69.1 67.6 63.3 59.1 54.9 62.7 69.1 68 64.3 60.4 56.8 62.8 69.1 71.2 68.9 65.1 61.4 57.2 51.5 48.7 45.7 43.2 40.4 36.7 34.8 33.5 30.8 21.3 27 35.4 33.9 29 24.5 15 20.9 32.9 42.5 43.6 17.4 6.6 4.4 3.1 1.7 0.1 -1.5 -1.5 -1.5 -1.5 -1.5 -1.5 -1.5 -1.5 -1.5 -1.5 -1.5 -1.5 -1.5 -1.5 -1.5 -1.5 -1.5 -1.5 -1.5 -1.5 -1.5 -1.5 -1.5 -1.5 -1.5
152.7 154.6 155.6 155.6 155.3 157.1 157.5 158.5 159.9 161.4 162.1 161.4 157.5 154.1 150 143.6 140.8 132.9 128.2 121.4 109.1 98.4 95.1 94.8 97.7 91.4 81.1 71.2 63.9 56.3 49.2 46.2 43.5 42.1 48.2 51.2 46.8 43 38.1 33.2 30.5 30.1 30.8 37.9 43.3 46.8 56.3 62.9 67.7 77.6 91 95.2 98.9 102.9 111.1 118 122.5 125.7 129.5 134.4 139.3 142.1 144.5 146.5 147.8 148 145.8 142.2 134 128.7 126.2 121.9 124.3 132.1 137.9 141.7 143.3 143.4 142.6 141 140.5 139.7 140 139 136.7 134.7 128.6 123.6 119.6 116.1 111.9 105.2 94.4 91.8 102.3 112.4 121 123 119.2 114.3 108.1 100.3 92.9 86.8 81.1 76.8 72.5 68.8 65.8 65.5 67.5 71.9 76.4 79.4 77.8 75.7 77.3 74.6 67.6 60.4 59 55.5 52.9 51.2 48.1 45.2 49.7 52.4 52.5 49 57.2 65.8 62.1 55.4 48.9 56 64 66.8 63.2 59.4 55 53.6 61.6 69.6 71 68.4 64 60.7 55.6 49.5 46.8 45.2 44.1 42.3 38.7 38.1 37.3 33.5 22.8 21.7 35.1 36 26.6 15.1 10.4 20.5 32.8 27.9 9.3 4.2 3.8 2.8 1.5 0.1 -1.5 -1.5 -1.5 -1.5 -1.5 -1.5 -1.5 -1.5 -1.5 -1.5 -1.5 -1.5 -1.5 -1.5 -1.5 -1.5 -1.5 -1.5 -1.5 -1.5 -1.5 -1.5 -1.5 -1.5 -1.5 -1.5
148.6 151.9 152.5 152.4 151.6 151.9 153.6 155 156.4 159.5 162.4 162.5 159.5 156.4 153.1 148.8 144.9 140.4 130.6 125.3 119.8 106.3 101.7 105.7 105.4 95.2 87.5 76.8 67 59.5 52.1 47.9 47.6 46.6 53.5 56.7 51.1 44.9 41.2 36.8 32.6 30.3 30.2 32.8 38.1 45.7 54.4 63 70.7 82 90.3 95.8 99.8 104 112.7 117.1 120.8 123.4 126.9 131.6 135.8 138.3 142.1 145 146.1 145.6 143.4 137.3 130.5 126 119.6 121.4 127.3 134.8 140.1 141.8 142 141.9 140.2 139.2 138.8 138.3 136.5 135.5 133.7 131.9 127.7 122.2 117.1 113.4 108.6 99.8 91.1 96.7 109.1 117.3 121.7 120.2 116.5 110.8 102.5 94.9 87.6 82.6 77.3 73 68.9 65.7 64.6 67.1 70.9 74.5 78.8 79.2 79.6 78.9 78.5 71.8 64 60.8 61.9 57.7 52.3 49.7 46 41.8 44.8 46.9 47.4 52.5 58.8 60.4 56.5 49.3 47.9 57.3 63 63.9 59 52.3 51.4 56.5 65.4 69.9 70.6 67.2 64 58.9 53.1 48.2 44.2 42 40.5 40.4 41.1 40 39.1 34.6 18.9 18.4 35.2 38.1 30.4 16.1 9.2 20.4 10.3 6.5 -1.5 -1.5 1 1.1 -0.1 -1.5 -1.5 -1.5 -1.5 -1.5 -1.5 -1.5 -1.5 -1.5 -1.5 -1.5 -1.5 -1.5 -1.5 -1.5 -1.5 -1.5 -1.5 -1.5 -1.5 -1.5 -1.5 -1.5 -1.5 -1.5 -1.5 -1.5
141.9 146.6 149.1 148.7 148.4 149.7 151.2 153.5 156.4 159.1 161 162.9 162.6 158.8 155.5 151.8 147.1 143.6 136.3 130.8 128.7 121.4 110.7 104.5 101.5 96.9 89.6 80.9 71.6 63.5 56.6 52.1 49.2 50.6 59.1 62 53.8 47.1 43.3 40.6 36.8 33 30.2 30.7 35.9 44.8 54.8 64.6 75.4 85.6 90.8 96.1 99.9 105.2 111.9 116.6 119.4 121.5 124.6 129.1 132.5 135.7 140.6 144.9 144.9 143.1 140.7 132.7 129.1 122.2 115.3 119.7 128.8 134.1 139.9 140.9 140.7 140.2 139.1 137.5 137.1 136.1 134.6 132.9 129.2 128 124.2 119.6 114.9 110.7 103.5 96.2 91.3 100.5 110.3 116.4 118.7 118.2 114.2 105.7 97.1 89.6 83.3 78.3 73.4 68.9 65.7 64.6 65.1 69.7 74 78.4 78.4 80.6 80.3 81.8 76.8 69.1 65.1 65 61.8 57.8 53.6 49.9 46.1 42.4 39.9 40.5 45.1 48.8 48.9 50 49.8 47 44.4 55.5 61.2 59.5 53.2 49.4 56.5 62.6 67.6 70.3 70.3 68.8 63.8 57.3 50.9 47 41.8 37.9 35.2 37.7 40.2 40.6 38.9 33.9 14.9 17 34.6 35 29.8 15.7 8.6 6 -1.5 -1.5 -1.5 -1.5 -1.5 -1.5 -1.5 -1.5 -1.5 -1.5 -1.5 -1.5 -1.5 -1.5 -1.5 -1.5 -1.5 -1.5 -1.5 -1.5 -1.5 -1.5 -1.5 -1.5 -1.5 -1.5 -1.5 -1.5 -1.5 -1.5 -1.5 -1.5 -1.5 -1.5
140.2 142.2 143.8 146.5 149.9 151.6 154.5 155.3 156.9 159.3 161.1 163 162.7 160.7 156.3 153.5 149 145.3 141.9 136.5 133.3 132.1 122.9 110.7 100.2 94.5 90.6 82.8 75.4 69.1 63.3 56.1 53.1 53.2 63.2 68.8 56.3 49.4 45.8 43.3 39.5 33.9 32.9 31 35.2 44.2 55 66.7 78.9 86.9 91.3 95.8 99.7 106.6 111.8 116.6 118.7 120 122.8 127.3 131.2 134.8 140.6 143.9 143.6 140.8 135 131.7 127.4 117.9 111.1 120.4 128.6 134.4 138.5 138.6 138.7 138.4 137.5 136.3 135.2 133.5 131.7 130 127.4 124 120.6 116 112 107 99.6 93.1 91.5 97.3 105.1 113.4 116.6 116.3 110.2 100.3 92.3 85 80 74.7 69.4 65.3 62.9 63.7 68.1 72.1 76.5 77.3 80 80.9 82.7 79.9 74.3 69.1 67.8 65.7 61.4 57.4 53.4 49 45.5 42.5 39.5 42.3 38.7 37.1 35.5 39.3 42.4 42.3 42.2 52.8 57.7 54.9 45.9 50.4 59 66.4 69.4 69.8 68.4 65.7 61.2 55.2 49.9 45.8 41.7 34.9 31 29.8 36.5 38.2 36.6 32 9.7 15.2 30.8 9.8 4.4 -1.5 -1.5 -1.5 -1.5 -1.5 -1.5 -1.5 -1.5 -1.5 -1.5 -1.5 -1.5 -1.5 -1.5 -1.5 -1.5 -1.5 -1.5 -1.5 -1.5 -1.5 -1.5 -1.5 -1.5 -1.5 -1.5 -1.5 -1.5 -1.5 -1.5 -1.5 -1.5 -1.5 -1.5 -1.5 -1.5 -1.5
140.3 140 142 147.5 153.8 157.4 158.7 159.6 161.2 161.7 161.5 162.3 163.3 162.4 158.9 153.9 150.9 147.5 142.9 139.3 136 134 131.4 122.9 107 96 90.6 83 77.9 72.6 67.9 61.6 56.7 57.1 64.9 68.4 58.5 50.2 46.7 43.6 38.1 35.4 38.3 32.9 37.6 46.4 55.4 67.3 79.1 85.6 91 95.8 100.5 110 114.9 117.3 118.5 119.5 122.2 127 131.5 136.2 140.5 142.2 140.8 136.3 132.8 130.6 123.6 114.2 107.8 118.6 130.2 134.5 136 136.6 136.8 136.4 135.6 134.3 132.5 130.2 129.4 127.6 125.2 123.3 121.5 116.1 111.9 107.3 101.9 92.5 88 93.7 103.9 112.3 118 114.8 105.1 96.8 89.1 80.9 76.2 71.9 65.4 61.7 61.8 67.5 71.8 74.6 74.4 78.7 80.2 83.6 81.1 76.3 72.1 70.3 67.8 63.7 59 55 50.9 47.5 44.1 41.9 48.8 55.2 47.8 38.9 37 33.6 33.8 34.9 42.1 49.7 53.3 49.2 43.1 50.4 59.9 67.9 69.4 66.9 65 62.2 58.3 53.2 46.6 43 39.9 36.3 30.1 24.3 30.3 32.1 32.2 28.5 9 9.6 4.6 1.1 -1.5 -1.5 -1.5 -1.5 -1.5 -1.5 -1.5 -1.5 -1.5 -1.5 -1.5 -1.5 -1.5 -1.5 -1.5 -1.5 -1.5 -1.5 -1.5 -1.5 -1.5 -1.5 -1.5 -1.5 -1.5 -1.5 -1.5 -1.5 -1.5 -1.5 -1.5 -1.5 -1.5 -1.5 -1.5 -1.5 -1.5 -1.5
140 138.9 141.8 148.9 155.9 161.5 164.3 164.8 165 164.8 163.5 162.2 162.8 163 159.7 153.1 149.5 146.8 143 139.6 136.7 134.9 132.8 130 118.8 103.9 91 83.3 78.4 75.2 70.5 65.1 60.8 59.8 63.4 63.7 60.5 50 45.6 41.6 37 40.1 40.7 32.8 37.3 46.5 55.6 67.3 77.1 84.6 90.6 96.2 102.3 108.6 115.7 117.8 118 119.3 121.9 126.7 132 136.6 140.1 141.2 140.1 134.5 130.6 127.3 117 106.2 106.1 120.3 129 132.5 133.6 134.3 134.6 134 133 131.7 129.6 128 127.6 126.7 126.4 124.9 121 117 112.8 109.9 104.9 94.1 85.4 91.2 107.2 114.9 115.5 109.4 102.2 93.7 85.2 78.3 72.3 66.4 61.8 59.6 65.6 70.8 73.5 72.1 76.5 77.7 80.8 79.9 75.5 72.7 72.1 70.1 66.5 61.2 57.3 52.4 48.5 45.3 44.7 48.3 55.6 61 53.2 44.8 46.7 42.6 35.5 30 33.7 41.4 46.6 42.3 38.7 50.5 60.5 66.5 66.3 63.1 61.5 58.6 55.3 48.6 43.5 41 38.3 35 29.2 22.1 21.8 25.2 25.8 11.5 4.6 2.4 1.3 -1.5 -1.5 -1.5 -1.5 -1.5 -1.5 -1.5 -1.5 -1.5 -1.5 -1.5 -1.5 -1.5 -1.5 -1.5 -1.5 -1.5 -1.5 -1.5 -1.5 -1.5 -1.5 -1.5 -1.5 -1.5 -1.5 -1.5 -1.5 -1.5 -1.5 -1.5 -1.5 -1.5 -1.5 -1.5 -1.5 -1.5 -1.5 -1.5
140.5 138.1 140.4 146.2 157.2 163.9 168.1 169.5 169.7 169.2 164.7 163 161.7 161.6 158.6 154.4 148.7 145.4 142.5 139 135.8 133.9 132.3 130.6 127.3 114.6 92.5 84.7 80 76.4 74.4 70.9 65.9 60.8 59.1 58.8 57 51.2 43.4 39.1 39 43.5 38.1 32.5 37.6 47.2 57.2 66.5 75.7 83.1 89.6 95.7 102 107 112.2 113.6 113.9 115.2 120 126.5 131.8 136.2 139.8 139.8 137.4 132.5 129.7 125.4 110.6 97.2 105.4 119 127.1 131 133 132.8 132.5 131.6 130.2 128.8 127.7 126.7 126.3 126 125.7 123.1 119.2 116.5 114 110.7 104.8 94.9 84.2 89.6 105.9 113.3 112.2 105.1 98.6 89.9 82.3 75.3 69.7 63.6 58.7 59.8 67 71.6 70.5 73.4 75.2 76.5 80.3 75 70.4 72 72.4 69.1 64.1 59 54 50.7 47.5 46 49.3 54.5 62 62.8 55.1 55.3 59 55.3 43.8 36.4 29.6 31.3 40.5 35.3 43.9 55.4 62.6 65 63 59.2 56.2 55.2 50.9 44.7 40.3 38.2 36.6 33.8 27.5 19.3 13.7 10.9 5 -1.5 -1.5 -1.5 -1.5 -1.5 -1.5 -1.5 -1.5 -1.5 -1.5 -1.5 -1.5 -1.5 -1.5 -1.5 -1.5 -1.5 -1.5 -1.5 -1.5 -1.5 -1.5 -1.5 -1.5 -1.5 -1.5 -1.5 -1.5 -1.5 -1.5 -1.5 -1.5 -1.5 -1.5 -1.5 -1.5 -1.5 -1.5 -1.5 -1.5 -1.5 -1.5 -1.5
137.7 138.3 139.6 146.7 153.6 163.7 168 170.5 171.6 171.6 167.1 162.9 160.9 159.1 157.4 153.4 147.1 142.8 140.2 137 134.1 131.7 130.7 129.6 128.6 122.4 110 88.2 83.3 78.9 75.8 73.3 68.7 59.8 55.8 54.3 53.2 49.9 43.3 39.8 43.7 43.2 32.1 33 36.8 48 58.2 67.2 75.7 82.5 88.7 94.7 98.3 102.8 109.8 110.4 107.8 107.2 113.2 122.1 130.3 134.7 137.9 137.6 133.6 131 128.5 122 104.3 90.5 105.1 119.1 128.3 131 132.8 131.6 130.1 128.1 126.9 125.4 124.4 123.8 124.3 123.7 122.6 120.4 117.8 115.2 112.4 109.5 105.2 93.7 80.6 85.4 100.3 108.4 106.4 101.7 94.5 86.2 79 72.4 65.4 59.5 56.3 60.1 65.2 67 71.3 71 73.9 76.2 73.4 67.6 66.8 71.8 71.6 68.7 63.7 57.7 52.8 49.3 48.9 51 53.8 61.7 68.4 64.6 58 63.1 63.3 59 53.9 45.8 35.6 27.3 28.6 37.6 47.8 56.6 61.8 63.2 59.1 55.2 51.3 49.8 46.8 41.9 37.9 33.7 32.6 32 28.5 22.4 5.5 -1.5 -1.5 -1.5 -1.5 -1.5 -1.5 -1.5 -1.5 -1.5 -1.5 -1.5 -1.5 -1.5 -1.5 -1.5 -1.5 -1.5 -1.5 -1.5 -1.5 -1.5 -1.5 -1.5 -1.5 -1.5 -1.5 -1.5 -1.5 -1.5 -1.5 -1.5 -1.5 -1.5 -1.5 -1.5 -1.5 -1.5 -1.5 -1.5 -1.5 -1.5 -1.5 -1.5 -1.5 -1.5
139.2 141.1 139.9 146.2 152.1 159.6 166.2 170.6 172.3 171.8 168.7 163.7 159.2 156.7 155.6 152.8 148.1 140.9 137.5 134.5 131.6 128.9 127.8 126.5 125.5 124.3 116 103.4 85.7 78.4 74.5 71.6 70.9 62.9 57.3 52.1 48.3 46 44.3 45.3 45.5 37.6 31.8 32.9 38.3 47.8 57.8 67 75.9 81.8 87.8 91.3 93 96.3 100.6 100.9 100.2 101.5 106.6 115.9 125.1 131.4 134.5 133.6 131.2 129.4 126.4 117.9 99.7 89.7 106.8 118.3 126.9 130 130.6 129 126.9 124 122.6 122 121.6 121.6 122.2 121.5 120.9 119.4 116.7 113.9 110.6 107.5 103.8 94.6 81 78.5 90 98.8 102.5 98 90.9 82.4 75.8 69.7 63 57 54.1 57.7 63.3 68.5 68.3 70.6 72.9 70.2 65.4 64.1 68.6 71.4 71.7 67 62.5 56.9 53.2 50.1 51.8 55.5 62 68.9 69.5 64 63.2 62.9 62.5 61.1 58.2 52.7 42.7 30 27 39.7 48.9 54.8 58.6 60.4 56.4 52.2 46.5 45.3 42.2 39.2 36.3 33.7 18.7 21 9 3.9 -1.5 -1.5 -1.5 -1.5 -1.5 -1.5 -1.5 -1.5 -1.5 -1.5 -1.5 -1.5 -1.5 -1.5 -1.5 -1.5 -1.5 -1.5 -1.5 -1.5 -1.5 -1.5 -1.5 -1.5 -1.5 -1.5 -1.5 -1.5 -1.5 -1.5 -1.5 -1.5 -1.5 -1.5 -1.5 -1.5 -1.5 -1.5 -1.5 -1.5 -1.5 -1.5 -1.5 -1.5 -1.5 -1.5
149 151.5 147.4 146.1 152 157 164.9 169.2 171.4 170.6 168.6 163.8 158.1 153 150.5 151.1 149.8 140.4 134.9 131.7 128.4 125.6 123.5 121.9 121 120.2 118.4 108.3 88.5 78.5 73.8 69.7 68.4 66.3 61.7 52 48 45.8 49 51 45.9 33.7 31 32.2 37.2 45.8 55.4 63.4 71.8 79.4 83.8 84.9 85.8 89.2 92.2 91.4 90.9 95.2 101.8 109.6 119 125.6 129.3 130 129 127.7 124.5 113.2 93.2 87.5 104.8 115.2 121.9 126.3 127.5 124.8 122.6 119.7 118.2 118.6 118.2 118.6 119.7 120 119.7 118.2 116 113.1 110.3 108.1 104.5 100.9 86 73.3 77.8 86.8 96.2 94.6 87.2 77.9 71.6 65.4 58.8 54.3 54 59.8 65.6 66.4 68 70.1 67.4 63.9 59 62.9 69.4 73.3 71.3 66.1 62.1 57 54 51.6 55.8 61.3 69.2 71.9 69.1 65.3 63.7 61.1 60.8 60.2 58.9 55.8 47.3 30.5 24 34.7 45.1 49.7 55 56.1 52.2 48 43.7 40.4 38.2 35.9 35.2 33.9 16.2 4.8 -1.5 -1.5 -1.5 -1.5 -1.5 -1.5 -1.5 -1.5 -1.5 -1.5 -1.5 -1.5 -1.5 -1.5 -1.5 -1.5 -1.5 -1.5 -1.5 -1.5 -1.5 -1.5 -1.5 -1.5 -1.5 -1.5 -1.5 -1.5 -1.5 -1.5 -1.5 -1.5 -1.5 -1.5 -1.5 -1.5 -1.5 -1.5 -1.5 -1.5 -1.5 -1.5 -1.5 -1.5 -1.5 -1.5 -1.5 -1.5
156.1 155 154.1 154 154.5 158.2 163.5 166.6 167.9 168 166.5 162.3 156.3 150.3 149.5 150.5 148.5 140.9 133.3 127.5 124 121.4 119.3 116.5 114.5 114.1 112.1 106.5 91 79.9 73 67.8 65.6 62.4 57.1 51.1 48.9 48.3 52.5 53 42.9 31.7 31.2 32.4 37.3 42.6 49.7 55.9 62.9 69.3 72.1 73.2 76 79.8 81.7 85 88.4 92.1 99.4 107.2 115.4 121.5 125.3 126.5 126.9 125.6 123 113.3 94 78.7 94.8 108.1 115.1 117.7 118.4 119.3 115.7 114.5 114.4 115 115.1 116.4 117.9 120 119.7 118.2 116.3 114.2 113 109.9 108.6 105.2 90.5 75.4 70.4 77.5 89.7 90 82.6 73.1 66.1 58.7 55 52.4 57.3 61.3 63.6 63.8 66.1 64.7 61.5 57.7 56.7 66.1 71.5 73.9 69.5 65.5 62.1 57.7 55.6 56.1 59.9 66.1 73.3 73.1 69.5 66.2 63.5 60.6 57.9 56.5 57.7 57 50.7 37.3 22.6 24.9 36.6 45.5 50.9 50.8 47.8 44.3 41.3 36.8 34.2 32.6 33.4 11.6 -1.5 -1.5 -1.5 -1.5 -1.5 -1.5 -1.5 -1.5 -1.5 -1.5 -1.5 -1.5 -1.5 -1.5 -1.5 -1.5 -1.5 -1.5 -1.5 -1.5 -1.5 -1.5 -1.5 -1.5 -1.5 -1.5 -1.5 -1.5 -1.5 -1.5 -1.5 -1.5 -1.5 -1.5 -1.5 -1.5 -1.5 -1.5 -1.5 -1.5 -1.5 -1.5 -1.5 -1.5 -1.5 -1.5 -1.5 -1.5 -1.5 -1.5
156.6 156.9 157.6 157.7 158.5 160.3 161.6 163.7 164.5 164.6 163.1 160.5 154.7 147.7 143.8 141.9 141.1 140.4 133 125.8 119.6 116 112.8 109.1 104.8 101.9 101.7 93.1 83.9 78.5 72.3 66 61.3 56.8 55 55.3 53.6 52.7 53.8 51.5 41.5 32.1 31.1 32.5 36.6 39.3 42.9 48.1 51.6 55.3 59.2 62 64.2 66.8 70.6 78.7 85 90.8 98.8 106.8 113.6 117.4 121.3 123.8 125.1 123.9 121.4 111.6 91.2 70.6 84.7 93.7 102 107 111 110.3 111.1 109.9 110.1 111.4 114.3 116.2 118.7 120 120.2 119.3 118.3 117.2 114.2 112 110.7 104.7 94 76.5 69 70.8 86.3 84.8 77.5 68.5 60.6 54.3 50.8 54.2 56.6 57.3 61.6 59.4 60.7 59.3 55.4 55.8 62.2 69.9 72.4 70.6 68.1 66 63.1 60.1 58.2 59.1 62.9 71 76.3 75.4 69.5 66.8 63.8 61.6 58.9 54.5 54.1 55.3 54 46.6 31.8 17.7 29 41.4 46.3 45.7 42.9 40.3 38.3 35.9 32.7 30.5 11.7 -1.5 -1.5 -1.5 -1.5 -1.5 -1.5 -1.5 -1.5 -1.5 -1.5 -1.5 -1.5 -1.5 -1.5 -1.5 -1.5 -1.5 -1.5 -1.5 -1.5 -1.5 -1.5 -1.5 -1.5 -1.5 -1.5 -1.5 -1.5 -1.5 -1.5 -1.5 -1.5 -1.5 -1.5 -1.5 -1.5 -1.5 -1.5 -1.5 -1.5 -1.5 -1.5 -1.5 -1.5 -1.5 -1.5 -1.5 -1.5 -1.5 -1.5 -1.5
154.6 159.4 160 160.1 161 160.3 159.6 160.1 159.9 159.7 158.7 157.1 153 146.5 141.7 141.4 140.4 137.9 137.4 127.7 117 110.1 106.2 100.7 93.1 88.1 83.4 81.1 79.7 77.3 72.2 64.5 61.6 58.3 61.6 64.7 58.3 55 53 48.4 39.9 32.8 31.7 32.2 33.3 34.4 35.7 38.4 39.9 41.5 44.5 49.5 54.1 60.7 65.2 73.6 81.6 89.5 97.8 105 109.5 112.5 115.9 119.3 122.6 122.5 119.6 104 84.9 70.7 76.5 88.3 95.5 102.6 103.2 103.8 105.7 108.4 111.1 113 115.9 116.8 119.1 120.5 120.7 120.4 119.7 118.1 116.1 113.1 109.3 103.6 96.3 81.5 68.3 68 84.1 79.8 72.4 64.6 57.3 51.9 48.3 53.6 55.5 57.3 57.6 54.9 55.8 54 54.7 60.3 66.8 70.8 69.7 67.9 67.8 67.1 65 62.4 63.1 64.5 68.9 77.8 81.6 74.5 70 69.1 65.8 63.1 59.6 55.6 51.2 51.6 53.3 49.7 40.4 25.5 22.3 35.8 40.5 40.1 37.4 37.3 36 34.6 33.8 18.5 2.7 -1.5 -1.5 -1.5 -1.5 -1.5 -1.5 -1.5 -1.5 -1.5 -1.5 -1.5 -1.5 -1.5 -1.5 -1.5 -1.5 -1.5 -1.5 -1.5 -1.5 -1.5 -1.5 -1.5 -1.5 -1.5 -1.5 -1.5 -1.5 -1.5 -1.5 -1.5 -1.5 -1.5 -1.5 -1.5 -1.5 -1.5 -1.5 -1.5 -1.5 -1.5 -1.5 -1.5 -1.5 -1.5 -1.5 -1.5 -1.5 -1.5 -1.5 -1.5
153.8 160.7 162.1 160.4 158.1 156.4 156.7 156.4 154.7 154.3 152.5 151.2 150.5 146.9 141.4 135.6 138 137.6 136.9 130.6 115.2 106.8 103.6 96.3 90.7 87.2 85.1 85.3 83.8 82.8 78.5 71.7 64.7 63.6 71.2 75.2 65.4 56.4 48.2 45.7 40.5 36.5 32.6 30.8 29.6 30.5 30 29.7 31.3 32 33.5 37.4 43 52.6 65.7 74 80.4 86.8 97.1 99.7 102.2 105.8 111.9 114.8 119 119.7 114.5 95.7 79.1 69 66.9 81.3 90.3 96.2 98.1 100.5 103.8 108.4 112 114.7 116.6 118.7 120.4 120.8 121.3 120.6 119.7 118.3 115.9 113.4 109.7 105.2 96.6 80.4 66.7 61.8 71.7 73 66.8 61.3 56.2 51.1 47.5 51.4 52.9 54.5 54.7 50.6 50.2 50.1 57.3 64.7 68 68.3 66.7 66.5 67.3 67.3 65.3 65.4 67.6 72.4 76.5 82.1 79.7 75.4 73.1 69.8 67 63.4 59.5 56.1 50.7 47.1 50.9 50 42 29.7 14.4 23.9 31.4 33.8 32.4 34.6 34.5 34.5 26.9 4.9 -1.5 -1.5 -1.5 -1.5 -1.5 -1.5 -1.5 -1.5 -1.5 -1.5 -1.5 -1.5 -1.5 -1.5 -1.5 -1.5 -1.5 -1.5 -1.5 -1.5 -1.5 -1.5 -1.5 -1.5 -1.5 -1.5 -1.5 -1.5 -1.5 -1.5 -1.5 -1.5 -1.5 -1.5 -1.5 -1.5 -1.5 -1.5 -1.5 -1.5 -1.5 -1.5 -1.5 -1.5 -1.5 -1.5 -1.5 -1.5 -1.5 -1.5 -1.5 -1.5
154.5 159.7 161.8 160.9 158.4 154.8 155.1 155.2 152.9 149.2 148.1 145.5 145.5 144.9 140.1 133.7 130.7 133.9 134.5 132 121.3 110.1 103.7 96.6 93.5 92.5 93 92.4 92.7 93.2 90.4 83.5 72.8 71 79.6 81 74.8 61.3 52 46 44.3 41.9 38.8 35.5 31.9 30.9 30.5 31.8 31 28.2 29.4 31.4 34.5 40.8 57.3 67 71.2 77.2 86.1 90.8 91.7 96 102.3 108.2 113.7 114.6 106.1 84.2 75.3 65.9 68.7 79.3 88.7 93.7 94.3 99.5 104.8 109.4 112.2 114.3 117.3 118.5 120.2 120.9 121 120.1 119.1 117.9 115.9 113.1 109.8 103.8 98.5 80.7 67.1 59.7 58.4 62.7 62.1 58.9 55.3 52.2 46.9 48 48.7 50.3 51.3 47.9 48.3 53.9 61.1 65.2 66.9 66 64.5 65 66.9 66 65.4 68.3 71.2 78 83.8 83 79.4 76.5 74.5 71.9 68.9 64.8 60.8 56.9 51.8 43.8 47.3 49.6 44.7 36.2 24.2 9.7 21.3 25.5 31.6 33.3 32.8 32.7 5.4 -1.5 -1.5 -1.5 -1.5 -1.5 -1.5 -1.5 -1.5 -1.5 -1.5 -1.5 -1.5 -1.5 -1.5 -1.5 -1.5 -1.5 -1.5 -1.5 -1.5 -1.5 -1.5 -1.5 -1.5 -1.5 -1.5 -1.5 -1.5 -1.5 -1.5 -1.5 -1.5 -1.5 -1.5 -1.5 -1.5 -1.5 -1.5 -1.5 -1.5 -1.5 -1.5 -1.5 -1.5 -1.5 -1.5 -1.5 -1.5 -1.5 -1.5 -1.5 -1.5 -1.5
157.4 158.5 160.9 161.2 159.1 155.9 154.6 153.8 151.2 146.3 143.3 141.6 139.4 138.8 136.8 132.6 129.8 128.3 131.2 128.8 121.8 112.2 104.6 99.6 99.6 99 99.8 99.9 100.9 103.5 103.5 93.9 80.2 79.7 81.6 86.2 79.6 67.4 59.6 55 55.5 48 43.9 40.9 39.3 38.7 40.3 42.9 42.6 38.4 31 28.3 29.2 31.5 38.1 48.8 58.9 66 73 79.4 83.4 88.1 94.3 101.1 107.6 111.8 93.2 79.7 69.7 65.5 72.7 81.3 89.9 92 95.1 102.9 107.3 110.6 113.4 116.5 118.2 118.7 120 120.9 120.2 119 117.6 116 114.4 112.4 108.8 104 97.4 85.1 68.9 59.9 55.6 54.9 54.8 54.9 54.1 51.7 48.2 45.2 43.9 45.7 46.7 46.5 51 57.3 61.9 62.8 62.4 61.9 61.5 64 64.8 63.4 64.9 68.4 74.9 82.6 86.5 84.8 82.1 77.4 75.7 72.9 70.1 66.2 62.8 58.1 51.7 42.8 45 49 47.7 42 33.4 22 11.2 23.2 29.5 31.9 31 9.2 -1.5 -1.5 -1.5 -1.5 -1.5 -1.5 -1.5 -1.5 -1.5 -1.5 -1.5 -1.5 -1.5 -1.5 -1.5 -1.5 -1.5 -1.5 -1.5 -1.5 -1.5 -1.5 -1.5 -1.5 -1.5 -1.5 -1.5 -1.5 -1.5 -1.5 -1.5 -1.5 -1.5 -1.5 -1.5 -1.5 -1.5 -1.5 -1.5 -1.5 -1.5 -1.5 -1.5 -1.5 -1.5 -1.5 -1.5 -1.5 -1.5 -1.5 -1.5 -1.5 -1.5 -1.5
159.6 159.6 160.1 160.1 159 156.6 154.1 151.7 148.7 146.7 143.3 140.7 139.1 137.5 137.1 136.7 134.7 131.1 126.4 124.4 121 114 106.6 104.5 105.2 103.9 105.3 107.5 111 113.6 110.9 103.7 93.2 85.3 82.4 86.9 87.5 77.5 71.2 69.9 62.7 55.3 51.5 49.1 46.6 44.4 46.9 51.7 52.6 48.7 42.3 33.2 26.6 27.6 30.2 34.5 47.1 57.2 64.4 72 80.8 88.6 96 103.3 106 99.8 84.4 72 62.8 65.7 75.8 85.4 90.8 95.6 101.2 105.4 109.8 112.8 115.2 117.8 119.1 119.5 120.6 119.6 118 115.6 113.2 111.9 111.5 111 107.9 102.6 93.1 79.2 68.4 61.1 58.6 54.8 51.5 50.5 49.9 48.4 47 44.4 43.2 43.3 47.3 48.2 54.2 58.5 60.3 59.6 58.9 58.2 59.5 60.6 60.7 61.3 64.8 72.2 79.6 86.4 86.7 84.4 81.6 79 76.8 73.5 70.8 66.9 62.1 55.8 48.6 41.8 41.5 46.2 48.2 43.2 36.6 28.9 19.4 16.2 26.7 29.5 19.7 -1.5 -1.5 -1.5 -1.5 -1.5 -1.5 -1.5 -1.5 -1.5 -1.5 -1.5 -1.5 -1.5 -1.5 -1.5 -1.5 -1.5 -1.5 -1.5 -1.5 -1.5 -1.5 -1.5 -1.5 -1.5 -1.5 -1.5 -1.5 -1.5 -1.5 -1.5 -1.5 -1.5 -1.5 -1.5 -1.5 -1.5 -1.5 -1.5 -1.5 -1.5 -1.5 -1.5 -1.5 -1.5 -1.5 -1.5 -1.5 -1.5 -1.5 -1.5 -1.5 -1.5 -1.5 -1.5
159.9 160.5 159.1 159 159.2 157.1 153.8 149.4 145.6 145.6 145.2 143.5 141.3 139 139.9 139.8 138.5 135.3 130.8 126.8 123.3 116.5 109.1 109.5 110.9 110.2 111.7 114.5 116.5 117.9 117.7 111.9 102.4 92.6 87.9 87.6 87.9 85.2 77.1 74.1 69 62.5 59.6 58.6 53.8 51.8 54.7 59.6 60.9 55.8 49.4 39.1 30.5 25.7 27.4 30.9 34.1 44.5 59.3 68.3 80.6 90.1 95.6 101.2 99.8 89.7 74.5 62.4 54.4 65.7 79.3 82.1 92.1 98.9 102.8 108.2 111.1 112.7 115 116.7 119.1 120.4 119.7 117 114 110.6 108.1 106.5 105.5 105.2 101.9 95.1 82.8 72.5 66.1 67.6 67.9 63.6 60.3 52 49.4 46.9 46.4 44.9 43 42.7 45.9 48.8 54.4 56.6 55.7 54.5 53.6 53.6 53.7 56.6 60.4 64.2 70.4 79.1 85.3 86.4 85.3 83.2 80.9 78.8 76.7 74 69.2 64.1 58 51.8 47.3 40.9 34.8 41.1 45 41.2 35.9 30.4 24.2 8.8 18.1 24.6 4.6 -1.5 -1.5 -1.5 -1.5 -1.5 -1.5 -1.5 -1.5 -1.5 -1.5 -1.5 -1.5 -1.5 -1.5 -1.5 -1.5 -1.5 -1.5 -1.5 -1.5 -1.5 -1.5 -1.5 -1.5 -1.5 -1.5 -1.5 -1.5 -1.5 -1.5 -1.5 -1.5 -1.5 -1.5 -1.5 -1.5 -1.5 -1.5 -1.5 -1.5 -1.5 -1.5 -1.5 -1.5 -1.5 -1.5 -1.5 -1.5 -1.5 -1.5 -1.5 -1.5 -1.5 -1.5 -1.5
159.2 161.3 158.7 156.7 156.6 155.5 152.1 147.7 145.1 144.7 144.5 144.2 144.3 143.4 142.6 142.6 141.4 137.6 134.6 131.8 128.2 124.3 119.9 117.8 115.8 115.6 117.2 119.2 119.8 120.1 120.7 119.3 110.9 99.8 91.7 90 88.5 84.9 80.3 79.1 75.7 69.3 65.9 63.7 60.4 59.1 61 63.3 64.1 62.7 57.2 46.4 36 27.9 25.8 29.2 32.4 40 44.6 58.6 75.9 92.8 94.3 95.2 91.3 77.3 63.9 52.4 54.9 71.1 79 85.6 94 99.1 104.2 106.5 108.9 112.8 116.2 118.6 119.4 118.7 117.4 113.5 107.3 102.7 99.8 99.3 99 97.5 93.6 86.4 75.8 73.2 74.3 74.8 71.8 68.1 61.1 52.3 48.3 46.6 44.7 44.5 43 42.2 44.9 47.4 49.2 49.9 50.1 49.5 49.3 53 56.5 59.9 63.1 69.9 77.7 83.8 85.5 84.3 84.2 82.6 80.8 78.8 76.1 73.4 71.1 67.7 63.4 57.6 51.5 43 35.6 32.4 35.4 33.3 32.8 29.6 25.1 16.7 8.3 10.4 -1.5 -1.5 -1.5 -1.5 -1.5 -1.5 -1.5 -1.5 -1.5 -1.5 -1.5 -1.5 -1.5 -1.5 -1.5 -1.5 -1.5 -1.5 -1.5 -1.5 -1.5 -1.5 -1.5 -1.5 -1.5 -1.5 -1.5 -1.5 -1.5 -1.5 -1.5 -1.5 -1.5 -1.5 -1.5 -1.5 -1.5 -1.5 -1.5 -1.5 -1.5 -1.5 -1.5 -1.5 -1.5 -1.5 -1.5 -1.5 -1.5 -1.5 -1.5 -1.5 -1.5 -1.5 -1.5 -1.5
157.2 161.9 159.6 155.2 153 151.1 149.4 146.7 145.2 144.7 144.4 144.3 144.8 145.2 145.1 144.2 143.4 139.2 136.4 134 133.4 132.3 129.3 124 120.7 120 121.2 122.7 122.8 122.2 121.6 121.3 120.1 110.8 100.4 94.3 91.8 88.8 84 78.8 75.8 72.4 70.1 66 64.9 64.5 64.9 67 68.9 68.3 64.1 57 45.4 36.6 27.2 25.7 28.7 31.9 42 50.6 63.1 83.6 89.5 85.5 78.8 64.6 53.8 50.6 60.1 74.1 76.1 86 93 98.8 102 106 110.9 114.7 117.4 119.2 119.1 117 115.6 110.9 101.8 96.1 92.2 91.8 91.3 89.2 84.6 78.8 80.5 81.2 79.6 76.2 71 64.5 57.6 50.7 46.9 45.5 43.8 42.8 42.3 41.8 41.8 43.9 45 46.2 47.7 50.7 53.7 58.6 61.2 62.8 67.5 75.9 82.3 83.5 83.6 83.5 82.9 81.8 80.1 78.6 76.3 74.3 72.3 69 64.5 58.9 53 46.8 40 32.3 27.1 26.3 29.3 27.2 24.6 20.1 5 4.2 -1.5 -1.5 -1.5 -1.5 -1.5 -1.5 -1.5 -1.5 -1.5 -1.5 -1.5 -1.5 -1.5 -1.5 -1.5 -1.5 -1.5 -1.5 -1.5 -1.5 -1.5 -1.5 -1.5 -1.5 -1.5 -1.5 -1.5 -1.5 -1.5 -1.5 -1.5 -1.5 -1.5 -1.5 -1.5 -1.5 -1.5 -1.5 7.6 -1.5 -1.5 -1.5 -1.5 -1.5 -1.5 -1.5 -1.5 -1.5 -1.5 -1.5 -1.5 -1.5 -1.5 -1.5 -1.5 -1.5
156.4 162.6 161.1 154.8 150.8 148.9 147.7 145.9 145.1 144.7 144.4 144.7 145.5 145.8 145.9 145.1 144.4 142.7 137.9 136.6 135.6 134.5 131 126.6 124 123.3 124.6 125.5 125.4 125.1 124.5 124 122.4 118.7 111.9 101.8 96.4 92.6 88.5 84.6 78.7 75.5 73.5 70.5 69.9 70 71 73.2 75.8 76.9 73.2 68 60.8 49.6 40.4 30.1 24.7 26.8 28.9 42.7 55.2 70.8 76.5 72.9 61.2 54 47.3 49.9 65.6 70.8 76.2 85.4 92.4 96.4 102 107 111.9 114.5 115.3 116.3 116.5 116.2 113.2 109.6 103.2 96.7 92.4 88.3 86.5 85.6 85.8 86.2 85.9 83.8 79.5 73.7 66.8 58.5 52.5 48.5 45.9 44.2 42.6 41.1 40.8 39.6 39.8 42 44.2 48.6 53.7 55.1 58.6 60.9 62.8 65 68.8 76.3 80.8 82.5 81.4 82.2 81.6 80.9 79.4 78.4 76.8 75 73 68.6 64.4 59.1 54.1 49.2 44.1 37.5 29.8 24.8 23.5 24.3 22.8 21 12.2 -1.5 -1.5 -1.5 -1.5 -1.5 -1.5 -1.5 -1.5 -1.5 -1.5 -1.5 -1.5 -1.5 -1.5 -1.5 -1.5 -1.5 -1.5 -1.5 -1.5 -1.5 -1.5 -1.5 -1.5 -1.5 -1.5 -1.5 -1.5 -1.5 -1.5 -1.5 -1.5 -1.5 -1.5 1.5 4 6.2 8.1 8.4 8.2 8.1 -1.5 -1.5 -1.5 -1.5 -1.5 -1.5 -1.5 -1.5 -1.5 -1.5 -1.5 -1.5 -1.5 -1.5 -1.5 -1.5
154.8 161.2 162.4 157.8 148.8 145.9 145.5 144.3 144.5 145.1 144.8 144.9 145.5 145.8 146.1 145.6 145 143.4 141 138 136.6 135.5 133.2 131.3 129.4 127.6 127 126.8 126.4 126 125.4 124.3 123.2 120.6 116.4 109.7 102.5 97.6 93.3 89 84.5 79.6 76.9 75.1 74.8 75.5 76.5 78.8 81.5 83.6 83.3 79.4 71.7 62.2 52.7 44.3 33.3 26.1 26.5 33.4 48.4 61 63.3 55.6 48.7 44.6 48.7 59.3 69.4 67.6 78.5 86 91.8 96.3 101.9 106.2 109.7 111.7 112.8 114.2 114.7 114 111.7 107.2 101.6 95.4 92 89.7 91.8 92.2 90.7 88.2 86.1 82.4 77 68.7 59.9 53.2 49.3 47.4 46.3 43.9 41.6 40.1 39.5 39 40 44.7 49.4 53.2 55.6 57.8 58.7 59.9 63 65.9 71.7 79.8 81.9 79.8 78.9 80.5 80.8 80 78.5 77.4 76.6 75.2 72.2 67.8 63.8 58.3 53.4 48.5 43.2 36.6 30.8 26.3 22 19.8 20.5 20.4 4.8 -1.5 -1.5 -1.5 -1.5 -1.5 -1.5 -1.5 -1.5 -1.5 -1.5 -1.5 -1.5 -1.5 -1.5 -1.5 -1.5 -1.5 -1.5 -1.5 -1.5 -1.5 -1.5 -1.5 -1.5 -1.5 -1.5 -1.5 -1.5 -1.5 -1.5 -1.5 -1.5 -1.5 -1.5 5.4 9.1 10.8 9.9 9 8.4 8.3 8.3 8.1 4.1 -1.5 -1.5 -1.5 -1.5 -1.5 -1.5 -1.5 -1.5 -1.5 -1.5 -1.5 -1.5 -1.5
152.3 158.5 162.6 159.4 148.7 143.5 141.9 141.8 141.9 142.3 144 145.1 145.4 145.5 145.8 146.2 145.9 145.1 144.1 140.6 137.8 136.6 134.8 134.4 132.5 130.6 129 128 127.2 126.3 126.3 124.3 122 119.5 118.4 117.9 111.2 103.3 97.5 94.1 90.4 85 81.3 79.9 79.5 80.2 81.7 83.7 85.6 87.6 87.8 86.2 82.8 74.3 64.3 55.3 44.7 27.9 22.7 26.8 39.2 50.1 49.7 44.6 39.9 44.2 55.2 68.9 66.7 72.9 82.9 88.7 93.8 97.1 100.7 102.9 105.8 109.2 110.6 112.1 113 112.1 110.2 107 101.6 98.1 94.8 93.3 94.3 92.8 90.2 87.9 85.5 80.9 72.7 62 54.3 49.5 47.3 46.7 44 42 40.1 39.4 38.6 37 42.2 48 51.2 53.3 54.3 54.7 57.1 61.7 65.8 70.8 76.8 78.9 77.5 76.2 76.7 79.2 79.7 79.1 77.3 75.9 76.1 74.6 70.8 67 63.1 57.8 52.6 47.3 41 34.2 29.4 25.5 21.7 18.7 18.7 20.1 2.6 -1.5 -1.5 -1.5 -1.5 -1.5 -1.5 -1.5 -1.5 -1.5 -1.5 -1.5 -1.5 -1.5 -1.5 -1.5 -1.5 -1.5 -1.5 -1.5 -1.5 -1.5 -1.5 -1.5 -1.5 -1.5 -1.5 -1.5 -1.5 -1.5 -1.5 -1.5 -1.5 3.4 -1.5 8.8 10.1 11 12.1 10.6 8.9 9.3 8.8 8.4 8.4 8.1 6.4 4.6 2.3 -1.5 -1.5 -1.5 -1.5 -1.5 -1.5 -1.5 -1.5 -1.5
149.1 155.1 159.3 158.5 151 142 138.6 137.4 138 138.6 140.5 142.6 145.1 145.5 145.4 145.9 146.4 145.6 146.3 144.8 140.5 136.8 134.9 133.9 133.1 131.9 130.3 128.9 127.1 126.6 126.5 125.9 122.5 117.7 118.3 118.8 115.6 109.4 104.3 100.1 96.1 91.5 87.5 85.4 84.5 85.1 86.9 88.7 90.4 92.9 95.1 92.4 88.4 84.1 76.1 65.2 53.3 34.3 21.7 22.9 31.6 40.2 39.4 32.8 39 47.4 65.5 66.1 70.4 78.9 87.1 92.7 95 96.3 97.3 100.1 102.8 106.2 108.4 109.6 110.2 109.3 108.1 106.2 103.6 99.9 97.4 96.2 93.6 90.3 88.3 87.7 85.9 79.6 71.7 61.4 52.7 48 44.8 44.1 41.4 40 39 38.5 37.4 36.8 44.5 47.9 49.7 49.6 49.9 53.3 59.1 64.5 69.7 75.8 75.8 73.8 71.6 72.2 75.3 78.1 79.1 78 76.5 73.9 73.1 72 69.1 66 62.5 59 53.3 47.4 40.9 33.2 28.2 24.1 20.7 17.4 17.4 11.9 -1.5 -1.5 -1.5 -1.5 -1.5 -1.5 -1.5 -1.5 -1.5 -1.5 -1.5 -1.5 -1.5 -1.5 -1.5 -1.5 -1.5 -1.5 -1.5 -1.5 -1.5 -1.5 -1.5 -1.5 -1.5 -1.5 -1.5 -1.5 -1.5 -1.5 -1.5 1.5 3.8 8.5 8.4 8.7 10 11.2 11.5 11.1 9.5 10.9 12.7 12 9.9 8.5 8.1 8.2 8.3 6.4 -1.5 -1.5 -1.5 -1.5 -1.5 -1.5 -1.5 -1.5
143.1 149.5 153.3 154.6 151.3 143.3 137.7 133 132.4 133.8 135.7 139.5 144.8 146.7 145.4 145.1 145.5 146.2 146 145.1 143.9 138.1 135 133.9 132.8 131.9 131 129.6 128 126.7 126.5 126.2 124.1 119 114.7 114 114.7 113.3 109.9 104.5 100 96.1 92.8 90.1 88.8 89.6 90.9 93.2 96.2 100.2 103.7 99.7 93.5 89 83 68.9 55.3 36 21.3 21.4 25.4 26 29 38.3 48.2 63.8 64 69.2 77.9 85.7 91.1 92.6 93.3 94.2 96 98.5 101.2 103.6 105.2 106.1 106.4 106 104.9 103.7 101.2 100.2 98.4 95.1 91.7 87.5 85.8 87.1 83.4 77.7 68.9 59.9 52.9 48.8 48 44.8 41.2 39.7 38.2 37.3 35.6 37.6 42.6 44.7 45.5 46 51.1 56.2 62.7 68.5 74.4 72.5 70.5 67.8 66.2 71.1 74.3 77 77.7 76.6 74.9 72.7 69.3 69 67.4 65 62.5 57.9 52.3 45.7 37.6 29.9 25.9 23 19.6 16.6 16.8 9.4 -1.5 -1.5 -1.5 -1.5 -1.5 -1.5 -1.5 -1.5 -1.5 -1.5 -1.5 -1.5 -1.5 -1.5 -1.5 -1.5 -1.5 -1.5 -1.5 -1.5 -1.5 -1.5 -1.5 -1.5 -1.5 -1.5 -1.5 -1.5 -1.5 -1.5 2 4.6 8.7 10.6 9.3 9.4 9.9 10.5 9.7 9.7 9.7 11.2 13.7 13.7 11.8 9.8 10.5 11.1 8.6 8.4 8.3 8.1 -1.5 -1.5 -1.5 -1.5 -1.5 -1.5
136.5 143.2 147.3 147.1 146.8 144.2 137.9 132.4 127 129 130.2 134.2 142.6 147.2 144.6 143.7 144.3 144.8 145.6 144.9 143.4 139 134.9 133.3 132.6 132.3 131.7 130.4 129 127.8 126.7 125.3 123.9 121.1 114 107.8 109.4 111 110.7 108.4 104.9 101 96.7 93.9 93.1 93.2 95.5 99.7 103.4 105.4 105.3 101.3 95.2 91.7 83.8 66.3 47.4 28 20.7 20.3 23.2 26.8 38.9 49.2 62.1 58.7 64.4 76.2 83.2 88.8 90.3 91.1 92.1 93.6 95.4 98.1 99.8 101 101.6 102.6 102.3 101.6 100.6 99.7 99.5 98.1 96.6 93.7 87.9 83.2 81.5 82.1 79.3 74.4 66.6 58.4 52.7 51 49.5 45 42.1 40.1 37.3 35.5 33.7 36 39.2 40.1 42.5 47.8 53.2 59.1 67.1 71 69.9 67.4 64.4 61.3 66 70.8 73.6 75.7 76.1 75.1 73.2 70 64.8 64.8 66 63.9 59.4 54.2 49.1 41.6 33 27.1 24.2 21.4 18.5 15.4 13.4 5.9 -1.5 -1.5 -1.5 -1.5 -1.5 -1.5 -1.5 -1.5 -1.5 -1.5 -1.5 -1.5 -1.5 -1.5 -1.5 -1.5 -1.5 -1.5 -1.5 -1.5 -1.5 -1.5 -1.5 -1.5 -1.5 -1.5 -1.5 -1.5 -1.5 2 6.7 9.7 10.3 10.1 10.7 11.4 10 9.4 9.3 10 9.5 10.4 13 14.9 14.6 13.4 13.7 13.8 13 11.8 9.5 8.5 8.3 8.5 -1.5 -1.5 -1.5 -1.5
131.1 137.3 140.8 140.1 138.9 138.6 136.7 133.3 123.8 122.4 124.8 126.1 132.7 138.4 141.2 142.2 142.8 143.3 143.9 144.5 142.3 137.5 134.4 133.4 132.3 132.4 132.3 131.1 129.6 128.3 127 125.6 123.4 119.4 115 107.4 103 104.8 108.4 107.7 106.4 105.9 99.4 97.3 98 99.3 101.3 104.5 105.9 105.1 103.7 100 96.2 93.1 82.1 61.2 38.4 23 21 22 24.9 35 49.8 60.8 53.5 58.5 69.7 77.7 87.5 89.1 89.3 90.7 91.6 92.6 93.8 94.6 95.7 97.9 98 98.3 98 97.5 97.7 97.7 97.4 95.3 93 88.8 82.9 78.6 76.3 77 75.5 72.2 64.4 58.3 54.8 50.9 48.4 43.5 41.1 38.9 36.1 34.1 31.8 34.7 36.5 40.3 45.3 49.3 55.8 62 67.2 66.9 64 61.1 57.7 61 66.6 70.1 72.3 74 74.4 73.6 71.1 65.5 60.7 60.2 64.4 61.7 56.4 50.8 43.5 34.7 28.9 25.4 21.7 19.6 18 14.9 10.9 4.4 -1.5 -1.5 -1.5 -1.5 -1.5 -1.5 -1.5 -1.5 -1.5 -1.5 -1.5 -1.5 -1.5 -1.5 -1.5 -1.5 -1.5 -1.5 -1.5 -1.5 -1.5 -1.5 -1.5 -1.5 -1.5 -1.5 -1.5 -1.5 3.3 6.1 9.8 9.3 10 11.3 12.4 13.8 12.5 10 9.1 10 9.9 9.9 12.3 14.6 17 16.8 16.7 16.2 14.7 12.6 10.2 9.5 8.8 8.8 8.5 8.5 -1.5 -1.5
125 131.7 132.2 132.5 131.2 129.8 131.3 130.5 125.1 116.8 117.2 118.3 122.7 131.8 139.4 142 142.5 142.8 142.6 141.6 140.6 137.5 135 133.4 132.1 131.7 132.3 131.7 130 128.6 127.5 126.1 123.8 119.7 112.8 108.5 101.6 99 99.7 102.1 102.6 102.4 99.6 98 99.3 101.9 103.6 104.1 103.4 102.5 101.5 98.9 96.7 92.2 77.9 54 31.6 22.3 19.6 21.8 27.3 42.8 57.8 51 52.3 63 73.9 81.7 87.2 88.5 88 90.3 91.1 91.6 90.9 92.3 93.2 94.9 94.8 94.3 94.3 94.5 95.2 95 93.4 92.9 90.5 86.3 79.3 73.2 71 71.9 73.7 71.9 66.7 60.3 54.8 50.7 47.3 42.4 40.3 37.9 35.1 33.8 31.4 33.7 37.8 43.3 49.6 54 57 61.4 62.7 61.3 58 54.6 57.5 63.6 66.5 69.1 71.1 72.3 72.7 71.4 67.9 64.1 55.7 51 57.2 56.4 51.1 42.2 34.5 30.5 29.4 31.5 27.7 23.1 16.3 12.2 9 3.2 -1.5 -1.5 -1.5 -1.5 -1.5 -1.5 -1.5 -1.5 -1.5 -1.5 -1.5 -1.5 -1.5 -1.5 -1.5 -1.5 -1.5 -1.5 -1.5 -1.5 -1.5 -1.5 -1.5 -1.5 -1.5 -1.5 -1.5 3 7.8 9.9 9.3 9.7 10.9 12.7 15.4 15.8 15.5 11.8 10 8.8 8.9 10 12 13.1 16 17.5 18.1 17.5 16 13 11.6 10.7 9.8 10.6 13 15.2 16.8 18.4
116.7 120 121.4 120.5 121.4 121.6 121.5 123.9 123.3 117 111.7 112.5 114.7 121.2 128.9 136.7 142.1 142.4 141.8 140.9 140.2 137.8 135.5 133.5 131.9 130.9 131.7 131.7 130.7 128.6 128 126.3 124 118.5 110.7 106.3 101.3 95.3 94 94.3 96 97.1 95.3 94.1 96.6 99.4 100.3 100.1 99.8 99.7 99 97.7 95.3 90.2 74.6 48.8 28.1 21.8 21.8 21.7 30.2 46.5 51 45.8 55.9 68.1 77.6 84.3 86.2 86.4 87 88.9 90.1 88.9 88.4 88.9 90.8 91.8 91.8 91.2 89 91.8 92.4 93 92.2 91 87.5 82 76.7 70.4 67.1 66.6 69 68.1 63.9 57.4 53.3 49.8 44.8 40.7 38 36.6 34.4 33.7 31.6 34.3 39.2 45.9 55.7 56.8 55.2 58 57.4 54.6 51.6 56 62.5 63.9 65.7 67.9 69.6 70.3 69.7 69 66.7 62.8 52.8 40.9 44.9 43.2 42.1 39.8 32.2 25.8 22.4 19.3 16.8 20.5 17.2 10.8 8 -1.5 -1.5 -1.5 -1.5 -1.5 -1.5 -1.5 -1.5 -1.5 -1.5 -1.5 -1.5 -1.5 -1.5 -1.5 -1.5 -1.5 -1.5 -1.5 -1.5 -1.5 -1.5 -1.5 -1.5 -1.5 -1.5 0.3 3.2 6.2 10.3 9.8 9.8 10.7 12.1 14.7 21.4 25.9 19.3 12.7 9.9 9.1 10.4 10 9 12.8 13.9 16 17.3 18.3 16.9 15.4 13.9 12.6 11.5 12.1 13.3 15 16.9 17.8
116.5 110 108.4 108.8 109.3 111.4 112.4 112.1 114.8 116.5 109.7 103.8 107.9 113.7 118.9 125.9 135.1 141.4 141.1 140.7 140.4 138.4 135.7 133.6 132.1 130 129.6 130.6 132 130.9 128.8 126.6 123.2 117.9 110.3 104.3 98.4 93.5 90.2 89.7 91.2 91.4 91.1 92.6 93.1 94.9 96.5 96.9 97.2 97.3 97.4 96.2 93.5 89.1 69.7 47.3 29.1 20.9 22 21.2 31.3 44.9 44.1 50.4 61.6 74.4 81 85.4 85.7 84.9 85.3 86.6 86.4 85.7 85.9 86.1 87.2 87.8 88.5 88.4 86 88.1 89.5 89.4 87.5 88.7 87 80 73.8 68.9 66.1 65 63.6 62.4 61.1 55 51.6 44.1 42.4 39.9 38 35.1 33.3 32 30.7 37.3 43.6 51.6 55 53 51.3 52.2 49.6 48.2 52.4 59.5 61.2 63.2 65.3 66.4 66.9 66.7 66.1 65.7 64.7 63 57 43.3 32.1 41.6 41 34.7 26.6 22.3 19 16.3 14.1 13.5 11.3 9.3 6.1 -1.5 -1.5 -1.5 -1.5 -1.5 -1.5 -1.5 -1.5 -1.5 -1.5 -1.5 -1.5 -1.5 -1.5 -1.5 -1.5 -1.5 -1.5 -1.5 -1.5 -0.7 -0.2 0.1 0.4 0.9 0.8 3.2 7.8 9.8 10 9.6 10.7 11.8 13.3 16.1 26.2 29.5 20.3 14.2 11.8 11.4 11.4 11.7 10.4 12.1 14.8 16.7 17.9 18.3 17.6 16.7 15.4 14.3 13.5 13.6 13.1 14.1 15 15.1
119.4 115.1 109.7 106.3 103.9 102.4 102.5 100.6 101.7 104.6 106 99 102.1 108.3 110.3 115.4 128.5 138.4 140.5 140 140.7 139.3 136.3 133.3 132.2 129.1 128.3 129 131.9 131.8 128.9 126.7 123.4 117.8 111.6 106.3 96.3 92 89 87.7 87.2 86.9 88.6 92.5 93.2 94.4 95.1 95.6 95.7 95.5 95.4 93.8 91 86.1 69 49.7 31.8 21 20.8 20.9 31 41.1 46.2 58.3 66.2 76.6 82.6 85.1 84.9 84 83.9 83.9 84.1 82.7 82.9 83.5 83.9 84.1 84 83.6 83.4 86 86.5 85.7 81.4 83.9 82.1 78.9 74.8 70 66.5 64 61.3 61.4 57.2 52.2 45.6 41.4 39.4 37.2 36.3 34.1 32.4 31.4 31.7 40 47.4 49.8 48.6 46.9 43.6 42.4 44.7 50.9 56.9 59.2 59.9 61.7 62.5 63.7 62.6 62.1 62.3 62.5 63.3 63.8 59.1 49.5 32.7 28.4 33.6 26.6 21.8 18.3 16.6 14.5 12.3 11.4 9.4 8.4 4.1 -1.5 -1.5 -1.5 -1.5 -1.5 -1.5 -1.5 -1.5 -1.5 -1.5 -1.5 -1.5 -1.5 -1.5 -1.5 -1.5 -1.5 -1.2 -1 -0.4 0.3 1.1 1.8 2 2.6 3.5 6.9 10.5 9.1 9 10.3 11.4 12.6 14.9 18.7 27.5 30 20.5 15.5 13.7 13.1 13.2 13.2 12.1 9.1 14.9 16.9 17.4 17 17 17.8 15.8 14.8 14.3 13.9 13.3 12.6 12.4 12.3
126.1 123.4 116.8 111 108.8 104.8 102 99.1 96.6 96 93.4 96.3 94.1 99.4 100.7 105.4 121.5 133.9 139.9 139.7 140.5 139.8 136.4 133.2 131.8 128.9 128.2 128 130.4 130.9 128.5 125.8 122.4 117 111.1 105.4 98.7 91.8 88.1 86.2 84.7 82.8 88.2 92.1 93.2 93.9 94.6 94.2 93.8 93.4 92.4 91.1 88.2 81.9 67.7 53.2 38.1 23.3 20.6 20.7 27.7 42.4 55.3 63.8 69.8 77.4 81.8 83.4 82.4 80.9 80.6 81.2 80.9 78.9 77.1 78.8 79.8 79.5 78.7 78.3 79.7 82.5 83.8 84.1 81.7 80 78.1 75.1 72.2 68.9 66.9 62.1 58.3 57.3 53.4 47.5 42.4 38.7 37.3 35 33.7 32.3 31.4 30.4 33.2 41.7 46.3 45.2 42.4 40 37.7 41.7 47.1 54.8 57.2 57.8 58 58.2 59.1 59.5 58.9 59.4 59.9 60.5 64.1 63.2 58.6 49.8 34.1 22.5 22.6 20.6 17.6 15.6 14 12.7 11 9.4 5.5 3.9 1.4 -1.5 -1.5 -1.5 -1.5 -1.5 -1.5 -1.5 -1.5 -1.5 -1.5 -1.5 -1.5 -1.5 -1.5 -1 -0.8 -0.5 -0.3 0 0.4 1.2 2 2.9 3.7 4.1 5.7 9.7 9.3 9.7 9.9 11.6 12.1 13.4 15.2 19.1 26.9 31.9 21.8 17.3 15.7 14.6 14.7 14.6 12.9 12.8 9.4 17.9 16.7 17 17 17.2 17.2 17.7 14.1 13.9 13 11.8 9.7 9.2
136.7 128.7 124.3 121 118.6 113 107.9 104.9 102.1 99.3 97.6 94.6 90.7 92 97.3 106.2 122.9 137 141.8 141.8 141.2 139 135.8 131.5 130.3 128.4 126.4 125.5 128.5 129.5 128.7 123.3 120.9 115.9 110.2 104.4 98.5 92 87.2 84 81.6 80.5 86.8 91.3 92.4 92.3 92.1 91.6 91.3 89.6 89.7 88.1 84.8 76.5 65.7 55.7 44.3 32.7 19.3 20.2 28.9 43.1 57.9 64.7 70.9 76.8 81.7 81.5 80.1 77.7 75.7 76.3 75.7 74.8 72.1 73.8 75.7 76.2 76.3 74.5 74.8 77.2 77.9 79.2 78.3 77.9 76.7 72.7 69.2 66.9 66.8 63 56 50.2 50.7 43.6 40.2 37.9 36.7 36.7 36.3 34.2 30.4 29.7 33 41.5 43.1 41 37 36.4 41 45.8 51.1 54.6 55 55.5 55 54.2 55.5 55.5 54.7 56.5 56.9 59.9 62.7 61.1 55.6 47.6 36.6 21.2 17.8 16.3 14.8 12.7 12.1 8.4 5.9 4.1 2.7 0.9 -1.5 -1.5 -1.5 -1.5 -1.5 -1.5 -1.5 -1.5 -1.5 -1.5 -1.5 -1.5 -1.5 -1.5 -0.7 -0.2 0.2 0.4 0.6 0.9 1.1 2 2.9 3.7 4.7 5.6 10.2 9.3 8.5 9 10.5 11.8 12.6 14.2 15.9 19.7 27.1 33.6 23.4 18.9 17.2 16.3 15.4 14.9 13.5 13.1 10.6 15.2 16 17.8 17 17.2 17.2 14.7 14 13.6 12.1 10.8 9.4 7.8
143.2 134.5 130.1 128.1 125.6 120.7 115.6 112.6 110.5 108.8 104.5 99.5 93.4 87.5 93 109.2 126.3 140.2 147 146.9 140.4 136.8 134 130.5 128.4 126.4 123.9 123.5 126.1 127.5 126.1 120.2 117.5 113.9 108.6 103.6 97.5 90.3 85.2 82.6 79.1 78.2 85.6 88.9 90 90 89.8 87.7 87.6 87.1 86.8 85.5 80.8 75 68 60.9 55.5 41.3 23.4 19.8 23 33.4 49.9 58.1 68.1 75 79.1 78.7 76.1 72.5 66.7 69.8 69.7 66.8 64.2 65.7 69.1 72.3 71.5 71.3 70.1 72.3 72.2 74.7 75 73.5 73.2 71.5 67.5 63.2 61.6 60.1 55.6 47.9 44.8 43.1 41.9 42.2 42.9 41.3 40.3 37.7 30.2 27.8 33.8 38.2 38.9 36.4 33.3 38.9 43.4 48.5 51.5 53.5 53.6 52.9 51 51.2 52.2 50.9 51.7 54.5 55.6 58.8 60 57.5 51 43.5 29.7 18.6 14.1 12.8 12.3 8.1 4.7 3.4 2.5 1.1 0.2 -1.5 -1.5 -1.5 -1.5 -1.5 -1.5 -1.5 -1.5 -1.5 -1.5 -1.5 -1.5 -1.5 -1.5 -0.8 -0.3 0.3 0.9 1.3 1.6 1.8 2.1 2.8 3.7 4.6 5.5 8.8 9.3 8.5 8.5 8.5 10.9 12 13.6 15.3 16.7 20.5 28.5 35.2 25.8 20.7 20.5 19.2 18.4 16.4 14.7 13.1 12.5 9.1 16.3 13.6 13.1 15.2 17.3 13.3 14 12.8 12 10.3 9.7 9.9
148.7 141.8 137.2 134.7 132.6 128.9 125.4 121.6 118.1 117.4 110 100 92.8 84.5 93.6 112.9 130.4 145.4 149.6 145.9 139.6 134.8 132 129.4 129 124.6 121.4 121.8 122.9 125.6 123.4 117.5 113.3 110.5 107 102.8 95.3 85.8 83.6 81.6 75.8 74.7 79.3 83 86.4 86.3 86.1 86.5 85.8 81.4 82.8 81.9 78.6 74.7 69.7 65.8 61.8 45.9 33.5 21.1 20 26 36 51.2 64.4 74.5 76.3 75.9 71.3 64.4 58.7 63.6 63 61.2 59.6 60.7 64.9 67.7 67.4 65.4 64.9 67 68.7 69.5 70.1 70.4 71.3 69.3 63.5 59.3 56.8 57 54.2 51 46.3 46.9 47.4 46.8 46.6 44.3 42.9 37 29.8 26.7 29.7 33.4 34.1 31.8 33.1 38.8 43.4 47 50.1 52.3 52 50.3 47.1 47.9 48.6 45.3 49.9 52.3 55.3 57.4 57.2 52 44.2 34.5 21.1 14.2 12.4 9.2 5.4 2.8 -1.5 -1.5 -1.5 -1.5 -1.5 -1.5 -1.5 -1.5 -1.5 -1.5 -1.5 -1.5 -1.5 -1.5 -1.5 -1.5 -1.5 -1.5 -0.8 -0.3 0.2 0.8 1.3 1.9 2.5 2.7 3 3.5 4.4 5.4 8.3 9.3 8.7 8.5 10.5 10.4 12.4 13.8 14.9 16.2 17.7 22.6 32.7 36.3 27.8 24.1 25 23.5 20.7 18.2 15.2 13.6 12.1 11.3 11.1 15.3 14.2 11.7 12.6 13.4 13.4 11.3 10.8 10 9.4 8.4
154.2 147.6 144.9 143.5 140.4 136.4 130.2 127.2 125.8 120.5 113.4 98.5 89.1 84.6 99.2 116.5 132.9 148.9 150.6 146.1 139.7 134 130.2 127.8 128.7 125.8 122.5 116.5 119.2 121.9 120.3 114.3 110.7 107.9 105.4 101.8 92.9 87.6 84.5 81.7 73.6 71.2 72.9 76 79.4 81 82.5 83.1 83.3 80.8 76.4 75.3 76.1 73.8 70.2 67.5 65.5 54.7 48.7 31.7 22.4 20.8 28.6 40.9 58.3 72.3 73.3 70.7 64.8 55.9 53.8 58.2 57.4 53.9 53.3 57 62.1 63.9 65.4 62.3 60.4 62.9 64.5 64.8 65.6 66.2 67.1 65.4 60.4 55.5 53.8 54.9 54 49.6 49.9 50.3 49.3 48.1 46.9 45.1 41.2 39.2 33 25.2 27.1 28.7 29.4 29.3 33.1 38 41.6 45.7 49.3 50.3 48.9 46.8 43.3 43.1 33.8 44.3 52.2 55.4 57.5 56.5 51.2 43.7 32.9 23.3 14.8 10.2 5.1 2.7 -1.5 -1.5 -1.5 -1.5 -1.5 -1.5 -1.5 -1.5 -1.5 -1.5 -1.5 -1.5 -1.5 -1.5 -1.5 -1.5 -1.5 -1.5 -1.5 -0.9 -0.4 0.1 0.7 1.2 1.8 2.3 2.9 3.5 3.9 4.2 5.1 8.9 10.7 9.3 8.5 9.3 12.4 13.5 15.5 17.6 19 19.4 20.1 26.3 37.2 36.6 30.3 27.6 30.5 27.4 22.5 19.8 16 13.6 11.5 9.7 11.2 9 10.9 12.1 11.9 14 12.3 9.7 9.3 9 7.8 7.9
158.5 151.8 150.1 149.6 147.1 141.7 134.3 128.8 124.3 118.3 110.3 98.9 91.4 85.2 99.8 117 131.7 148.7 155 148.6 139.6 133.6 128.4 125.9 125.2 125.1 124.6 118 114.3 118.2 117.2 112.7 107.5 106.1 103.9 99.3 93.9 89.6 87.4 83.1 75.4 70.5 68.6 69 71 73.1 75.1 76.2 76.5 74.9 68.7 74 74.4 69.4 69 67.8 67.3 61.9 55.2 41.4 27.7 20.3 21.1 32.2 53.4 67.8 67.3 62.7 53.4 44 52.8 54.6 52.6 49.3 51.8 55.9 60.1 61.7 62.3 60.6 57.4 59.3 60.8 62 62.4 62.2 62.2 60.7 57.5 53 51.8 54.8 54.6 48.6 50.3 50 49.6 48.1 45.9 45.7 45.6 46.7 39.3 31.1 24 25.2 26.5 28.2 33 37.6 42.2 46.6 49.5 47.3 44 41.4 37.8 37.3 44.7 49.9 54.5 57.1 56.9 53.1 45 31.1 19.3 11.7 5.3 -1.5 -1.5 -1.5 -1.5 -1.5 -1.5 -1.5 -1.5 -1.5 -1.5 -1.5 -1.5 -1.5 -1.5 -1.5 -1.5 -1.5 -1.5 -1.5 -1.5 -1.5 -1.5 -0.4 0.1 0.6 1.1 1.7 2.2 2.8 3.3 3.9 4.5 5.1 6.1 9.9 9.3 8.5 8.5 13 15.4 16.8 19.5 22.4 23.5 22.4 22.5 29.7 39.3 38.2 32.8 31.5 34.2 31 25.2 20.1 16.3 13.7 11.5 9.7 9.7 9 9.7 9.9 9.1 9.1 9.9 7.7 8.9 8.6 8.1 7.4
165.8 156.8 154.2 156 153.1 144.2 136.4 130 124.2 116.8 108.7 102.4 94.2 82 97.4 111.1 124.7 141.1 155.9 151 142.7 134 126.4 122.2 121.6 121.4 119.6 115.1 110.6 113 114 111.5 106.9 104.3 102.2 99.1 95.9 93.5 91.7 87.2 79.7 73.2 68.7 66.7 65.8 65.8 67.5 70 69.9 70.3 62.4 68.2 72.3 70.1 67.2 67 65.9 61.5 51.4 38.3 31.5 21.9 19.5 23.7 45.4 60.2 58.2 54.4 42 41.9 49.2 49.8 46.7 48.4 52.9 56.2 58.6 59 60 57.6 53.5 55.4 58.4 58.9 59.8 58.6 58.6 56.7 52.9 49.5 49.8 52.9 52.1 46.7 48.4 48.3 47.6 45.8 46.4 48.5 51.3 50.5 44.8 39.7 33 26.7 23.8 26.1 31.7 38.2 45.6 48.9 46.1 42.6 38.5 33 39.2 45.9 50.5 53.3 56.8 56.3 53.1 46.9 31.6 16.8 5.6 -1.5 -1.5 -1.5 -1.5 -1.5 -1.5 -1.5 -1.5 -1.5 -1.5 -1.5 -1.5 -1.5 -1.5 -1.5 -1.5 -1.5 -1.5 -1.5 -1.5 -1.5 -1.5 -1.5 -1.5 -1.5 0.6 1.1 1.6 2.1 2.7 3.2 3.8 4.3 4.9 5.6 9 9.4 8.8 8.5 11.3 14.4 18.3 26.5 28.1 27.6 25.8 23.2 24.5 32.2 40.4 40.1 35.9 34.1 35.8 32.6 27.3 20.6 16.7 14.5 11.9 10.1 8.9 9.5 10.1 9.7 10.3 10.7 10.1 8.8 9.4 9.3 8.9 8
170.8 166 162.3 161.6 155.3 147.1 138.4 131.1 123.8 117.3 111.1 103.1 94.9 82.5 89.2 100.5 111.4 128.1 147.5 152.8 147.1 137.3 128.1 121.5 117.2 115.4 114 110.2 105.3 104.7 109.7 109.6 105.9 102.4 100.2 98.2 97.1 96.3 94.3 90 83 81.7 75.4 70.2 68 63.3 66.5 67 60.7 62.2 57.6 65.7 69.7 67.9 66.2 66.6 63.6 58.4 44 34.8 29.4 22.6 17.1 19.6 37.1 48.1 49.1 43.8 35.7 37.5 42.5 43.8 41.2 46.5 50.2 53.2 53.6 54.6 52.7 53.9 49.4 52.2 53.5 53.3 55.1 54 54.8 52.9 49.8 46.1 47.4 48.5 48.6 44.8 46.5 46.6 45.6 45.4 47.8 50.7 51.2 49.3 46 42.8 37.5 30.9 25.4 24.4 31.8 41.3 45.4 45.6 41.8 37.2 29.4 39.8 45.4 49.8 53.4 55.8 55.6 52.9 47.3 32.1 14.9 3.4 -1.5 -1.5 -1.5 -1.5 -1.5 -1.5 -1.5 -1.5 -1.5 -1.5 -1.5 -1.5 -1.5 -1.5 -1.5 -1.5 -1.5 -1.5 -1.5 -1.5 -1.5 -1.5 -1.5 -1.5 -1.5 -1.5 -0.9 1.5 2.1 2.6 3.1 3.6 4.2 4.8 5.3 9.5 9.4 8.5 8.5 8.5 12.3 16.1 26.2 36.1 35.2 31.7 28.1 24.6 26.9 33.8 41 41.1 37.8 36.1 36 33.6 27.5 21.2 16.9 14.6 12.2 10.3 9.3 10 9.9 10.3 15.7 20.2 15.7 10.8 13.2 12.7 12.8 7.8
172.7 169.7 166.9 163.7 159.4 151.4 142.7 133.6 124.7 119 114.3 106.9 99.1 87.4 78.8 87.7 98.9 112.8 131.5 146 147 141.7 130.1 122.2 113.9 109.4 110.6 105.9 101.9 98.1 105 107.5 105.4 101.3 98.2 97.7 98.1 97.1 95.3 91.8 87.6 84 80.3 75 70.7 59.9 67.5 65.4 54.6 54.1 55.1 64.7 67.2 66.1 64.6 64.7 62 54.4 42.1 33.1 28.8 22.2 16.4 17.2 32.9 37.5 37.9 35.1 29.8 32.4 35.8 36.5 35.7 41.9 43.7 47.1 47.9 48.1 48.8 48 43.9 45.6 48.5 51.1 51.4 49.3 51.2 51.2 47.7 43.1 44.8 46.3 46.6 44.3 44.6 44.1 42.9 45.1 48 48.7 49.6 46.5 44.7 41.6 36.9 31.6 26.3 22 30.3 38.5 41.3 40.1 35.6 29.6 37.5 42.8 46.8 51.4 53.9 55.3 53.4 47.6 32.4 14.4 -1.5 -1.5 -1.5 -1.5 -1.5 -1.5 -1.5 -1.5 -1.5 -1.5 -1.5 -1.5 -1.5 -1.5 -1.5 -1.5 -1.5 -1.5 -1.5 -1.5 -1.5 -1.2 -0.9 -0.6 -0.4 -1.5 -1.5 -1.5 -1.5 -0.3 2.2 3.1 3.5 4.1 4.6 5.2 7.2 9.6 9.3 8.5 8.5 11.4 14.6 18 29.3 39.1 38.2 32.5 28 27.7 29.4 35.6 40.9 41.9 39.6 37.2 36.3 33.3 27.1 20.8 16.9 14.2 12.5 10.7 9.6 9.8 9.8 10.6 13.3 16.4 14.6 10.1 10.4 9.4 12.7 8.9
175.7 172.1 170 167.1 162.7 157.1 147.4 138 128.2 119.7 117.1 112 104.1 94.5 85.4 75.6 86.2 99.5 115.3 132.6 143.5 143.3 134.1 124.6 115.2 107 104.5 104.1 108.5 101 95.8 105.4 105.5 98.1 95.7 96.9 97.5 96.2 94.4 90.6 86.3 82.8 78.9 73.1 67.6 58.3 67.9 61.2 52.2 49.4 54.9 63.8 65 63.3 62.2 63.6 62.4 54.1 41.6 32.7 27.2 20.7 14.9 15.6 24.9 25.4 26.4 26.8 25.9 26.7 30.2 29 30.5 35.7 39.7 42.8 43.4 43.5 45 43.2 39 40 45.8 48.9 48 46.3 47.9 47.9 46.2 42.7 44.2 46 45.8 45.2 42.7 42.4 40.7 42.3 44.2 45 45.1 43.7 41.7 38.7 35.1 31 28.1 22.6 26.5 33.7 36.7 34.2 29.3 34.2 39.8 44.9 48.9 51.6 53.2 53.7 48.8 34.2 14.6 -1.5 -1.5 -1.5 -1.5 -1.5 -1.5 -1.5 -1.5 -1.5 -1.5 -1.5 -1.5 -1.5 -1.5 -1.5 -1.5 -1.5 -1.5 -1.5 -1.5 -1.5 -1 -0.6 -0.3 -0.1 0.2 -0.2 -1.5 -1.5 -1.5 -1.5 0.4 2.9 4.1 4.5 5.1 5.6 10.2 8.5 8.5 9 10.8 14.4 21 23.3 31 38.9 38.8 33.7 30.5 30.8 32.5 36.2 41.1 42.2 40.2 38.3 37 33.1 26.5 20.3 16.4 13.8 12.1 10.6 9.7 9.6 9.8 10 11.6 15.2 13.5 13.1 11.5 12.1 9 10.6
177.4 175.1 172.8 169.9 166.3 161.8 153.8 143.4 132.7 121.8 118.3 116.5 109.1 100.6 92 84.4 72.2 86.4 102.1 116.7 133.6 141.9 136.8 128 120.6 110 101.7 101.6 104.8 100.8 88.5 103 100.2 94.2 93.8 96.3 96.7 94.8 92.6 89 83.4 76.7 70.9 67.5 63.3 57 67.2 55.7 48.8 48.1 54.2 62.1 62.7 60.6 60.6 61.7 61.2 56.9 47 35.6 28.6 21.6 14.1 14.9 16.9 17.8 18.3 19.6 20.5 21.2 24.7 23.4 26 31.1 35.8 39.9 39.9 40.2 40.6 38.5 33.9 37.5 41.1 44.4 44.4 43 44.4 44.6 44 40.8 41.7 43.1 43.3 43 39.6 39.4 38.3 38.8 39.8 40.7 41.3 40.5 40 37.6 36.1 33.7 29.6 24 22.4 30.7 31.8 26.3 31.5 37.4 43.1 47 49.5 51.2 50.9 47.9 34.9 14.4 -1.5 -1.5 -1.5 -1.5 -1.5 -1.5 -1.5 -1.5 -1.5 -1.5 -1.5 -1.5 -1.5 -1.5 -1.5 -1.5 -1.5 -1.5 -1.5 -1.5 -1.5 -0.8 -0.5 -0.1 0.2 0.5 0.8 1.1 -0.4 -1.5 -1.5 -1.5 -1.4 1.1 3.5 5 5.5 10 8.7 10.1 11.3 13.2 14.4 17.6 23.7 30 33.6 39.3 38.5 35.3 33.2 34.2 34.7 37.3 41.1 42.8 41.8 39.9 36.9 31.9 25.5 19.4 16 13.5 12 11 10.1 9.8 9.9 10 10.5 13.1 15.9 13.5 13.2 13.1 13.1 9.9
178.4 176.4 174.5 172.3 169.4 165.2 160.3 149.9 137.7 127.5 119.2 118.7 113.2 104.5 97.5 92.6 83.7 72.9 88.3 105.7 122.2 136 135.7 128.4 121.6 117.4 106.6 99 98.5 96.8 84.7 93.2 94.5 90.5 91.5 95.2 95.3 93.8 91 87.3 81.9 76.4 70.3 62.7 56.2 54.9 64.7 52.1 46.1 45.2 53.1 59.2 59.7 57.8 57.9 59.9 60.9 59.4 52.1 39.7 30.5 23.2 13.3 12.6 13.3 13.4 13.2 14.5 16.4 16.4 17 19 23.6 28.2 32.8 36.3 34.3 34.5 34.9 33.4 31.4 33.8 37.7 40.9 40.4 39.4 40.7 42.6 41.8 39.8 37.7 39.6 40.3 40 36.3 35.8 35.1 35.3 35.4 36.2 37.6 38.1 38.3 37.7 36.1 33.9 29.8 24.5 21.9 25.2 25.3 28.6 32.2 36.9 42.2 47 48.6 49.1 46.8 38 14.5 -1.5 -1.5 -1.5 -1.5 -1.5 -1.5 -1.5 -1.5 -1.5 -1.5 -1.5 -1.5 -1.5 -1.5 -1.5 -1.5 -1.5 -1.5 -1.5 -1.5 -1.5 -0.5 -0.3 0 0.4 0.7 1.1 1.4 1.7 2.1 -0.6 -1.5 -1.5 -1.5 -0.8 1.7 4.2 10.6 9.3 11.8 13.6 16.8 19.8 20.9 23.3 26.7 32.8 36.7 39.4 39 36.1 34.4 36.6 36.9 37.5 40.7 43.1 43.1 41.4 36.5 30.1 24.4 18.7 16.1 14.1 12.7 11.8 11 10.2 10.3 10.3 10.3 11 14 15.3 13.6 13.2 13.3 10.8
179.1 176.3 173.8 172 170.6 168 163.1 156.6 143.1 131.6 120.4 120.8 116.7 107.3 98.5 95.6 90.9 75.7 71.6 92.1 112.2 126.3 129.6 119.3 118.4 117.8 112.9 102.5 95.9 90.2 84.6 83.2 86.2 87.4 88.3 93.1 94.4 93.6 91.3 87.1 83.1 83.6 75.6 64.2 54.6 52.3 58.7 49.4 43.3 43.7 51.4 57 56.9 54.7 56.5 59 60.8 60.4 56.8 49.6 35.1 24.3 17.9 11 12.5 11.5 11.3 11.7 12.2 12.7 13.5 16.7 22.2 26.2 30.4 31.1 29.8 29.7 30.7 29 29.1 33.4 36.7 38.1 37.6 36.4 38.1 40 40.1 37.7 35.6 36.5 37.4 36.7 33 32.5 32 31.8 32.4 33.9 35.7 36.8 36.8 36 34.4 31.8 28.9 24.8 21.4 22.3 26.4 30.3 33.9 38.1 44.4 46.8 47.6 46.6 40.7 16.8 -1.5 -1.5 -1.5 -1.5 -1.5 -1.5 -1.5 -1.5 -1.5 -1.5 -1.5 -1.5 -1.5 -1.5 -1.5 -1.5 -1.5 -1.5 -1.5 -1.5 -1.5 -1.5 0 0.4 0.5 0.9 1.2 1.6 1.9 2.3 2.5 2.3 -0.7 -1.5 -1.5 -1.5 2.6 11 9.3 18.7 23 24.8 26.3 26.8 28.2 28.9 30.7 36 37 39.2 38.3 36.9 36.5 37.8 38.2 38.3 40.5 42.9 43.7 41.3 35.9 29.5 24.8 19.9 16.9 14.6 13.6 13.4 12.8 12.2 10.6 10.6 10.7 10.8 12.1 13.6 15.7 13.3 14.4 14
178 175 171.9 170.1 169.1 168.3 163.6 158.6 148.6 135.8 124.1 120.7 118.8 110 100.3 96.3 90.5 80.7 65 78.3 99.7 112.7 119.9 119.6 118.1 119.5 115.1 106.9 100.4 96.6 94.1 85 81.4 82.5 84.3 89.1 93.8 93.5 90.6 87.7 85.9 86.9 78.1 66.2 56.2 48.5 50.8 44.7 41 41.7 49.2 53.5 52.4 52 54.4 57.1 59 59.5 57.9 55.3 44.4 31.3 21.6 17.7 11.3 12.1 11.6 11.3 11.1 11 10.9 13 18.2 23.1 24.9 26.3 26.2 26.1 26.1 26.1 28.2 31.4 34.1 35.1 34.6 33.7 36 37.5 37.7 35.4 33.5 34 35.3 34.3 31.6 29.7 29.7 31.6 33.2 34.6 35.8 36.4 35.7 33.9 32.1 29.4 26.7 23.1 20.6 22.7 27.4 32.5 36.3 40.1 44.6 47.6 45.8 42.2 22.8 -1.5 -1.5 -1.5 -1.5 -1.5 -1.5 -1.5 -1.5 -1.5 -1.5 -1.5 -1.5 -1.5 -1.5 -1.5 -1.5 -1.5 -1.5 -1.5 -1.5 -1.5 -1.5 -1.5 0.2 1 1.1 1.3 1.7 2.1 2.4 2.8 3.1 3.5 2.1 -0.9 -1.5 -1.5 10.7 9.8 19.4 28.4 34.2 35.9 33.2 33.9 35.3 35.6 35.7 37.4 37.6 38.7 39 37.9 36.9 37.6 38.7 38.4 40.4 42.4 43.4 40.6 35.2 29.3 24.2 19.5 16.7 14.6 14.3 15.2 14.5 13.9 13.3 11.8 11.9 11.2 11.5 12.7 15.2 18.5 20.6 20.1
174.8 173 170.1 167.6 166.2 167.3 164.1 158.7 150.7 140 129 121.2 121.7 112.5 102.4 98 90.5 80.4 68.1 63.5 81.2 93.7 104.8 112.2 115.9 117 115.7 109.1 104.9 102.6 101.8 97.6 82.7 78.5 80.6 84.2 90.7 92.2 90.1 88.2 90.4 88.4 77.6 67.5 59.2 48.1 47.2 40.6 38.6 39.6 46.7 50.3 48.8 48.1 51.9 54.6 56.3 56.2 56.1 55.9 49 42.3 35.1 30.4 18.7 18.4 16.1 11.2 10.7 10.5 10.8 10.9 11.5 18.9 20.7 23.4 22.6 22.3 21.6 23 27 29.1 31.4 32.6 31.5 31.7 33.5 33.6 34.9 33.2 31.2 31.3 32.7 33 31 28.5 31.4 33.3 34.8 36.1 36.7 36 35 32.7 31.3 29.2 25.1 21.6 20.5 23.6 29.1 34.7 37.7 40 44.8 47.1 43.4 31.2 4.7 -1.5 -1.5 -1.5 -1.5 -1.5 -1.5 -1.5 -1.5 -1.5 -1.5 -1.5 -1.5 -1.5 -1.5 -1.5 -1.5 -1.5 -1.5 -1.5 -1.5 -1.5 -1.5 -1.5 0.3 1.5 1.7 1.9 2.2 2.6 2.9 3.3 3.6 4 4.5 2 -1.5 10.2 10.2 20.4 26.5 32.8 40 39.1 36.9 39.4 40 39.3 38 37.8 37.1 38.8 38.6 38 36.8 37.4 38.7 38.6 39.6 41.3 43.2 39.1 33.8 28.2 23 18.4 15.8 14 15.8 17.7 17.6 16.2 15.2 13.4 12.8 12.1 12.1 12.9 13.9 17.2 21.4 24.4
170 170.7 168.2 164.4 162.7 162.6 163.3 156.6 149.7 141.2 133.5 122.5 123.6 115.1 104.7 99.6 91.6 81.5 71.9 62.9 62.2 69.5 80.8 95.2 109.1 113.5 112.9 107.9 104 102.6 102.2 99.5 89.4 76 77.6 81.4 86.2 89.7 89.2 88.9 91.3 90.4 77.2 69.8 63 53.6 45.3 40.2 37.3 36.1 42.7 47.4 44.7 44.8 48.7 51.2 52.2 51 51.6 52.4 49.9 45.2 42.8 41 35 17.6 18.2 11.8 10.5 10.8 10.8 10.4 10.4 13.2 18.6 20.1 19.3 18.6 21.4 24.4 26.4 28.6 29.8 29.8 29.4 30.5 31.9 32.3 32.5 31.5 29.6 29.2 30.3 30.8 29.3 28.4 30.1 32.8 34.3 35.6 35.8 35.7 35 34.1 32.8 28.5 24.2 21 21 25.2 31.3 36.6 38.5 40.1 46.4 43.6 35.5 13.3 -1.5 -1.5 -1.5 -1.5 -1.5 -1.5 -1.5 -1.5 -1.5 -1.5 -1.5 -1.5 -1.5 -1.5 -1.5 -1.5 -1.5 -1.5 -1.5 -1.5 -1.5 -1.5 -1.5 -1.4 0.4 2.1 2.3 2.5 2.7 3 3.4 3.8 4.2 4.6 5 4.8 10.3 11.5 26.1 22.9 30.5 35 39.9 39.7 38.8 41 42.1 40.6 38.4 37.2 37.7 39.6 39.4 37.8 36.5 36.8 38.1 38.5 38.8 40.8 42.2 38.1 32.4 25.8 20.7 17.9 16.2 14.8 17.7 20.4 20.8 19.2 17.2 15.4 13.9 13.4 13.6 13.9 14.5 16.6 20.2 24.8
160.8 167.4 166.8 162.6 158.9 158.2 157.1 154.2 149.8 142.4 135.5 127.1 122.7 117 107.4 99.8 93 83.6 75.4 64.5 58 57.3 63 77.1 91.7 108.5 108.7 104.4 102.2 99.2 99 98.2 92.2 75.8 75.6 79.5 83.9 88.3 88.7 88.8 91.4 89.7 79.4 71.5 64.9 58.4 52.2 40.7 36.7 34.4 40.1 43.9 41.4 40.8 44.9 46.5 47.1 46.7 45.8 45 44.7 42.5 40.8 38 33 28 17.7 12 11.5 10.7 10.1 9.8 10.1 10.5 15.5 17.4 16.7 16.9 22.3 27.3 28.9 29.9 30.3 29.8 28.4 28.8 30.2 31 31 30.6 28.8 28.1 30.1 29.4 27.4 27.3 29.2 31.9 33.2 34.4 35 35.3 36.1 35.7 32.5 28.2 23.8 20.9 21.3 26.4 33.2 37.9 40.1 39.5 45.9 39.3 20 -1.5 -1.5 -1.5 -1.5 -1.5 -1.5 -1.5 -1.5 -1.5 -1.5 -1.5 -1.5 -1.5 -1.5 -1.5 -1.5 -1.5 -1.5 -1.5 -1.5 -1.5 -1.5 -1.5 -1.5 -1.3 0.6 2.4 3 3.1 3.2 3.5 3.9 4.3 4.7 5 5.5 10.1 11.9 25.7 30.5 34.2 28.1 35 38.3 38.4 38.4 41.9 41.9 40.4 39.1 36.7 37.6 39.4 38.8 37.4 36.2 36.2 37.6 38 38.3 39.6 40.8 37.2 32.9 27.5 24.1 19.4 16.8 16.4 19 21.4 23.3 21.7 19.9 18 16.3 15.4 15.5 15.8 15.9 17.3 19.4 24.1
153.2 161.4 166.3 162 157.1 154.1 152.8 151.7 149.2 142.5 135.7 129.3 121.3 117.9 109 99.6 93.3 86.3 78.4 66.8 58.8 56.1 56.1 63 79 93.9 106.7 103.2 101 96.9 95 93.8 92.8 78.7 70.8 76.7 82.8 86.2 87.4 89.5 92.9 88.9 79.6 71.6 65 58.2 51 42 35.5 32.8 37.1 39.4 37.4 38.4 41.7 42.6 43.3 41.9 40.9 40.3 39.5 38.4 36.1 33 29.5 24.3 16.7 12.7 11.1 10.7 10.3 9.5 9.7 10.3 11 15.5 14.6 19.5 25.5 29.2 30.6 30.8 30.4 29.5 27.3 28.5 30.2 30.7 30.1 29.7 28.3 25.5 28.4 28.4 26.6 27.2 29.2 31.6 32.6 33.3 34.1 34.7 34.9 34.8 32.9 31.2 27.4 21.4 20.1 23.8 32.2 37.8 39.4 39.4 44 32.5 -1.5 -1.5 -1.5 -1.5 -1.5 -1.5 -1.5 -1.5 -1.5 -1.5 -1.5 -1.5 -1.5 -1.5 -1.5 -1.5 -1.5 -1.5 -1.5 -1.5 -1.5 -1.5 -1.5 -1.5 -1.5 -1.1 0.7 2.5 3.6 3.7 3.8 4.1 4.4 4.7 5.1 5.5 9.5 14 24.8 32.2 33.5 34.5 25.2 34.1 36.8 37 38.7 42.6 42.6 40.2 38.8 36.7 37 38.6 38.6 37.5 36.3 35.8 37.5 38.3 38 38.9 39.5 37 33.3 31.3 26.9 22 19.7 17.9 20.6 23.6 25.5 23.8 21.9 20.1 18.6 17.5 17.4 17.7 17.5 18 19.7 22.5
145.1 153.3 163.5 160.6 155.2 150.1 146.6 145.3 143.7 139.5 133.3 129 122 116.7 107.6 99.7 93.6 88.4 81.8 74.1 65.2 60.5 59 57.3 66.6 84.5 103.2 102.6 99.7 94.3 91.4 89.6 87.5 81.6 65.6 68.5 77.5 82.7 87.1 89.3 91.3 87.4 78.4 70.7 62.6 56.1 49.2 40.1 34.4 32.2 33.7 35.4 33.8 36.5 39.4 40 40 38.9 37.1 35.6 34.6 34.1 31.5 27.9 26.1 20.7 17.1 13.3 11 10.8 10.3 10 9.8 10.3 10.2 11.4 14.9 20.7 26 28.6 29.7 29.9 29.1 28.1 26 28.8 30.3 30.9 31 28.7 26.9 25.2 26.5 26.3 24.2 25.5 28.9 30.3 31.1 31.7 32.4 33.7 34.4 34.7 33.9 32.1 28.8 22 18.4 25.1 32.2 36.3 37.9 39.3 40.4 16.6 -1.5 -1.5 -1.5 -1.5 -1.5 -1.5 -1.5 -1.5 -1.5 -1.5 -1.5 -1.5 -1.5 -1.5 -1.5 -1.5 -1.5 -1.5 -1.5 -1.5 -1.5 -1.5 -1.5 -1.5 -1.5 -1.5 0.8 2.6 4.2 4.3 4.4 4.6 4.9 5.2 6 9.5 17.2 21.9 28.1 34.7 34.2 32.6 23.8 31.7 34.7 34.9 38 41.8 42.3 40.1 37.1 36.6 36.1 37.1 37.7 36.4 35.1 35.6 37.3 38.4 37.5 38.3 38.1 34.8 32.9 35 30.3 26.5 24.1 20.7 22.2 25 27.1 25.7 23.8 22.1 20.6 19.6 19.1 19.4 19.1 18.7 19.2 20.7
136.4 141.4 149.7 157.1 152.9 146.5 140.8 137.8 136.1 133.9 129.5 124.6 120.6 111.7 103 95.7 92.6 87.9 84.2 80.6 74.8 70.8 68.7 66.7 62.8 77.1 100.1 101.4 98.2 93.4 90.3 87.4 82.7 77.1 67.6 60.7 69.2 79 85.6 88.2 87.1 82.7 74.6 68.7 59.7 53.1 47 39.1 33.7 31 31 30.9 31.5 34.8 37.2 37.8 36.7 35.6 33.8 31.5 30.6 29.3 28.2 26 23.4 20.9 17.7 15.5 10.9 10.5 10.2 9.7 9.5 10 10.2 12.9 18.3 21.7 25.1 26.7 28.1 28.1 27.5 26.2 24.4 26.6 29.4 30.7 30.7 29.8 27.3 23.7 25.1 24.7 21.8 25.8 26.7 28.6 30.6 32 33 33 33.9 33.9 32.8 32.2 29.6 22.2 17.9 24.3 30.7 34 36.2 38.3 33 5.2 -1.5 -1.5 -1.5 -1.5 -1.5 -1.5 -1.5 -1.5 -1.5 -1.5 -1.5 -1.5 -1.5 -1.5 -1.5 -1.5 -1.5 -1.5 -1.5 -1.5 -1.5 -1.5 -1.5 -1.5 -1.5 -1.5 0.9 2.8 4.6 5 5.1 5.2 5.4 8.2 9.5 17.1 20.2 24.4 29.3 32.8 31.9 30.5 23.4 29 34.2 36 38.3 41 40.9 39.1 36.8 35.3 34.7 35.9 36.5 35.3 34.7 35.9 37.8 38 36.4 37.8 37.3 35.1 36.7 37.4 33.5 29.8 26.8 22.7 22.6 25.8 28.8 27.7 25.6 24.1 22.7 21.4 20.3 20.1 19.7 19.2 19 19
129.2 132.9 136.7 143.3 145.9 141.3 134.9 129.8 127 124.9 123 119.1 115.1 110.7 102.7 96.6 92.2 89 88.7 85.7 78.6 74.7 69.5 65.1 61.1 77.9 97.6 99.9 96.9 93.7 91.5 87.7 82.4 75.3 69.5 67 59.6 76 83.9 87.2 83 77.1 70.8 65.4 57.5 50.7 45.8 38 33.4 30.7 28.9 28.4 29.4 32.7 35.3 35 33.6 31.9 29.3 27.7 26.8 26.3 25.5 24.5 23.8 22.1 19 15.8 11.6 10 9.7 9.4 9 9.4 9.5 12.2 18.5 21.8 23.9 25.5 26.4 26.4 25.3 24 23.8 27.9 29.8 30.7 30 28.3 25.7 22.3 21.4 23.9 26.5 28.5 30 31.7 32.9 33.1 33.6 33 32.8 32.1 31.7 31.8 29.1 23.5 18.5 20.5 27.3 32.2 34.8 32.2 15.1 -1.5 -1.5 -1.5 -1.5 -1.5 -1.5 -1.5 -1.5 -1.5 -1.5 -1.5 -1.5 -1.5 -1.5 -1.5 -1.5 -1.5 -1.5 -1.5 -1.5 -1.5 -1.5 7.9 7.6 9.3 9.8 8.2 6.1 5.7 5.4 5.6 5.6 7.9 9.3 9.6 15.9 19.3 21.1 25.3 29.3 30 27.3 26.6 26.4 31.2 35.4 37.2 38.6 40.8 39.1 37.7 36.4 34.8 33.5 35 35.4 34.3 33.7 35.1 37.4 36 35.3 36.2 35.8 36 38.7 38.9 35.6 31.9 27.9 23.6 23.4 26.6 29.5 29.1 27.3 25.1 23.8 22.7 21.2 20.6 20.3 19.5 19.1 18.1
122.2 124.7 128.5 132.4 133.9 131.8 126.5 121.4 119.3 116.6 113.8 112.6 111.6 108.5 103.9 98.3 93.8 92.4 93.7 88.3 81.4 72.6 68.1 58.2 52.6 73.9 96.6 98.8 97.3 93.7 91 88.5 82.8 77 72.2 66.2 56.5 71.5 81.3 85.2 80.5 73 66 62 54.9 49 42.8 37.1 32.7 31.4 31 28 27.3 29.5 32.5 31.6 30.2 27.8 26.2 25 23.7 23.7 23.3 23.2 21.9 21.5 19.9 17.5 14.5 10.5 9.3 9 9 9 9.5 9.6 17.3 21.1 22.8 23.6 24 23.8 23.4 22.3 24.6 27.4 28.6 30.1 29.1 26.3 23.3 20.3 22.9 27 30.8 31.8 30.8 34.2 34.3 34 32.7 31.1 30.5 30 31.5 31.5 29.3 24.2 20.2 17.8 25.1 31.2 32.8 24.8 -1.5 -1.5 -1.5 -1.5 -1.5 -1.5 -1.5 -1.5 -1.5 -1.5 -1.5 -1.5 -1.5 -1.5 -1.5 -1.5 -1.5 -1.5 -1.5 -1.5 -1.5 -1.5 8.8 8.8 8.9 16.8 10.6 10.4 10.1 9.7 9.7 9.8 9.6 9.7 9.9 12.3 17.2 19.4 21.4 25.9 27 26.9 23.1 21.9 28.8 31.8 35.6 38.5 39.8 40.5 38.5 36.7 35.9 33.9 32.6 33.7 34.5 33.7 32.8 33.9 36.1 34 33.6 34.8 35.5 36.7 39.7 39.5 36.9 32.7 28.7 24.4 25.5 28.1 30 30.3 28.8 26.2 24.7 23.4 22.4 21.2 20.8 19.8 18.9 17.3
113.3 115.6 120.2 122.4 120.6 117.2 115.8 114.4 111.4 109.5 109.1 107.3 107.8 106.3 104.3 100.7 97 94.4 93.1 90.3 83.7 76.8 66.1 53.8 44.5 66.8 85.3 95.4 95.7 93.7 89.8 89 82.4 74.5 67.5 60.3 53.9 65.8 78.1 81.7 76.8 69.5 64 58.6 50.7 45 39.2 35.1 31.7 30 30.1 28.8 25.3 27 29.7 28.1 26.8 24.9 23.4 22.4 21.9 21.9 21.5 21.5 21 20.4 19.9 18.8 15.9 10.4 8.7 8.6 8.7 8.9 9.3 9.3 16.5 19.5 20.4 21.5 22 21.7 20.5 21.6 24.5 27 28.1 28.6 26.4 22.4 20.3 21.2 27.3 29.7 32.4 33.9 30 34.9 35.4 34.1 32.8 30.6 29.2 29.4 30.6 31.3 30.2 26.6 22.8 16.9 24.3 29.9 25 19.5 -1.5 -1.5 -1.5 -1.5 -1.5 -1.5 -1.5 -1.5 -1.5 -1.5 -1.5 -1.5 -1.5 -1.5 -1.5 -1.5 -1.5 -1.5 -1.5 -1.5 -1.5 4.5 8.8 10.1 16.8 17.6 19.5 22.7 26.5 22.8 16.6 11.7 11.2 9.6 11.4 12.6 16.3 18.3 21.1 24.2 22.3 22.1 23.7 25.2 28.9 31.9 35.3 39.2 40.9 40.8 39.1 38.5 36 33.3 31.4 33.2 34.1 33.5 32 32.8 34.4 32.6 34 35.7 36 37.5 40.3 39.5 37.1 32.8 29.1 27.4 27.2 28.3 30.5 31.1 29.9 27.4 25.4 23.6 21.8 21 20.5 19.4 18.3 17.5
107.5 109.1 110.6 111.8 111.9 112.7 111.9 110.1 108.2 104.6 103.8 102.8 103.7 103.9 102.8 100.9 97.5 93.1 91.1 89.7 85.7 77.8 64.8 51.7 44.4 51.8 67.3 81.7 89.2 92.9 89.8 89.5 82.6 73.1 60 51.8 51 66.3 77.8 77.8 72.4 64.7 60.6 54.9 47.6 40.9 37.4 32.8 30.4 28.6 28.5 27.6 23.3 25.1 25.8 24.2 23.3 22.1 21.4 20.2 20 20.4 20.4 20.4 20.1 19.9 19.6 19.1 16.9 11.6 8.8 8.4 8.5 8.7 9 9.8 16.2 18.7 19.1 19.8 19.8 19.4 18.7 22 24.5 25.4 25.4 24.9 22.7 18.4 21.4 26.4 30.3 32.3 33.5 34.4 32.6 35.6 35.3 34.2 32.2 30 27.9 28.1 29.4 29.9 28.3 25.8 24 17.3 21.5 23.2 19.6 18 -1.5 -1.5 -1.5 -1.5 -1.5 -1.5 -1.5 -1.5 -1.5 -1.5 -1.5 -1.5 -1.5 -1.5 -1.5 -1.5 -1.5 -1.5 -1.5 -1.5 3.2 5.7 14.6 17.1 18.1 19.3 20.1 22.7 23.4 18.1 17 11.8 11 9.7 11.9 12.8 12.4 15.3 18.2 19 19.2 21.3 25.5 27.9 30 32.2 35.4 39.8 41.2 42.2 40.8 39.1 36.1 33.1 30.9 31.7 33 33.4 31.5 31.1 31.8 32.1 34.9 36.7 37.1 38.5 40.6 39.6 37.4 33.9 31.5 30.2 29.4 29.3 30.3 31.1 30.4 28.3 26.2 24 22.5 21.1 20.2 19.6 18.6 17.5
95.7 99.6 101.6 103.5 105.9 107.9 107.3 106 104.7 102 100.3 100.6 101.2 102.1 101.6 100.3 97.8 93.4 88.4 87.5 85.5 79.2 68.5 56.3 48.5 42.3 45.2 55.6 75.6 88.1 89.6 86.6 82.8 73.4 65.1 54.6 49.2 69 78.3 75.1 67.5 61.4 56.6 50.4 43.1 38.1 34.1 31 28.9 27.4 26.8 26.4 24.4 20.3 21.7 21.5 20.2 19.6 19.6 18.9 19.4 19.1 19.4 19.4 19.4 19.5 19.5 18.7 17 11.7 8.7 8.5 8.5 8.5 8.6 10.5 15.6 17.7 18.1 18.3 18.1 17.4 19.4 21.4 23 23.4 22 19.9 17.9 21.7 26.7 29.2 32.1 33.3 33.8 34.3 34.7 34.5 34.9 33.2 31.3 28.7 26.1 25.9 27.6 27.5 25.8 24.2 22 17 18.6 22.4 27.6 11.3 -1.5 -1.5 -1.5 -1.5 -1.5 -1.5 -1.5 -1.5 -1.5 -1.5 -1.5 -1.5 -1.5 -1.5 -1.5 -1.5 -1.5 -1.5 -1.5 0.6 3.3 6 15.9 17.9 18.1 18.6 19.3 19.7 19 17.1 15.5 16.5 10.4 10.7 16.7 15.6 13.1 13.7 18.5 19.6 19.8 27.8 29.5 30.1 32 34.4 35.8 40.2 42.3 43.6 41.6 38.9 35.8 32.4 30.5 30.5 32.2 33 31.6 30.1 29.9 33.5 35.3 37.3 37.8 38.8 40.7 39.9 37.8 35.4 32.5 31.3 30.5 30.4 30.7 31.3 31 28.8 26.7 24.5 22.8 21.3 20.3 19.5 18.5 17.2
87.6 91 92.5 95.8 99.4 102.5 102.7 102.5 101.5 99.2 98.4 99.7 100.2 100.6 100.2 98.9 96.1 93.4 88.7 83.1 85.9 84.1 74.9 65.9 60.8 52.8 40.6 39.6 49.8 68.9 81 82.5 78.6 70.9 65.3 53.7 51.4 72.3 76.1 71.6 62.2 57 51.9 45 38.6 33.6 31.2 28.6 27.9 26.4 25.5 24.9 23.3 21.5 19.8 18.7 18.9 18.5 18.3 17.8 18.6 18.2 18.3 18.6 18.8 18.9 18.8 18.6 17.3 12 8.4 8.3 8.5 8.5 8.9 10.3 14.8 16.8 17.2 16.9 16 16.5 19.5 20.4 21.2 20.4 18.6 15.9 19.1 25 29.2 32 32.3 33.5 33.6 33.9 34.3 33.4 33 32 30.7 28.4 26 23 24.3 24.1 22.4 19 16.5 15.9 18.6 24.3 30.2 -1.5 -1.5 -1.5 -1.5 -1.5 -1.5 -1.5 -1.5 -1.5 -1.5 -1.5 -1.5 -1.5 -1.5 -1.5 -1.5 -1.5 -1.5 -1.5 -1.5 1.5 3.6 5.7 15.9 17.2 18.4 17.7 17.3 17.2 17.2 17.1 12.8 12.2 9.7 10.9 12.4 13.2 13.2 12.9 19 20.1 26.6 29.1 31.3 32.5 33.7 36 36.8 38.9 40.6 42.2 43.1 39.8 35.3 32 29.6 29.2 30.8 32.5 31.6 29 30 34 35 36.8 38.5 39.8 40.7 39.9 37.6 34.9 32.5 31.1 30.2 30.7 30.9 31.4 30.8 29.1 27 24.8 23.1 21.3 20.1 19.3 18.4 17.3
82.6 86.3 88.2 90.1 93.1 97.6 97.7 96.6 97.9 96.9 96.3 97.9 98.9 99.2 98.9 96 94.8 92.3 86.7 80.5 83.3 85.2 85.6 85 79.2 70 59.4 47.1 38.1 45 65.1 78.4 75.4 64.1 49.7 40.8 51.9 70.5 70.3 64 57.5 53.4 47.5 41.1 33.9 28.9 27.5 26.3 26 25.4 23.3 22.5 21.4 20.2 19.3 18.6 18.5 17.6 16.5 16.7 17 18 18.1 18.3 18.4 18.4 18.4 18.3 17.1 12.9 7.7 7.9 8.2 8.4 8.6 9.9 14.9 16.8 16.5 14.7 14 16.7 19.2 19.7 19.5 17.7 16 15.7 22.3 26.8 29.8 31.4 32.3 32.6 32.8 33.1 31.9 30.8 29.6 28.8 28.3 25.9 23.9 20.5 20.7 19.7 17.1 15.2 19.1 24.8 20.7 27.1 31.9 -1.5 -1.5 -1.5 -1.5 -1.5 -1.5 -1.5 -1.5 -1.5 -1.5 -1.5 -1.5 -1.5 -1.5 -1.5 -1.5 -1.5 -1.5 -1.5 0.5 2.2 3.8 6.1 14.9 16.8 17.5 17.3 15.5 15.3 16.9 13.7 12.4 11.2 9.8 10.7 12 12.9 13.8 12.9 18.5 26.4 29 32.2 32.3 33.8 35.1 35.2 35.5 37.5 40 41.2 41.4 39.6 35.4 32.6 29.9 28.2 30.1 32 30.6 27.5 29.1 32 33.6 36 38.4 40.9 41 39.6 37 34.3 31.9 30.5 30.5 31.1 31.2 31.6 30.7 29.4 27.3 24.9 23.1 21.4 20.1 19.4 18.4 17.3
78.4 81.5 83.8 86.5 89.5 93.3 94.3 94.1 94.8 94.1 95.4 96.8 97.9 98.7 98.1 95.1 93.4 89 84.7 78.3 76.2 81.1 85.5 90.6 91.2 88.4 81.3 64.8 47.7 38.1 53 74.1 73.9 63.3 45.4 40.7 51.5 63.6 61.4 56.9 53.5 49.2 43.6 36.7 29.3 25.5 24.1 23.7 24.9 24.2 22.4 20.7 20.5 19.4 18.5 18.1 17.7 16.6 15.4 16 16.1 16.7 17.6 18.1 18 18.1 18.2 17.7 16.8 13.2 7.9 7.9 8.2 8.4 8.3 9.9 13.9 16.2 15.6 13.6 14.8 16.6 18.3 17.7 16.2 14.3 14.5 19.1 24 26.4 28.7 30.1 31.1 31.6 31.4 31.1 28.1 29.9 26.7 25 24.3 22.5 19.9 16 15.8 14.7 15.1 20 26 26.7 24.7 29.4 25.5 -1.5 -1.5 -1.5 -1.5 -1.5 -1.5 -1.5 -1.5 -1.5 -1.5 -1.5 -1.5 -1.5 -1.5 -1.5 -1.5 -1.5 -1.5 0 1.4 2.7 4.2 8 14.3 16.1 16.7 17.2 15.1 14.9 17.1 12.9 12.1 10.9 9.8 10.7 11.5 12.8 13.1 13.6 22.8 29.2 32.7 33.2 33 33.9 35.5 34.3 33.8 36.2 39.1 39.3 39.8 37.6 35.3 32.2 30.1 27.8 27.9 29 27.3 27.9 28.2 30.2 32.5 35.2 37.6 40 40.4 39.1 36.5 33.8 31.1 29.5 29.9 31.2 31.3 31.5 31.1 29.7 27.8 25.1 23.2 21.5 20.3 19.7 18.8 17.8
71.2 75.1 78.2 81.2 86.3 90.3 91.6 91.3 90.9 91.5 93.1 95.6 97 98.4 99.1 97.5 93.8 90.8 87.2 79.7 72.9 73.2 80.7 88.7 89.3 85.5 73.9 56.4 46.3 36.6 58.7 73.3 73.1 62.9 44.4 40.4 51.2 59.9 55.8 52.4 49.1 44.9 39 32 25.6 22.4 21.4 21.2 22.6 22.2 21.2 19.6 19 18.4 17 16.5 16.2 15.6 15.3 15.4 15.6 16 16.6 17.1 17.6 17.7 18.1 17.5 16.4 12.8 7.9 8.1 8.1 8.2 8.9 9.5 13.1 15.7 15.7 12.8 13.2 16.6 17 15.4 13.8 13.2 16.1 21.1 23.8 25.8 27.6 28.9 29.9 29.3 28.8 28.3 26.8 29.5 25.7 22.7 19.6 18 15.8 13.5 13.8 15.7 18.1 23.6 27.2 27.8 27.9 30.6 -1.5 -1.5 -1.5 -1.5 -1.5 -1.5 -1.5 -1.5 -1.5 -1.5 -1.5 -1.5 -1.5 -1.5 -1.5 -1.5 -1.5 -1.5 -0.7 0.7 2 3.3 4.7 10.1 14.1 15.2 16 16.6 15.2 15.3 17 12.1 12.1 10.9 9.8 10.6 11.1 12.2 13.4 15.3 25.7 30.6 33 33.4 32.6 33 35.2 33.2 34.2 36.1 36.4 36.2 38 36.1 33.6 31.8 29.8 27.9 24.9 28.5 31.2 30.7 29.1 29.7 31.7 33.7 36.4 39.2 39.6 38.1 35.5 32.6 30.1 28.5 28.1 30 30.8 31.3 30.8 30 28.2 25.6 23.4 21.6 20.3 19.1 18.8 18.2
65 69.4 73.2 77.2 82.3 86.7 89 88.5 88 88.4 92 94.4 96.5 98 99.3 100 97.3 93.8 90.4 84.2 74.3 69 73.2 83.4 86.9 82.4 67.2 50.8 34 42.1 68.2 71.7 66 50.1 38 41.4 48.7 53.3 51.3 47.8 43.8 39.6 34.8 29 22.7 20.6 18.9 19.3 21.2 20.9 19.2 18 17.4 16.7 16.5 15.8 15.1 14.7 14.2 14.4 14.6 15.2 15.9 16.3 16.9 17.2 17.5 17 15.7 12 7.2 6.8 6.8 6.8 6.8 9.2 11.8 13.8 14 11.5 12 15.4 14.3 12.8 12.3 15.7 18.8 21.7 23.5 24.9 26.4 27.6 27.7 26.1 25 25.6 25.6 27.5 25.1 19.6 15.3 13.6 13.1 14.1 17.9 22.5 24.5 27.5 29.7 31.3 31.3 29.9 -1.5 -1.5 -1.5 -1.5 -1.5 -1.5 -1.5 -1.5 -1.5 -1.5 -1.5 -1.5 -1.5 -1.5 -1.5 -1.5 -1.5 -1.5 -0.7 0.6 2 3.4 4.8 16.3 13.9 14.3 15 15.1 15.4 16 14.9 12 11.7 10.5 9.8 11.3 12 12.8 13.6 17 26 30.9 32.6 32.5 31.1 31.6 33.3 31.6 32.3 34.4 33.5 33.6 35.6 34.5 31.2 29.8 29.6 28 23.9 31.3 32.3 31.4 30.2 30.1 32 34 36.4 39.3 39.2 37.2 34.2 31.3 28.9 27.1 26.6 28.2 29.8 30.6 30.5 30 28.4 25.9 23.7 21.7 20 18.8 18 17.8
59.1 64 69.5 75.2 77.7 81.8 85.8 86.5 85.3 88.2 91.7 94 96 97.6 99.7 100.8 98.8 96.4 92.8 87.5 78.6 69.8 66.8 75.3 80.4 73.4 62 47.8 29.7 50 65.5 68.6 47.7 33.8 41.1 48.4 54.5 52.2 47.9 43.2 38.1 34.1 30.5 25.7 21.6 18.3 17.1 18.7 19.8 18.6 17.1 16.1 15.8 15.3 14.7 14.9 14.3 13.9 13.5 13.4 14 15 15.7 16.2 16.4 16.6 16.7 16.3 15.1 8.9 6.8 6.8 6.8 6.8 6.8 8.5 10.2 11.3 12 10.7 11.2 11.9 11.6 11.8 15 18.1 20 21.4 22.3 24 24.2 24.5 24.3 21.6 21.1 23.3 25.1 22.9 20.2 15.3 12.7 13.1 14.5 16.8 20.2 26 28.9 30.7 32.3 33.9 33.5 17.2 -1.5 -1.5 -1.5 -1.5 -1.5 -1.5 -1.5 -1.5 -1.5 -1.5 -1.5 -1.5 -1.5 -1.5 -1.5 -1.5 -1.5 -1.5 -1.5 -0.1 1.2 2.6 4.5 11.4 13.9 14.2 14.3 14.2 17.7 16.4 12.3 11.5 10.8 9.9 10.1 11.3 12.2 13.1 13.5 18.4 27 32.2 32.8 31.6 29.5 29.4 29.9 28.7 31.1 32.9 30.2 32.2 34.2 33.3 30 29.6 29 25.7 26.8 31.4 33.7 32.3 30.9 31.2 31.9 34.3 36.6 38.9 38.5 36 32.9 30.3 27.8 25.6 25.2 26.8 29 29.6 29.9 29.7 28.5 25.7 23.3 21.7 19.7 18.4 17.4 16.9
52.8 56 60.9 65.9 70.3 75.2 80.8 84.3 86.5 89.9 91.7 93 95 97.2 99 101 100.8 98.8 95.5 91 83.8 73.9 64.3 65.2 69.5 65.8 55.2 43.4 34.9 40 46.6 57.6 34.6 38.2 61.1 61.3 58.2 49.6 43.7 38.4 33.5 29.6 25.8 21.9 19.3 17 16.2 17.2 17.5 16.3 15.7 14.6 14.1 13.9 13.4 13.8 13.5 13 13 13.1 13.7 14.6 15.5 15.9 15.6 15.8 16.1 15.7 14.3 8.3 6.8 6.8 6.8 6.8 6.8 9.8 9.4 9.8 9.7 9.7 10.6 10.6 12.5 15.2 16.9 18.6 19.9 20.2 20.7 22 22.1 21.5 19.6 17.4 18.2 18.6 18.3 16 14.2 12.6 12.9 13.3 18.6 21.7 23.3 27.2 30.5 32.1 33.4 34.7 34.1 -1.5 -1.5 -1.5 -1.5 -1.5 -1.5 -1.5 -1.5 -1.5 -1.5 -1.5 -1.5 -1.5 -1.5 -1.5 -1.5 -1.5 -1.5 -1.5 -1.5 -1.5 0.4 2.6 4.8 9.1 13.6 14 17.9 18.4 13.7 12.7 11.7 11.3 10.6 9.8 10.4 11.8 12.7 13.4 13.9 21.6 27.2 32.8 34.8 32.1 26.7 25.9 26.5 25.4 30 31.5 29.3 30.9 33.1 31.2 27.6 28.1 27.8 23.8 29.9 32.5 33 31.9 30.9 31.4 32.5 34.6 37.3 38.1 37.3 34.6 31.7 29.1 26.9 24.9 24.1 25.7 27.9 28.6 29.4 29.3 28.1 25.4 22.4 20.6 18.8 17.8 16.6 15.9
45.5 49.1 53.3 57 62.2 68.3 75.7 84.7 88.3 90.1 91.1 93.1 94.7 96.8 98.3 100.6 101.6 100.2 97.9 93.8 88.5 81.2 69.3 59.4 61.5 63.4 57.9 47.4 36.4 30.1 28.9 35.7 31.7 41.4 64.6 65.6 53.8 47.3 39.5 34.4 30.5 27.6 23.5 20.9 18 16.6 15.1 15 15 14.9 14.4 13.9 13.2 12.7 12.9 13.1 12.9 12.3 12.5 12.9 13.7 14.3 14.9 15.4 15.5 15.5 15 12.3 11.1 9.3 9.1 9.2 8.9 9 9.4 9.2 9.3 9.8 12.4 9.7 11.6 14.2 16 16.3 17.8 18.8 18.9 18.4 17.2 19 18.1 16.3 15.1 12.7 12.1 12.2 11.6 11.5 12.1 12.3 13.7 18.6 22.4 25.1 27.1 29.4 31.7 32.9 33.6 34 25.5 -1.5 -1.5 -1.5 -1.5 -1.5 -1.5 -1.5 -1.5 -1.5 -1.5 -1.5 -1.5 -1.5 -1.5 -1.5 -1.5 -1.5 -1.5 -1.5 -1.5 -1.5 0.2 2.5 4.8 8.2 14.9 16 13.8 13.7 13.3 12.5 11.3 10.1 9.6 9.7 10.9 12.3 13 13.5 15.1 22.7 27.3 32 35 30.7 23.6 22.2 22.4 23.5 28.4 29 27.9 30 30.1 28.5 23.5 25.2 23.1 25.1 30.5 31.7 31.7 30.6 30.7 31.9 33.6 35.7 37.7 37.5 36.5 33.1 30.4 28.5 26.5 25 23.5 24.8 27.3 28.5 28.7 28.6 27.8 25.6 23 20.7 18.7 16.4 16.1 15.4
38.8 42.3 44.2 49.9 57.2 64.9 71.9 82.7 89.5 91.5 92.5 93.6 94.9 96.2 97.2 99 99.9 100.5 98.6 95.8 91.3 86.1 76.6 65.1 57.4 55.9 58.4 52.8 43.3 33 32.7 25.7 30.5 38 51 46.9 48.6 43.2 35.5 30.8 28 26.3 24.8 21.7 18.4 17.2 15.5 14.3 13.9 13.7 13.5 13.1 13.2 12.3 11.7 12.3 12 11.9 12 12.8 13.6 14.3 14.9 15.2 15.4 15.5 14.7 13.9 13.1 12.9 12.3 12.7 11.6 10.4 9.8 8.8 8.9 9.2 11.1 11.7 12.8 12.8 14.8 16.5 17.7 18 17.7 16.5 13.9 14 11.7 10.2 10.6 10.2 10.5 11.4 11.3 11 11.2 14 17.2 21.2 24.2 25.7 27.1 29.7 31.4 32.8 33.6 33.9 13.4 -1.5 -1.5 -1.5 -1.5 -1.5 -1.5 -1.5 -1.5 -1.5 -1.5 -1.5 -1.5 -1.5 -1.5 -1.5 -1.5 -1.5 -1.5 -1.5 -1.5 -1.5 -0.3 1.7 3.7 8.5 12.9 13.7 13.7 13.2 11.8 9.6 9.6 9.6 9.6 10.8 11.5 12.4 12.9 13.5 17.9 22.9 26.9 31.1 32.5 26.7 20.2 19.3 19.1 24.2 27.3 25.9 25.4 28.9 30.1 26.1 21.2 19.6 21.6 29 31.9 31.6 31.3 30.3 30.8 31.9 34.1 35.7 37.2 37.2 35.9 33.2 29.9 27.7 25.7 24.8 23.4 23.3 26.6 28 27.9 27.7 27.4 24.4 22.2 20.4 18.4 16.7 15.7 14.9
31.8 34.5 35.9 44 52.8 61.5 69.4 77.1 88.4 93 94.2 94.6 95.1 95.7 96.3 97.2 98.7 99.6 99 96.2 93.3 89 82.9 73.4 62.2 54.2 52.1 54.7 50.3 40.6 37.7 38.7 25.8 22.6 26.1 38 40.6 37 31.4 28.4 26.8 24.7 23 21 18.3 16.7 15.3 13.9 13.1 12.5 12.3 12.8 12.6 11.3 11.2 11.7 11.7 11.7 12.2 12.9 13.5 14.2 14.6 15 15.1 15 14.5 13.6 10.1 12.8 12.6 12.1 11.8 11 10.6 9.2 12.7 9.1 10.9 12.4 12.5 12.6 14.7 15.9 16.5 16.2 15.4 11 10.9 9.6 9.6 11 11.1 11 10.6 11.4 13.5 12.6 11.4 14.7 17.8 20.9 22.7 24.7 27.5 30.5 32.8 33.3 33.6 31.9 -1.5 -1.5 -1.5 -1.5 -1.5 -1.5 -1.5 -1.5 -1.5 -1.5 -1.5 -1.5 -1.5 -1.5 -1.5 -1.5 -1.5 -1.5 -1.5 -1.5 -1.5 -1.5 -1.5 -1.5 -1.1 6.1 12.4 12.3 10.2 10.4 9.6 9.6 9.6 9.6 9.8 11.4 12 16.8 13.4 13.5 19 22.2 25.8 29.7 28.6 22.3 17 16.1 18.3 23.5 24 22.4 24.5 27.6 28 23.5 19.5 19.7 25.5 30.2 32.1 31.4 30.5 30 30.8 31.8 33.8 35.5 36.8 37 35.3 32.9 30.4 28 24.8 21.9 21.8 22.9 25.7 28.1 28.6 28 27.3 25.7 22.6 20.1 18.5 16.9 15.7 14.7
31.2 31.9 33.5 40.4 50.4 57.4 64.7 72.5 81.6 92.7 96 95.7 95 95.1 95.4 96.2 97.4 98.1 98.7 97.5 94 90.3 85.9 81.4 71.2 60 51.6 49.7 53.2 46.7 39.2 38.2 35.1 23.8 20.4 21.1 25.1 28.4 27.4 25.7 24.2 23.5 21 19.9 17.4 16.6 15.4 14.2 12.5 11.7 11.2 12.4 11.5 10.4 10.6 11.3 11.5 11.9 12.4 13.4 14 14.5 14.6 14.5 14.8 14.4 13.4 9.4 10.2 13.5 12.1 12.5 11.7 11.8 9.3 12.9 14.7 13.2 12.5 12.5 12.3 12.5 14.4 14.8 14.9 14.3 11.3 10.2 10.3 9.5 12.6 14.6 14.8 15.2 15.9 17 19.1 18.3 15.3 14.4 18.6 21.2 24 26.9 28.6 31.6 33.2 33.5 33.9 15.1 -1.5 -1.5 -1.5 -1.5 -1.5 -1.5 -1.5 -1.5 -1.5 -1.5 -1.5 -1.5 -1.5 -1.5 -1.5 -1.5 -1.5 -1.5 -1.5 -1.5 -1.5 -1.5 -1.5 -1.5 5.5 12.2 11 10.4 10.6 10.3 9.9 9.6 9.6 10.7 11.6 11.7 12.2 12.9 13.6 15.4 18.9 23.4 26.5 28.8 24.5 19 15.3 14.7 16.8 20.9 19.5 19.4 22.6 25 23.4 19.4 19.6 22.8 26.3 29 32.3 31.1 29.6 29.6 30.6 32 33.6 35.4 36.1 36.1 35 33.1 30 28.9 25.3 23 24.6 22.3 24.6 27 27.4 27.1 26.8 25.9 23.1 20.3 18.6 17 15.3 14.3
39.1 32.5 29.2 35.3 46.7 55.2 60.4 66.1 76.6 86.2 95 95.8 94.7 94.4 94.5 94.6 94.9 96.2 97 97.1 94.9 91.5 87.5 83.1 77.7 69.7 55.6 47.6 48.3 51.9 46.9 44.4 36.5 30.9 20.7 18.6 18.5 19.5 22.5 23.2 22 21.4 20.4 19.6 16.6 15.6 15.1 13.5 12.3 11.4 11 11 10.4 10.7 11.2 12.2 12.6 13 13.4 13.3 13.4 13.6 13.5 13.8 14.5 13.5 13.1 8.9 12.2 12.7 12.9 12.8 13 11.3 11.4 11.4 12.2 12.5 12.1 12.1 12.3 13.1 13.3 11.1 10.2 10 9.7 8.6 10.1 14 17 18 18.9 19.3 19.4 19.8 20.6 20.9 20.3 18.4 21.5 24.4 27.3 29.5 31.4 32.4 33.4 33.6 31.9 7.5 -1.5 -1.5 -1.5 -1.5 -1.5 -1.5 -1.5 -1.5 -1.5 -1.5 -1.5 -1.5 -1.5 -1.5 -1.5 -1.5 -1.5 -1.5 -1.5 -1.5 -1.5 -1.5 0.4 2.7 5.2 10.4 -1.5 -1.5 -1.5 10.1 10.6 10.6 11.7 11.6 11.9 12.4 13.1 13.1 13.4 15.3 18.9 22.8 25.7 26 21.2 16.3 14.5 14.2 14.2 15.9 15.3 16.1 18.6 20.2 18.2 18 21 24.8 28.3 30.8 33.4 32.3 30 29.7 30.4 31.5 33.3 34.4 35.9 35.9 34.9 33 30.9 28.7 25.1 23.9 25.3 23.4 21.9 25.9 26.2 26.4 26.3 25.8 23 20.7 18.4 16.3 14.9 13.9
49 39.8 28.5 29.5 39.5 49.9 56 62 72.1 82.2 91.7 95 94.1 93.5 92.9 92.6 93.2 94 94.8 95.1 94.6 91.9 88.5 85.2 79.5 71.8 61.5 50.8 44.1 47.3 50.2 50.3 46 43 26.9 18.9 16.4 16.2 17.7 20.5 20.6 20.2 19.2 18.1 15.5 15 14.4 13.5 11.8 11.2 10.1 9.5 10.9 11.5 12.7 14.4 14.8 16.3 15.3 14 13.8 13.4 13.4 13.5 13.5 12.8 12.5 10.6 12.6 12.5 13 12.9 12 11.1 9.2 10.8 11.7 11.7 12.5 12.1 12.4 12.1 10 9.6 9.4 8.5 8.2 9.5 14.1 16.6 18.6 19.4 19.7 20 20.2 20.7 21.4 21.2 22.1 22.5 24.2 26.5 28.5 30.3 31.7 32.8 33 33.3 27.1 6.5 -1.5 -1.5 -1.5 -1.5 -1.5 -1.5 -1.5 -1.5 -1.5 -1.5 -1.5 -1.5 -1.5 -1.5 -1.5 -1.5 -1.5 -1.5 -1.5 -1.5 -1.5 -1.5 1.4 4.2 5.6 -1.5 -1.5 -1.5 -1.5 10.2 11.4 12 11.8 11.8 12.4 13.5 12.8 12.8 12.7 14.7 19 20.7 23.1 21.1 16.8 13.4 13.5 13.8 14.5 14.4 15.3 17.8 17.3 16.3 17.3 19.1 22.8 26.6 29 31 32.7 31.9 29.5 29.4 30.2 31.1 33.1 35.4 35.7 35.5 34.8 32.8 30.2 27.8 26.3 26.3 26.2 23.9 21 24.9 25.5 25.8 26 25.6 22.9 20.2 17.7 15.6 14.3 13.8
48.3 45.8 32 25.8 30.1 42.7 52.3 58.5 67.4 76.5 85.3 92.5 92.8 92.4 92.1 91.8 91.2 91.9 92.7 93.1 92.7 92 89.4 86 82.2 76.7 67.7 56.8 47.1 41.2 43.2 45.9 50.1 48.4 38.6 22.3 15.9 14.4 14.8 16.9 18.4 18.8 18.6 17 15.7 15.1 14.3 13 12.3 11.2 11 10.7 12.9 14 14.6 14.7 16.7 17.6 16.9 15 13.8 13.2 12.8 12.8 12.7 12.4 10.5 12.1 11.7 12.4 12.7 12.4 11.9 11.2 9.2 9.2 9.6 10.4 10.7 10.8 10.5 9.2 8.8 8.5 8.2 8.1 9.3 12.1 15.7 18 18.9 19.4 19.5 19.7 19.9 20.1 20.5 21.1 21.9 23 24.9 27 29 30.3 31.4 32.4 32.8 33.1 22.5 5 -1.5 -1.5 -1.5 -1.5 -1.5 -1.5 -1.5 -1.5 -1.5 -1.5 -1.5 -1.5 -1.5 -1.5 -1.5 -1.5 -1.5 -1.5 -1.5 -1.5 -1.5 -1.5 -1.5 -1.5 -1.5 -1.5 -1.5 -1.5 10.6 11.4 11.9 12.2 12.3 12.5 12.9 12.5 12.8 12.9 13.3 13.6 15.9 18.3 17.2 15.2 12.6 12.9 13.5 14.9 18.5 17.7 18 22.1 21 18.5 17.8 19.2 24.2 27.4 30 31.8 32.4 31.3 29 29.2 29.6 30.8 32.8 35.2 35.6 35.7 34.3 32.3 29.4 27.6 27.8 27.6 26.3 23.7 21.6 24.9 24.6 25 25.8 24.7 22.6 19.9 17.1 15.6 14 13.8
46.5 43.8 36.1 25.9 24.7 35.4 46.3 53.2 60.3 69.2 78.7 86.1 90.7 90.5 90.3 90.2 89.7 89.4 90.1 90.3 90.1 89.7 88.6 86.7 83.9 80.4 74.4 62.9 51.9 44.2 36.7 36.6 41.7 43.9 40.2 29.4 16.5 13.6 13.5 13.7 16.2 17.2 17.2 16.6 15.8 14.9 13.9 12.8 12.2 9.8 9.4 9.5 11.9 12 11.8 13.1 15.9 16.5 15.3 13.5 12.7 12.7 12.2 12.1 12.1 11.8 11.7 9.7 11.7 11.8 11.8 12.4 11.8 11.4 9.3 9.3 9.5 9.6 9.6 9.1 7.9 7.8 8.1 8.3 8.2 9.2 11.9 14.2 15.7 15.6 17.9 18.4 18.8 19.1 19.3 19.4 19.8 20.8 20.9 22.6 25.1 27 28.2 29.7 30.9 31.8 32.4 33.4 17.5 -1.5 -1.5 -1.5 -1.5 -1.5 -1.5 -1.5 -1.5 -1.5 -1.5 -1.5 -1.5 -1.5 -1.5 -1.5 -1.5 -1.5 -1.5 -1.5 -1.5 -1.5 -1.5 -1.5 -1.5 -1.5 -1.5 10.3 10.6 10.9 11.5 12.3 12.6 12.8 13 13.4 12.6 11.8 13.2 12.8 13.4 14.3 14.1 11.9 11 11.3 11.8 12.3 15.9 17.9 22.1 21.5 21.3 23.6 22.4 20.3 18.7 20.1 24.9 27.1 29 31.6 31.8 29.9 28.5 28.1 29.1 30.6 32.5 34.9 35.1 35.2 33.7 31.9 30.1 27.8 27.4 27.7 25.4 23.1 20 24.1 24.2 23.8 25.4 25 22.3 19.7 16.8 15 13.8 14
40.8 37.7 30.9 27.6 24.4 25.7 36.8 46.7 54.9 61.8 69.8 76.8 85.5 88.3 89 88.3 87.7 87.2 87.1 87.3 87.5 87.5 87 85.6 84.2 81.6 78.3 73.3 63.9 52.3 43.6 35.7 30.4 31.5 31.8 27.6 21.3 13.4 12.4 12.4 13.4 15.2 15.3 14.7 14.9 13.9 13.3 12.9 11.9 10.3 9.2 9.3 9.3 8.7 8.5 10 12 12.8 12.1 10.7 12.4 12 11.3 10.6 9.5 11.2 11.5 8.6 9.4 10.5 10.9 10.5 10.1 9 8.9 9.1 9.3 9.3 7.9 8.1 8.9 9.7 8.2 8.2 9.1 10.8 12.7 13.6 14.8 15.8 16.6 17.8 18.6 18.8 18.8 18.8 19.3 20.6 20.7 22.3 24.4 25.6 26.9 28.2 29.5 30.7 31.9 32.5 13.1 -1.5 -1.5 -1.5 -1.5 -1.5 -1.5 -1.5 -1.5 -1.5 -1.5 -1.5 -1.5 -1.5 -1.5 -1.5 -1.5 -1.5 -1.5 -1.5 -1.5 -1.5 -1.5 -1.5 -1.5 5.6 7.6 11.1 11.3 11.5 12.2 12.3 12.2 13.1 14.1 14 13.4 13 13 12.8 16.1 18.1 19.4 17.5 14.8 14 12.6 14.3 18.9 22.1 25.8 25.3 24 25 22.7 20.7 19.5 21.3 25.5 26.5 28.8 30.8 29.9 28.2 27.6 27.6 29 30.6 33.6 34.4 34.3 34.2 33.2 31.5 30 28.4 27.9 26.6 25.2 22.7 18.6 22.6 23.3 23.1 24.3 24.3 22.4 19.5 16.5 14.3 13.7 14.3
36.4 36.9 35.6 35.6 24.7 22.9 30.6 40.7 48.7 56.1 62.5 67.4 75.1 81.5 85.6 85.3 85.6 85.1 84.7 84.3 84.6 85.6 84.9 83.6 82.3 80.4 77.8 74.7 69 61.4 53.9 43.4 32.8 25.2 23.7 23.6 20.4 12.1 11.7 11.5 11.6 13.3 14.2 14.1 13.8 12.5 11.8 11.3 10.7 9.8 8.9 9.3 8.5 7.7 7.3 7.6 8.4 8.8 9.1 10.3 10.9 10.8 10.4 9.8 9.5 8.3 10.6 10.5 9.5 8.3 8.5 8.3 8.6 9.6 9.1 9.1 7.8 7.7 7.3 7.1 7.6 8.3 10.1 9.8 10.1 11.6 12.7 13.4 14.3 15.5 16.3 17.1 18.4 18 17.3 18.2 19.9 20 20.4 21.9 23.1 24.2 25.4 26.7 28.2 29.7 30.4 30.9 10.5 -1.5 -1.5 -1.5 -1.5 -1.5 -1.5 -1.5 -1.5 -1.5 -1.5 -1.5 -1.5 -1.5 -1.5 -1.5 -1.5 -1.5 -1.5 -1.5 -1.5 -1.5 -1.5 -1.5 4.8 5.6 9.2 11.7 12 12.1 12 11.9 12.4 13.1 14.1 14.2 13.9 13.6 13.3 13.8 17.1 19.7 22.1 22.7 20.7 17.3 14.7 16.9 22.2 25.7 29.3 27.5 25.4 25.9 23.3 21.4 20.8 21.9 23.7 25.2 27.7 29 28.5 28.4 27.5 27.3 28.9 30.6 33.2 33.4 33.3 32.9 32.7 30.8 29.1 27.9 28.3 25.7 23.9 22.1 19.1 19.9 21.3 22.6 23 23.5 22.2 19.2 16.3 14.7 14.3 14.7
45.7 44.8 44.5 42.6 29.3 21.8 28.6 35.6 43.1 49.5 55.7 61.3 65.8 68.8 74.9 81.9 82.8 82.8 82.5 81.8 81.4 82.5 82.4 80.9 79.4 77.4 74.5 70 64.5 59.2 52.2 41.7 32.8 26.5 21.3 19.6 18.8 14.7 11.9 11 10.3 11.7 13.5 13.4 12.6 11.8 11 10.3 9.9 8.5 7.3 7.4 8 7.5 7.1 7.1 7.3 7.2 7.4 10.9 10.3 9.5 9.8 9.5 8.8 8.4 7.7 10.9 10.2 9.8 9.8 9.5 9.3 9.2 7.5 7.8 7.5 7.5 7.1 7.1 7.1 7.9 9.4 10.3 10.6 11.2 11.7 12.6 13.3 14.8 15.4 16.2 17.2 16.8 16.7 18.2 18.8 18.8 19.7 21 22.3 23.1 24 25.6 27.2 28.3 28.7 28.9 5.3 -1.5 -1.5 -1.5 -1.5 -1.5 -1.5 -1.5 -1.5 -1.5 -1.5 -1.5 -1.5 -1.5 -1.5 -1.5 -1.5 -1.5 -1.5 -1.5 -1.5 -1.5 -1.5 -1.5 2.5 5.1 10.2 12.1 12.1 12.3 12.2 11.4 12.4 12.8 13.4 14.2 13.8 13.3 14.1 15.7 17.5 20.7 24 23.9 23.3 18.5 16.9 17.9 23.6 25.7 28.7 26.6 25.4 26.2 24.1 22 22.1 23.6 25.1 26.1 28.2 30.3 29.5 28.9 27.1 26.9 29.4 30.3 32.6 32.4 31.8 31.8 31.7 29.9 28.1 27.3 26.9 25.4 22.8 20.9 18.4 17 20 21 22 22.6 21.5 18.8 15.8 14.3 14.3 14.6
53 51 48.1 45.5 36.8 21.5 25.5 29.2 36.5 44.4 51.1 53.2 56.5 60.7 64.5 69 79.6 80.3 79.4 78.5 78.1 79.5 80.6 79.4 76.6 72.1 68.2 64.7 59 55.4 47.4 36.7 29.2 24.3 20.4 16.9 15.2 13 11.6 10.5 10.1 10.3 12.2 12.8 11.9 11.3 10.5 9.7 9 7.9 7.2 7 7 7 7.4 7.6 7.4 7.2 7.5 9.1 10 10 9.8 9.1 8.2 8 6.9 10.5 10.3 10.2 9.5 9.3 7.7 7.1 7.5 7.4 7.1 7.1 7.1 7.1 7.3 8.7 10 10.3 10.8 11.4 10.8 11.6 12.3 14.2 14.8 15.7 16.1 15.6 16.9 18.2 18.3 17.8 19.3 20.4 21.8 22.3 22.8 24.5 25.6 26.8 27.1 18.1 -1.5 -1.5 -1.5 -1.5 -1.5 -1.5 -1.5 -1.5 -1.5 -1.5 -1.5 -1.5 -1.5 -1.5 -1.5 -1.5 -1.5 -1.5 -1.5 -1.5 -1.5 -1.5 -1.5 0.4 2.8 5.3 9.2 14.3 15.9 12.1 12 11.6 12.6 13.2 13.4 13.6 13.5 13.4 15.1 16.7 18 20.7 23.2 24.8 23.5 20.6 18.9 19.4 24.1 25.3 26.9 24.8 25.4 25.9 24.6 22.7 23.4 25.6 27 27.8 29.8 30.1 29.4 28.4 27 26.1 28.6 30 31.4 31.1 30.4 30.7 30.4 29 27.5 25.9 26.2 25 23.1 19.8 16 16.1 19.5 19.2 20.3 21.7 20.5 17.7 15.7 14.3 14.4 14.9
57.5 53.9 50.6 48.3 44.3 29.2 20.3 21.7 30.1 37.2 42.7 46.2 51.1 56.8 59.2 61.4 66.9 75.8 75.7 75.5 75.6 76.1 76.6 76.4 73.7 69.1 64.2 60.1 55.4 48.8 42.9 33.3 24.7 22.5 19 15.9 13.7 11.9 10.5 10.5 9.7 9.7 11.2 11.8 11.3 10.6 10.2 9.5 8.5 8.1 7.3 6.9 6.9 6.8 6.8 7.5 7.3 7.1 7.4 7.7 8.4 8.4 7.7 7.4 8 7.8 8.2 9.8 10.8 9.4 7.3 7.1 7.1 7.1 7.1 7.1 7.1 7.1 7.7 7.7 8 8.9 10.2 10.3 11.1 10.8 10.7 10.9 11.3 11.9 14.7 15.3 14.5 15.4 19.1 17.5 17.6 18.1 19.6 20.4 21.3 21.6 21.9 23.1 24.1 25.1 25 7.2 -1.5 -1.5 -1.5 -1.5 -1.5 -1.5 -1.5 -1.5 -1.5 -1.5 -1.5 -1.5 -1.5 -1.5 -1.5 -1.5 -1.5 -1.5 -1.5 -1.5 -1.5 -1.5 -1.5 0.9 3.2 5.5 9.3 10.3 10.2 10.6 11 11.1 11.6 10.1 10.2 13.6 14.5 13.8 15.3 16.7 18.3 20.7 23.3 24.9 24.7 22.9 21.2 21.1 22.7 25.2 26.1 24.7 25.7 26.1 24.1 23.3 23.8 26 27.8 28.8 30.2 30.1 29.8 28.5 27.3 25.1 27.5 29.8 30.4 30 29.7 30.2 29.9 28.4 26.9 25.1 24.7 24.3 21.6 18.4 14.9 15.5 18.1 17.7 19.1 20.7 19.8 16.6 15.2 15.9 16.4 16
59.4 55.6 51.2 47.3 45 40.1 28.5 18.6 19.8 24.4 29.9 37.7 44.8 50.5 53.8 54.6 56.1 62.3 70 71.5 71.8 72.3 72.7 71.7 69.7 66 61.2 55.8 51.1 46.8 40.8 31.1 24.2 19.2 17.4 15.2 13.2 11.2 10.2 9.8 8.9 9.5 9.6 10.5 10.3 9.5 10 9.3 7.9 7.2 6.8 6.8 6.8 6.8 6.8 7.1 7 7.3 7.5 7.6 7.6 8.6 7.3 7.3 7.8 7.8 8.9 10.4 9.1 8 7.9 7.1 7.1 7.1 7.1 7.1 7.1 7.1 7.2 7.8 8 8.8 10 10.1 10.2 10.5 11 11.2 11.3 11.5 11.7 12.2 12.8 14.1 16.3 17.8 17.2 17.9 19.5 20.1 20.6 20.9 21 21.1 22.5 23.4 11.3 4.1 0.8 -1.5 -1.5 -1.5 -1.5 -1.5 -1.5 -1.5 -1.5 -1.5 -1.5 -1.5 -1.5 -1.5 -1.5 -1.5 -1.5 -1.5 -1.5 -1.5 -1.5 -1.5 -1.5 1.6 3.7 6.3 9 10 9.4 9.6 9.8 10.1 10.2 9.7 10.1 13.4 13.9 14.1 16.2 17.2 18.3 20.7 23.1 25.2 25.7 24 22 22.2 23.9 25.3 24.4 23.8 25.2 24.5 23.3 23.3 23.9 26.5 28 28.4 30.2 30.3 29.9 28.7 27.6 24.6 28.4 30.4 30.2 29.4 29.1 29.7 29.1 27.5 25.9 24.4 23 21.8 19.8 16.5 13.9 14.3 17.4 16.6 18.2 19.9 19.1 15.5 15.9 17.2 17.3 16.5
60.2 56.6 51.9 47.5 43.6 42.6 39.8 31.1 18.6 18.1 22.9 32.3 37.5 43.1 48.3 48.6 49.4 52.1 55.8 64.5 67.8 68.9 68.2 65.7 63.2 60.8 56.6 51.9 45.1 41 34.5 27.7 22.5 18.7 16.4 14.3 12.2 10.3 9.7 9.3 8.8 9 8.9 9 9.1 8.2 9.1 8.1 7.2 6.7 6.8 6.8 6.8 6.9 6.9 6.9 6.6 7.4 7.4 7.5 7.5 7.8 7.7 7.6 7.6 7.4 9.7 8.2 10.8 9.4 9.2 8.9 7.5 7.4 7.1 7.1 7.1 7.1 7.7 8 7.7 8.5 9.6 9.7 9.8 10.3 11.3 11.4 11.6 11.7 12.6 11.9 12.7 14.9 15.1 16.4 16.7 17.4 18.7 19.4 19.8 20.1 19.7 19.8 20.8 20.3 5.3 3.1 0.9 -1.5 -1.5 -1.5 -1.5 -1.5 -1.5 -1.5 -1.5 -1.5 -1.5 -1.5 -1.5 -1.5 -1.5 -1.5 -1.5 -1.5 -1.5 -1.5 -1.5 -1.5 -1.5 1.9 4.1 6.6 9.1 8.4 8.5 9.1 9.2 9.5 9.4 9.6 10.1 10.4 13.8 14 15.5 16.5 18 20.4 23 24.9 25.7 24.5 22.5 22.4 24.3 25.6 23.1 22.4 23.8 23.4 23.6 23.3 23.5 26.3 27.9 27.3 28.7 30.5 30.1 28.7 27.2 24.3 28.4 30.2 29.9 28.9 28.4 29.4 28 26.4 24.3 22.9 21.1 18.5 16.5 14.4 12.4 13.3 14.6 14.8 16.2 15.9 14.4 16.8 18.4 18.5 18.1 16.9
60.7 57.9 53.8 50 49.1 50 48.6 42.8 32.2 18 17.3 22.4 29.4 32.3 39.5 42.9 43.7 47.3 50 53.8 55.9 64.9 65 62.6 59.8 56.7 52.5 48.2 43.8 33.9 26.6 22.4 19.6 16.6 15.1 12.5 10.5 9.6 9.2 8.8 8.2 7.7 7.3 8.8 7.9 7.2 7.4 7.2 6.9 6.7 6.7 6.7 6.8 6.8 6.9 7.1 7.3 7.3 7.3 7.5 7.5 7.4 7.4 7.3 7.2 7.4 8.1 8.2 7.9 8.9 8 7.7 10.1 9 7.9 7.2 7.1 7.2 7.9 13.1 12.2 14.1 12.7 9.9 9.9 10.3 10.8 11.2 11.5 11.4 13 13.4 13.6 14.3 15.4 15.8 16.4 17.7 18.3 18.9 19.2 19.5 18.7 18.5 19.1 9.5 4.5 2.9 1.1 -1.5 -1.5 -1.5 -1.5 -1.5 -1.5 -1.5 -1.5 -1.5 -1.5 -1.5 -1.5 -1.5 -1.5 -1.5 -1.5 -1.5 -1.5 -1.5 -1.5 -1.5 -1.5 1.9 4.2 7.6 9 8.5 8.7 9.6 8.8 8.7 9.5 9.9 10.2 12.4 13.6 14.3 15.1 15.8 17 18.5 21.1 24.6 26 24.4 22.1 22.1 25 25.5 22.4 21.2 22.7 22.9 23.3 23.2 23.3 26.5 27 26.8 28.2 30.6 30.5 29 27.3 24.7 28.1 29.3 28.9 27.9 28.5 28.5 27.3 25.5 23.4 22.1 20.1 19.2 17.6 15.3 12.2 11.9 12.4 12.7 13.1 15.9 19 20.6 20 19.6 18.3 17.2
60.4 59.1 55.5 54 52.8 52.3 51.4 48 42.3 27.4 16.3 15.2 18.7 22.8 29.2 34.5 39.1 42.3 45.5 47.9 47.3 55.1 60.9 59.8 57.8 55.5 52.7 49.5 45.4 33.6 26.2 21.9 17.2 15.5 13.2 11.3 9.7 9.1 9.1 8.4 7.4 7.1 6.8 8.6 8 7.2 6.8 6.5 6.3 6.5 6.6 6.6 6.6 6.7 6.8 7 6.9 6.9 7.1 7.3 7.4 7.4 7.4 8.8 7.4 9.7 8 7.8 7.5 8 10.7 11.3 7.2 9.6 9.5 7.9 7.4 7.4 10.3 12.6 11.7 12.2 13.1 10 10.1 10.4 11 11.1 11.1 11.3 11.5 12.7 13.6 14.4 15.3 15.8 16.7 17.6 18.1 18.5 18.7 18.8 18 17 12.4 5.1 3.9 2.6 0.9 -1.5 -1.5 -1.5 -1.5 -1.5 -1.5 -1.5 -1.5 -1.5 -1.5 -1.5 -1.5 -1.5 -1.5 -1.5 -1.5 -1.5 -1.5 -1.5 -1.5 -1.5 -1.5 1.4 4.2 6.9 9.3 12.3 9.9 10.2 10.1 10.2 10.2 10.1 11.7 12.9 13.3 14 14.3 14.7 16 17 20.2 24.8 26.1 23.2 20.9 19.6 22.7 23.9 21.6 21.3 23.3 22.7 23.5 22.3 23.3 26.3 26.5 26.7 28 30.5 29.8 27.9 25.9 23.2 26.7 28 28 26.7 27.4 28.2 27.2 24.7 23.1 22.5 21.9 20.4 18.6 15.6 12.2 11.6 15.4 17.9 17.5 20 22.1 22.1 21.2 20.1 18.7 17.9
58.9 58.8 57.8 56.2 54.6 53.7 51.4 48.1 44.5 38.9 26.8 13.5 13.4 14.3 18.6 27.8 32.2 34.3 40 42.5 41.7 47 51.1 52.6 53.6 53.7 52.4 49.4 43.7 34.1 26.5 21.3 16.8 15 12.4 11.7 10.8 9.2 9.1 8 7.1 6.9 7.1 7.5 8.5 7.9 6.9 6.6 6.5 6.3 6.5 6.5 6.6 6.6 6.7 6.9 7 6.9 7 7.2 7.5 7.6 8.6 7 7.2 7.4 7.9 7.8 7.3 7.3 7.4 8 10.3 11.1 7.4 8.9 7.5 7.6 13.1 12.9 12.3 15.8 10.7 10.2 10.3 10.2 10.6 11.1 11.1 11.3 11.5 12.4 13.3 14.2 15.1 16.2 16.8 17.2 17.8 18 18.2 18.3 17.6 16.5 6.4 4.5 3.2 1.8 0.6 -1.5 -1.5 -1.5 -1.5 -1.5 -1.5 -1.5 -1.5 -1.5 -1.5 -1.5 -1.5 -1.5 -1.5 -1.5 -1.5 -1.5 -1.5 -1.5 -1.5 -1.5 -1.5 1.6 4.2 7.5 7.7 7.5 10 10.2 10.1 10.4 11 10.9 12 12.5 13 12.5 12.8 12.9 14.4 16.1 20.4 24.7 24.8 21.3 19.1 18 21 22.2 20 21.6 24.6 21.8 23.3 22 23.6 26.4 25.6 27.2 29.2 30.6 29.3 28.1 26 22.9 24.7 26.9 27.6 26 25.9 26.4 26.1 24 23.4 23.5 22.6 21.2 19.5 16.6 12.9 11.2 16.7 19.9 20.6 21.2 22.7 23.1 22.1 20.9 19.4 18.9
