ncols 200
nrows 104
xllcorner 370000
yllcorner 201850
cellsize 50
9 8.5 7.7 6.9 6.4 5.7 5.4 3.7 4.2 3.4 2.7 2.3 2.5 2.2 2 2 2 1.7 1.2 0.8 0.3 -0.2 -0.6 -1.1 -1.2 -1.2 -1.2 -1.2 -1.2 -1.2 -1.2 -1.2 -1.2 -1.2 -1.2 -1.2 -1.2 -1.2 -1.2 -1.2 -1.2 -1.2 -1.2 -1.2 -1.2 -1.2 -1.2 -1.2 -1.2 -1.2 -1.2 -1.2 -1.2 -1.2 -1.2 -1.2 -1.2 -1.2 -1.2 -1.2 -1.2 -1.2 -1.2 -1.2 -1.2 -1.2 -1.2 -1.2 -1.2 -1.2 -1.2 -1.2 -1.2 -1.2 1 2.7 4.3 5.8 6.5 7.2 7.8 8.4 8.9 9.5 10.4 11 9 11 9 9 9.5 10.2 10.6 10.7 10.7 10.9 11 11 11 11 11 11 11 11 11 11 11 11 11 11 12 14.1 14 14 14 14 14.9 15.4 14.8 14.2 14 14 14 14 15.5 15.9 15.4 14.8 15.7 16.1 16.2 16.2 16.3 16.4 16.2 16 15.8 15.6 15.2 13.5 12.9 12.9 12.8 12.8 12.7 12.7 12.6 12.7 12.8 12.8 13.1 13.6 14 15 16.5 17.9 18.4 19.9 19.9 19.7 19.4 19.8 19.6 21 19.6 19.2 20.3 22.5 24.5 26 28.1 30.2 32.9 35.5 36.3 37 37.3 37.2 37.2 37.2 37.3 36.3 36.6 36.7 36.7 37.6 37.5 37.3 37.5 38.1 38.7 39.2 39.3 39.1 39.6 41.6 43.1 44.6 45.8 46.8
8.8 8.3 7.2 6.3 5.8 4 1.7 2 3 2.5 1.9 1.4 1.9 1.5 1.4 1.4 1.4 1.3 0.8 0.4 -0.1 -0.5 -1 -1.2 -1.2 -1.2 -1.2 -1.2 -1.2 -1.2 -1.2 -1.2 -1.2 -1.2 -1.2 -1.2 -1.2 -1.2 -1.2 -1.2 -1.2 -1.2 -1.2 -1.2 -1.2 -1.2 -1.2 -1.2 -1.2 -1.2 -1.2 -1.2 -1.2 -1.2 -1.2 -1.2 -1.2 -1.2 -1.2 -1.2 -1.2 -1.2 -1.2 -1.2 -1.2 -1.2 -1.2 -1.2 -1.2 -1.2 -1.2 -1.2 -1.2 0 1.7 3.3 5 5.9 6.4 7.1 7.9 8.4 8.9 9.5 10.4 10 9.7 11 10 10 11 10.3 10.5 10.6 10.8 10.9 11 11 11 11 11 11 11 11 11 11 11 11 11 11 13.8 14 14 14 14 14 14.1 15.6 14.4 14.2 14 14 14 14 15.3 15.7 14.5 14 14.8 16.6 16.5 16.5 16.5 16.5 16.3 16.1 15.8 15.4 15.1 13.9 13.2 13.1 13 12.9 12.8 12.8 12.7 12.7 12.7 12.8 13 13.4 13.9 14.5 16 16.7 17.2 17.7 18.2 18.8 19.6 19.9 20 20.1 19.3 19.9 21 22.6 24.2 25.8 27.9 30 33.3 35.3 36.3 37.1 37.8 38.1 38.1 38.1 38.1 37 36.3 36 35.4 36.3 36.5 36.2 36.4 37 37.6 38.1 38.9 38.9 39.5 41.2 42.7 44.2 45.6 46.6
8.3 6.7 6.2 4.3 -1.2 -1.2 -1.2 0.3 1.5 1.3 0.9 0.6 0.9 0.9 0.9 0.8 0.8 0.8 0.5 0 -0.4 -0.9 -1.2 -1.2 -1.2 -1.2 -1.2 -1.2 -1.2 -1.2 -1.2 -1.2 -1.2 -1.2 -1.2 -1.2 -1.2 -1.2 -1.2 -1.2 -1.2 -1.2 -1.2 -1.2 -1.2 -1.2 -1.2 -1.2 -1.2 -1.2 -1.2 -1.2 -1.2 -1.2 -1.2 -1.2 -1.2 -1.2 -1.2 -1.2 -1.2 -1.2 -1.2 -1.2 -1.2 -1.2 -1.2 -1.2 -1.2 -1.2 -1.2 -1.2 -1.2 1 2.7 4.3 5.7 6.2 6.7 7.2 7.7 8.5 9 9.8 10.8 9.8 9.6 10.8 11 10.3 11 10.1 10.3 10.5 10.6 10.8 11 11 11 11 11 11 11 11 11 11 11 11 11.2 12.3 15.5 15.8 14.6 14 14 14 14.8 15.9 15.1 14.2 14 14 14 14.5 14.2 14 14 14 15.6 17.1 17 16.8 16.7 16.6 16.3 16.1 15.8 15.5 15.2 14.7 13.8 13.6 13.5 13.4 13.3 13.2 13 12.8 13 13.1 13.2 13.5 13.9 14 14.9 15.9 16.8 17.7 18.5 19.2 19.9 20.1 20.2 20.3 20 20.5 21.7 22.9 23.9 25.7 27.8 29.8 32.9 35.2 36 36.9 37.6 38.2 38.8 39 38.9 38 37 35.7 34 34.8 35.4 35.4 35.8 35.8 36.4 37.3 38.4 38.6 39.6 40.8 42.3 43.9 45.5 46.4
6.6 4 -1.2 -1.2 -1.2 -1.2 -1.2 -1.2 -0.2 0 -0.2 -0.4 0 0.3 0.3 0.3 0.3 0.3 0.1 -0.3 -0.8 -1.2 -1.2 -1.2 -1.2 -1.2 -1.2 -1.2 -1.2 -1.2 -1.2 -1.2 -1.2 -1.2 -1.2 -1.2 -1.2 -1.2 -1.2 -1.2 -1.2 -1.2 -1.2 -1.2 -1.2 -1.2 -1.2 -1.2 -1.2 -1.2 -1.2 -1.2 -1.2 -1.2 -1.2 -1.2 -1.2 -1.2 -1.2 -1.2 -1.2 -1.2 -1.2 -1.2 -1.2 -1.2 -1.2 -1.2 -1.2 -1.2 -1.2 -1.2 -1.2 1.9 4 5.5 6.3 7 7.6 8.1 8.4 8.6 9.2 9.9 10.6 9.1 9.8 9.8 10 9.8 9.7 10.1 10.3 10.5 10.6 10.8 11 11.2 11.2 11 11 11 11 11 11 11.2 11.5 13.3 14.2 13.9 15.8 15.9 15.3 15.2 14.7 14 15.7 15.5 15.5 15.5 14 14 14.4 14.7 14.2 14 14 14.2 16.5 16.9 17 16.9 16.8 16.9 16.6 16.3 16.5 16.9 16.2 14.6 14.5 14.1 14 13.8 13.7 13.6 13.4 13 13.2 13.4 13.5 13.7 13.9 16 15.2 16 16.8 17.7 18.5 19.3 20 20.5 20.5 20.6 20.9 21 22.3 23.3 24.4 25.6 27.6 29.6 32.5 34.9 36.1 36.8 37.4 38.1 38.6 39.2 39.6 38.3 37.1 35.9 34 34 34 34.3 35.4 35 35.3 36.5 37.6 39.2 40.4 40.7 40.9 42.4 44 45.2
-1.2 -1.2 -1.2 -1.2 -1.2 -1.2 -1.2 -1.2 -1.2 -1.2 -1.2 -1.2 -0.9 -0.4 -0.4 -0.3 -0.3 -0.3 -0.4 -0.7 -1.2 -1.2 -1.2 -1.2 -1.2 -1.2 -1.2 -1.2 -1.2 -1.2 -1.2 -1.2 -1.2 -1.2 -1.2 -1.2 -1.2 -1.2 -1.2 -1.2 -1.2 -1.2 -1.2 -1.2 -1.2 -1.2 -1.2 -1.2 -1.2 -1.2 -1.2 -1.2 -1.2 -1.2 -1.2 -1.2 -1.2 -1.2 -1.2 -1.2 -1.2 -1.2 -1.2 -1.2 -1.2 -1.2 -1.2 -1.2 -1.2 -1.2 -1.2 -1.2 0.9 3.1 5.1 6.3 6.8 7.6 8.3 9 9.3 9.2 9.2 9.7 10.5 9.4 9.1 9.3 10.5 10.7 10 10.1 10.3 10.6 10.8 11 11.2 11.4 11.7 12.6 11.5 11 11 11 11.9 12.6 12.7 14.1 14 15 15.5 16.2 15.7 15.5 15.7 15.7 15.8 15.9 16 16 15.6 14.6 16 16 14.4 14 14 14.9 15.7 16.1 16.6 17 17 17.1 16.9 17.5 18 18.5 16.7 14.6 14.9 14.7 14.4 14.3 14.1 13.9 13.7 13.3 13.4 13.5 13.7 13.9 14.8 15.4 15.3 16.1 16.9 17.8 18.5 19.1 19.7 20.7 20.9 21.2 21.6 21.9 22.7 23.8 25 26.4 27.8 29.4 32.2 34.8 35.9 36.6 37.2 37.9 38.5 39.4 40.1 39 37.8 35.9 34 34 34 34 34 34 34 35.9 37.9 39.8 40.8 40.8 40.5 40.6 41.8 43.4
-1.2 -1.2 -1.2 -1.2 -1.2 -1.2 -1.2 -1.2 -1.2 -1.2 -1.2 -1.2 -1.2 -1.2 -1.1 -0.9 -0.9 -0.9 -0.9 -1.2 -1.2 -1.2 -1.2 -1.2 -1.2 -1.2 -1.2 -1.2 -1.2 -1.2 -1.2 -1.2 -1.2 -1.2 -1.2 -1.2 -1.2 -1.2 -1.2 -1.2 -1.2 -1.2 -1.2 -1.2 -1.2 -1.2 -1.2 -1.2 -1.2 -1.2 -1.2 -1.2 -1.2 -1.2 -1.2 -1.2 -1.2 -1.2 -1.2 -1.2 -1.2 -1.2 -1.2 -1.2 -1.2 -1.2 -1.2 -1.2 -1.2 -1.2 -1.2 -1.2 2.1 4.4 -1.2 6.5 7.4 8.1 8.9 9.6 9.6 9.6 9.5 9.5 11 9.9 8.8 9.1 10 10.3 10.1 10.2 10.5 10.8 11 11.2 11.4 11.6 11.8 12.7 12.4 11.4 12 12 13 14 14 15.5 15.1 15.4 15.6 16.3 16.1 16.1 16.3 16.4 16.5 16.6 16.7 16.5 16.1 15.7 15.6 15.5 15.3 15.7 14.2 15.7 16.2 16.6 17 17.4 17.6 17.7 18.1 18.9 19.6 19.6 17.9 15.5 16 14.5 14 14 14 14 13.9 13.5 13.6 13.7 13.9 14 15 15.2 15.4 16.2 17 17.7 18.3 18.9 19.5 20.4 21.2 21.5 21.8 22.2 22.9 24 25.1 26.2 27.7 29.2 31.8 34.5 36.3 37.1 37.6 37.8 38.8 39.8 40.6 39.6 38.2 36 34 34 34 34 34 34 34 35.8 38.3 40.7 40.9 40.9 40.9 39.9 39.8 40.7
-1.2 -1.2 -1.2 -1.2 -1.2 -1.2 -1.2 -1.2 -1.2 -1.2 -1.2 -1.2 -1.2 -1.2 -1.2 -1.2 -1.2 -1.2 -1.2 -1.2 -1.2 -1.2 -1.2 -1.2 -1.2 -1.2 -1.2 -1.2 -1.2 -1.2 -1.2 -1.2 -1.2 -1.2 -1.2 -1.2 -1.2 -1.2 -1.2 -1.2 -1.2 -1.2 -1.2 -1.2 -1.2 -1.2 -1.2 -1.2 -1.2 -1.2 -1.2 -1.2 -1.2 -1.2 -1.2 -1.2 -1.2 -1.2 -1.2 -1.2 -1.2 -1.2 -1.2 -1.2 -1.2 -1.2 -1.2 -1.2 -1.2 -1.2 -1.2 -1.2 3.7 -1.2 5.4 6 7.3 8.6 9.3 9.8 9.8 9.7 9.7 10 11 10 9.2 9.7 10.4 10.2 10.2 10.2 10.6 10.9 11.2 11.4 11.7 11.9 12.1 12.6 12.3 12.2 12.8 13.2 14 15.1 15.3 15.2 15.5 15.9 16.2 16.4 16.6 16.7 16.9 17 17.1 17.3 17.3 17 16.7 16.6 16.3 16.2 15.9 16.4 15.5 16.5 17.1 17.5 18 18.5 18.5 18.6 18.7 19.8 20.5 20.3 19 17.4 16.1 14.8 14 14 13.9 13.9 13.8 13.8 13.7 13.8 13.9 13.9 14 14.6 15.5 16.3 17 17.5 18.1 18.7 19.3 20.1 20.3 21.5 21.9 22.6 23.3 24 25 26 27.2 29.1 31.5 34.7 36.4 37.5 37.6 38.2 39 40.1 40.4 40.5 38.9 36.7 34.6 34 34 34 34 34 34 36 38.2 39.2 40.4 40.9 40.4 38.8 37 38.2
-1.2 -1.2 -1.2 -1.2 -1.2 -1.2 -1.2 -1.2 -1.2 -1.2 -1.2 -1.2 -1.2 -1.2 -1.2 -1.2 -1.2 -1.2 -1.2 -1.2 -1.2 -1.2 -1.2 -1.2 -1.2 -1.2 -1.2 -1.2 -1.2 -1.2 -1.2 -1.2 -1.2 -1.2 -1.2 -1.2 -1.2 -1.2 -1.2 -1.2 -1.2 -1.2 -1.2 -1.2 -1.2 -1.2 -1.2 -1.2 -1.2 -1.2 -1.2 -1.2 -1.2 -1.2 -1.2 -1.2 -1.2 -1.2 -1.2 -1.2 -1.2 -1.2 -1.2 -1.2 -1.2 -1.2 -1.2 -1.2 -1.2 -1.2 -1.2 4 5.6 5.4 5.3 5.7 6.7 8.1 8.9 9.3 9.6 9.9 9.8 10.8 10.7 9.6 9.5 10.3 10.1 10.3 10.2 10.3 10.6 10.9 11.2 11.5 11.8 12.1 12.3 12.6 12.3 12.9 13.6 14.3 15.1 16 15.1 15.4 15.7 16.1 16.3 16.6 17 17.3 17.5 17.6 17.7 17.9 18 17.6 17.8 17.3 17.1 16.9 17 18 17.9 18 18.1 18.6 19.1 19.5 19.4 19.5 19.6 20.3 21 19.1 19.5 18.4 17 15.6 14.2 14 13.9 13.8 13.8 13.7 13.7 13.8 13.8 13.9 13.9 14.2 15.6 16.2 16.7 17.3 17.9 18.5 19.2 19.8 19.7 21.1 21.9 22.8 23.6 24.3 25 26.1 26.3 28.4 30.6 34.2 36.2 36.9 37.5 38 38.5 39.5 39.9 40.4 39.6 37.5 34.5 34 34 34.6 34.5 34 34 35.4 36.8 36.2 36.5 37.1 37.1 36 34.3 35
-1.2 -1.2 -1.2 -1.2 -1.2 -1.2 -1.2 -1.2 -1.2 -1.2 -1.2 -1.2 -1.2 -1.2 -1.2 -1.2 -1.2 -1.2 -1.2 -1.2 -1.2 -1.2 -1.2 -1.2 -1.2 -1.2 -1.2 -1.2 -1.2 -1.2 -1.2 -1.2 -1.2 -1.2 -1.2 -1.2 -1.2 -1.2 -1.2 -1.2 -1.2 -1.2 -1.2 -1.2 -1.2 -1.2 -1.2 -1.2 -1.2 -1.2 -1.2 -1.2 -1.2 -1.2 -1.2 -1.2 -1.2 -1.2 -1.2 -1.2 -1.2 -1.2 -1.2 -1.2 -1.2 -1.2 -1.2 -1.2 -1.2 -1.2 5.6 5.6 5.7 5.7 5.7 5.6 6.1 7.4 8.4 8.8 9.1 9.4 9.8 11 10.1 9 9.2 9 10.1 10.3 10.3 10.3 10.6 10.9 11.2 11.5 11.9 12.2 12.5 12.7 13 13.7 14.1 14.6 14.5 15.2 15.2 15.5 15.8 16.1 16.4 16.7 17 17.5 18 18.2 18.3 18.6 18.6 18.7 18.7 18.1 17.8 17.6 18.5 19.4 20.4 19.6 19.8 20 20.2 20.3 20.2 20 19.9 19.8 21 19 19.1 19.2 17.9 16.6 15.2 14 13.9 13.9 13.8 13.7 13.7 13.8 13.9 13.9 14 14 15.6 16 16.5 17.1 17.7 18.3 19 19.9 20.5 20.8 21.6 22.4 23.3 24.2 25.2 26.1 27.3 28.7 30 32.6 35.5 36.1 36.7 37.1 37.6 39 39.9 41 40.4 37.4 34.5 34 34 35.3 35.5 34.9 34.3 34 34.5 34.5 34.4 34.4 34.6 34.3 34 34
-1.2 -1.2 -1.2 -1.2 -1.2 -1.2 -1.2 -1.2 -1.2 -1.2 -1.2 -1.2 -1.2 -1.2 -1.2 -1.2 -1.2 -1.2 -1.2 -1.2 -1.2 -1.2 -1.2 -1.2 -1.2 -1.2 -1.2 -1.2 -1.2 -1.2 -1.2 -1.2 -1.2 -1.2 -1.2 -1.2 -1.2 -1.2 -1.2 -1.2 -1.2 -1.2 -1.2 -1.2 -1.2 -1.2 -1.2 -1.2 -1.2 -1.2 -1.2 -1.2 -1.2 -1.2 -1.2 -1.2 -1.2 -1.2 -1.2 -1.2 -1.2 -1.2 -1.2 -1.2 -1.2 -1.2 -1.2 -1.2 -1.2 5.4 5.6 5.7 5.7 5.7 5.8 5.8 5.9 7.4 7.9 8.2 8.6 8.9 9.3 9.7 9.4 9 9.4 11 10.1 10.2 10.4 10.3 10.6 10.9 11.3 11.6 11.9 12.2 12.5 12.9 13.2 13.5 13.9 14.4 14.6 14.5 15.1 15.5 15.8 16.1 16.4 16.7 17.1 17.5 17.9 18.4 18.9 19.3 19.4 19.8 19.4 18.8 18.6 19.1 19.9 20.7 20.9 20.8 21 21.2 21.3 21 20.7 20.5 20.2 19.9 19 19 19.1 19.2 19.1 17.8 16.2 14.3 14 13.9 13.8 13.6 13.6 13.8 13.9 13.9 14 14 15.9 16.1 16.3 16.9 17.6 18.4 19.2 19.8 20.5 20.6 21.4 22.1 22.9 23.8 24.7 25.6 27 28.3 29.6 31.3 33.2 35.1 35.7 36.1 36.6 37.9 39.3 40.5 40.1 37.4 34.6 35.6 35.9 37.3 35.9 35.2 34.1 34 34.1 33.5 32.4 32.5 32.6 33 34 34
-1.2 -1.2 -1.2 -1.2 -1.2 -1.2 -1.2 -1.2 -1.2 -1.2 -1.2 -1.2 -1.2 -1.2 -1.2 -1.2 -1.2 -1.2 -1.2 -1.2 -1.2 -1.2 -1.2 -1.2 -1.2 -1.2 -1.2 -1.2 -1.2 -1.2 -1.2 -1.2 -1.2 -1.2 -1.2 -1.2 -1.2 -1.2 -1.2 -1.2 -1.2 -1.2 -1.2 -1.2 -1.2 -1.2 -1.2 -1.2 -1.2 -1.2 -1.2 -1.2 -1.2 -1.2 -1.2 -1.2 -1.2 -1.2 -1.2 -1.2 -1.2 -1.2 -1.2 -1.2 -1.2 -1.2 -1.2 5 5.2 5.4 5.5 5.7 5.8 5.8 5.8 5.9 5.9 7.4 7.4 7.8 8.2 8.8 9.4 10.4 9.8 9 11 11 10.2 10.2 10.4 10.4 10.7 11 11.3 11.6 11.9 12.3 12.6 13 13.4 13.7 14 14.3 14.6 14.3 14.9 15.4 15.8 16.1 16.4 16.7 17.1 17.5 17.9 18.4 18.9 19.3 20.9 21 20.4 19.3 19.7 20.2 20.9 21.7 22 22 22.1 22.2 22.4 21.9 21.2 21 20.7 20.6 20.4 19 19.1 19.4 20.2 18.9 17.2 15.2 14 13.9 13.8 13.6 13.6 13.7 13.8 14 14 14 14.3 15.1 15.6 16.5 17.1 17.7 18.4 19.1 19.9 20.6 21.2 21.8 22.5 23.4 24.3 25.2 26.5 27.7 28.9 29.7 30.8 32 33.8 35.2 35.7 36.7 37.9 38.6 38.3 36.3 34.2 36.1 38.7 38.4 36.5 35.6 34 34 33.4 32 30.7 30.5 31 32.7 34.3 34
-1.2 -1.2 -1.2 -1.2 -1.2 -1.2 -1.2 -1.2 -1.2 -1.2 -1.2 -1.2 -1.2 -1.2 -1.2 -1.2 -1.2 -1.2 -1.2 -1.2 -1.2 -1.2 -1.2 -1.2 -1.2 -1.2 -1.2 -1.2 -1.2 -1.2 -1.2 -1.2 -1.2 -1.2 -1.2 -1.2 -1.2 -1.2 -1.2 -1.2 -1.2 -1.2 -1.2 -1.2 -1.2 -1.2 -1.2 -1.2 -1.2 -1.2 -1.2 -1.2 -1.2 -1.2 -1.2 -1.2 -1.2 -1.2 -1.2 -1.2 -1.2 -1.2 -1.2 6.6 5.4 5 5 4.9 5.2 5.3 5.4 5.6 5.8 5.8 5.9 5.9 7.4 7.4 7.4 7.9 8.5 9.1 9.9 11 9.8 10.5 11 11 10.2 10.3 10.4 10.5 10.7 11 11.3 11.7 12 12.4 12.8 13.2 13.5 13.8 14.1 14.4 15 14.6 14.8 15.2 15.8 16.1 16.4 16.8 17.2 17.5 17.9 18.3 18.8 19.2 20.8 20.4 20.6 21.1 21.3 21.6 22.3 23 23.2 23.1 23.2 23.3 23.5 22.7 22 21.6 21.6 21.6 21.1 19.9 19 19 20 19.9 18 16.2 14.3 13.9 13.8 13.6 13.4 13.5 13.6 13.8 14 14 14 14 14.5 15.7 16.3 17 17.8 18.5 19.3 20.2 21.2 21.9 22.6 23 23.8 24.7 25.8 27 27.8 28.8 29.4 29.7 31.5 33.3 34.9 35.3 36.2 36.8 36.5 36.4 34 34.2 36.1 36.2 36.3 35.9 34 34 33.6 32.5 29.9 29.2 30.4 32.4 34.6 34
-1.2 -1.2 -1.2 -1.2 -1.2 -1.2 -1.2 -1.2 -1.2 -1.2 -1.2 -1.2 -1.2 -1.2 -1.2 -1.2 -1.2 -1.2 -1.2 -1.2 -1.2 -1.2 -1.2 -1.2 -1.2 -1.2 -1.2 -1.2 -1.2 -1.2 -1.2 -1.2 -1.2 -1.2 -1.2 -1.2 -1.2 -1.2 -1.2 -1.2 -1.2 -1.2 -1.2 -1.2 -1.2 -1.2 -1.2 -1.2 -1.2 -1.2 -1.2 -1.2 -1.2 -1.2 -1.2 -1.2 -1.2 -1.2 -1.2 -1.2 -1.2 -1.2 -1.2 5 5 5 5 5 5.1 5.3 5.4 5.5 5.7 5.9 5.9 5.9 7.4 7.4 7.6 8.2 8.8 9.4 10.4 10.7 9 10.9 10.8 11 10.4 10.4 10.4 10.5 10.7 11.1 11.5 11.8 12.2 12.6 12.9 13.3 13.7 14 14.3 14.6 14.2 15.1 15.3 15.5 15.8 16.1 16.5 16.8 17.2 17.6 17.9 18.3 18.8 19.7 20.3 20.8 21.7 22.6 22.7 23.1 23.7 24.4 24.6 24.4 24.3 24.4 24.3 23.5 23.1 22.7 22.7 22.7 21.9 20.7 19.5 19 21 20.8 18.2 18.1 17.4 14.6 14.1 13.7 13.3 13.2 13.3 13.4 13.8 14 14 14 14 14.9 15.6 16.4 17.3 18.1 18.9 20.3 21.2 22.1 22.6 22.7 23.4 24.2 25.1 26.1 27.2 28 28.6 29.1 30.1 31.4 32.9 34.5 34.6 35.3 35.9 36 34 34.4 34.7 34.5 35 35.6 35.9 35.9 35.9 33.1 29.3 29.6 30.8 32.9 34.7 35.7
-1.2 -1.2 -1.2 -1.2 -1.2 -1.2 -1.2 -1.2 -1.2 -1.2 -1.2 -1.2 -1.2 -1.2 -1.2 -1.2 -1.2 -1.2 -1.2 -1.2 -1.2 -1.2 -1.2 -1.2 -1.2 -1.2 -1.2 -1.2 -1.2 -1.2 -1.2 -1.2 -1.2 -1.2 -1.2 -1.2 -1.2 -1.2 -1.2 -1.2 -1.2 -1.2 -1.2 -1.2 -1.2 -1.2 -1.2 -1.2 -1.2 -1.2 -1.2 -1.2 -1.2 -1.2 -1.2 -1.2 -1.2 -1.2 -1.2 -1.2 -1.2 -1.2 5.5 5.3 5.3 5.3 5.3 5.1 5.1 5.2 5.3 5.5 5.6 5.8 5.9 5.9 5.9 5.9 7.8 8.3 8.9 9.5 10.2 10 9.3 10.2 10.8 10.7 10.7 10.7 10.6 10.5 10.9 11.2 11.6 12 12.3 12.7 13.1 13.5 13.8 14.2 14.5 14.8 14.2 15.1 15.7 15.8 15.9 15.9 16.3 16.7 17.1 17.4 17.8 18.2 18.8 19.7 20.9 21.9 22.8 23.8 24.3 24.3 25.2 26.2 27 26.4 25.9 25.5 24.9 24.5 24 23.9 23.8 23.8 22.6 21.4 20.4 19 20.8 20.3 19.1 20 20.3 18.1 14.2 13.8 13.4 13.1 13.1 13.1 13.6 14 14 14 14 13.9 15.3 16 16.9 17.7 19 20.4 21.2 22.1 22.3 22.5 23 23.8 25 25.5 26.4 27.2 27.8 28.3 28.9 30.2 31.5 32.9 34.4 35.7 35.8 35.9 34.9 34.3 32.8 32.3 32.8 33.8 35.4 35.9 35.8 32.4 29 29.7 31.6 33.6 34.7 35.8
-1.2 -1.2 -1.2 -1.2 -1.2 -1.2 -1.2 -1.2 -1.2 -1.2 -1.2 -1.2 -1.2 -1.2 -1.2 -1.2 -1.2 -1.2 -1.2 -1.2 -1.2 -1.2 -1.2 -1.2 -1.2 -1.2 -1.2 -1.2 -1.2 -1.2 -1.2 -1.2 -1.2 -1.2 -1.2 -1.2 -1.2 -1.2 -1.2 -1.2 -1.2 -1.2 -1.2 -1.2 -1.2 -1.2 -1.2 -1.2 -1.2 -1.2 -1.2 -1.2 -1.2 -1.2 -1.2 -1.2 -1.2 -1.2 -1.2 -1.2 -1.2 5.6 5.9 5.7 5.7 5.7 5.6 5.4 5.4 5.4 5.4 5.4 5.6 5.8 5.9 5.9 5.9 6.3 7 7.8 8.6 9.6 10.7 10.7 9.2 10.5 10.9 10.9 10.7 10.6 10.5 10.5 10.9 11.4 11.7 12.1 12.5 12.9 13.2 13.6 14 14.3 14.6 14.3 14 15.1 15.4 15.2 15.2 15.6 16 16.4 16.8 17.1 17.7 18.2 18.7 19.5 21.3 22.6 24 24.4 25.4 26.6 27.7 28.6 29.4 29.8 29.2 28.3 26.4 25.9 24 24.5 24.9 24.5 23.4 22.5 21.6 20.7 20.7 20 19.7 19.9 20.2 19.6 16.5 13.9 13.5 13.1 13 13 13.2 13.7 13.7 13.7 13.7 13.9 14.9 15.6 16.5 17.6 19.2 20.5 21.1 21.6 21.8 22.1 22.5 23.3 23.9 25.9 25.4 26.3 26.9 27.5 28.2 28.9 29.9 31.8 34.1 36 36 36 34.8 32.3 30.8 30 30.7 32.1 33.6 34.7 33.1 30.9 29.1 30.6 32.4 34.3 35.6 36
-1.2 -1.2 -1.2 -1.2 -1.2 -1.2 -1.2 -1.2 -1.2 -1.2 -1.2 -1.2 -1.2 -1.2 -1.2 -1.2 -1.2 -1.2 -1.2 -1.2 -1.2 -1.2 -1.2 -1.2 -1.2 -1.2 -1.2 -1.2 -1.2 -1.2 -1.2 -1.2 -1.2 -1.2 -1.2 -1.2 -1.2 -1.2 -1.2 -1.2 -1.2 -1.2 -1.2 -1.2 -1.2 -1.2 -1.2 -1.2 -1.2 -1.2 -1.2 -1.2 -1.2 -1.2 -1.2 -1.2 -1.2 -1.2 -1.2 -1.2 5.6 5.6 6.1 6.2 6.1 6 5.6 5.6 5.6 5.6 5.6 5.6 5.7 5.9 5.9 5.9 6.2 6.8 7.5 8.3 9 9.7 11 10.6 10.1 10.6 10.9 10.7 10.6 10.5 10.4 10.5 11 11.4 11.9 12.2 12.6 13 13.4 13.8 14.1 14.5 14.8 14 14.2 15.1 15.5 14.9 14.7 15.3 15.8 16.1 16.6 17.1 17.6 18.1 18.7 19.7 21.7 23.7 25 25.6 27.1 29.3 30.4 30.6 31 31.5 30.9 30.1 28.6 25.8 24.9 24.9 25.9 25.5 24.6 23.7 22.6 21.6 21.4 21 20.8 21 21.2 20.5 16.8 14 13.6 13.2 13 13 12.9 13.3 13.4 13.4 13.7 13.9 14.9 15.6 16.2 17.8 19.2 20.5 21.1 21.1 21.3 21.6 21.5 21.1 21.6 23.6 24 24.9 26.2 26.7 27.4 28.2 28.9 30.5 32 32.8 35 36 33.8 31.3 29.3 29 29.4 30.3 31.2 30.9 29.8 29 29.8 31.7 33.7 34.9 35.5 36
-1.2 -1.2 -1.2 -1.2 -1.2 -1.2 -1.2 -1.2 -1.2 -1.2 -1.2 -1.2 -1.2 -1.2 -1.2 -1.2 -1.2 -1.2 -1.2 -1.2 -1.2 -1.2 -1.2 -1.2 -1.2 -1.2 -1.2 -1.2 -1.2 -1.2 -1.2 -1.2 -1.2 -1.2 -1.2 -1.2 -1.2 -1.2 -1.2 -1.2 -1.2 -1.2 -1.2 -1.2 -1.2 -1.2 -1.2 -1.2 -1.2 -1.2 -1.2 -1.2 -1.2 -1.2 -1.2 -1.2 -1.2 -1.2 -1.2 5.4 5.5 5.7 6 6.5 6.4 5.9 5.8 5.8 5.8 5.8 5.9 5.9 6 6 6 6.4 6.8 7.3 8 8.6 9.2 9.9 11 9 9 10.5 10.9 10.6 10.5 10.4 10.3 10.6 11 11.5 11.9 12.4 12.7 13.1 13.5 13.9 14.3 14.6 14.3 14 14 15.4 15.5 14.8 14 15 15.5 16 16.5 17 17.5 18.1 18.8 20 22 23.9 25.8 27.4 28.6 30 31.6 31.8 32.4 32.9 32.5 31.7 30.4 28.2 26.9 26.4 26 26.1 25.8 25 23.6 22.7 22.3 22.2 22 22 22.2 21.3 18.8 14.2 13.8 13.3 13 13 12.9 12.9 13.1 13.4 13.7 13.9 14.2 14.8 16.2 17 18.7 20 19.9 19.8 20.7 20.5 20.3 19.7 19.6 21.2 21.1 24.2 25.9 26 26.7 27.4 28.2 29.2 29.5 29.6 31.1 32.7 32.5 30.3 29.2 29 29 29.2 29 29.1 29 29.5 31.1 33.1 34.6 35.8 35.6 35.8
-1.2 -1.2 -1.2 -1.2 -1.2 -1.2 -1.2 -1.2 -1.2 -1.2 -1.2 -1.2 -1.2 -1.2 -1.2 -1.2 -1.2 -1.2 -1.2 -1.2 -1.2 -1.2 -1.2 -1.2 -1.2 -1.2 -1.2 -1.2 -1.2 -1.2 -1.2 -1.2 -1.2 -1.2 -1.2 -1.2 -1.2 -1.2 -1.2 -1.2 -1.2 -1.2 -1.2 -1.2 -1.2 -1.2 -1.2 -1.2 -1.2 -1.2 -1.2 -1.2 -1.2 -1.2 -1.2 -1.2 -1.2 -1.2 5.5 5.5 5.6 5.7 5.9 6.5 6.6 6.1 6 6 6 6.1 6.1 6.2 6.2 6.1 6.3 6.7 7.1 7.5 8 8.6 9.3 9.9 10.8 9.4 9 11 10.9 10.6 10.4 10.3 10.2 10.7 11.1 11.5 12 12.4 12.9 13.2 13.6 14 14.4 14.8 14.9 14 14 14.1 14 14.3 14 14.9 15.3 15.9 16.4 16.9 17.5 18.2 18.9 20.2 22.2 24 25.7 27.6 30.3 30.8 32.1 33.1 33.7 34.3 34.2 33.2 32.2 29.8 28.5 28 27.7 27.5 26.8 25.5 24.3 23.5 23.4 23.3 23.2 23.1 23 22.3 21 17.5 13.9 13.7 13.3 13.3 13.3 13.1 13.2 13.4 13.7 14 14 14 15.8 14.8 16.7 18.8 19.4 18.3 18.9 19.3 19 19.4 19.7 19 19.1 20.7 24.2 24.8 25.9 26.6 27.5 28.5 29.6 29.1 29.4 29.4 30.9 30.6 29 29.1 29 29.8 29.6 29.9 30.4 31.2 32.3 34.2 36 36 35.7 35.9
-1.2 -1.2 -1.2 -1.2 -1.2 -1.2 -1.2 -1.2 -1.2 -1.2 -1.2 -1.2 -1.2 -1.2 -1.2 -1.2 -1.2 -1.2 -1.2 -1.2 -1.2 -1.2 -1.2 -1.2 -1.2 -1.2 -1.2 -1.2 -1.2 -1.2 -1.2 -1.2 -1.2 -1.2 -1.2 -1.2 -1.2 -1.2 -1.2 -1.2 -1.2 -1.2 -1.2 -1.2 -1.2 -1.2 -1.2 -1.2 -1.2 -1.2 -1.2 -1.2 -1.2 -1.2 -1.2 -1.2 4.8 5.7 5.8 5.9 5.9 6 6.1 6.2 6.8 6.3 6.2 6.3 6.3 6.4 6.4 6.4 6.2 6.2 6.5 6.9 7.3 7.7 8.2 8.8 9.3 9.9 10.9 9.6 9 11 10.9 10.6 10.4 10.1 10.3 10.7 11.2 11.6 12 12.5 12.9 13.4 13.7 14.1 14.5 14.8 16 16 14.3 14.1 14 14 14.8 15.7 15.7 15.6 16.3 16.9 17.5 18.2 19 20.5 22.4 24 25.6 27.6 30 31.5 32.7 34.1 35.2 35.1 35.3 35.1 34.5 32.1 30.5 29.7 29.5 29.5 28.3 26.7 25 24.2 23.9 24.6 24.5 24.2 24 24.3 23.2 21.8 18.7 15.3 13.9 14.1 13.8 13.1 13.4 13.6 13.9 14 15.8 14.5 14.2 15.1 17.1 18.6 19.5 19.6 17.5 19 20 20.8 20.5 20.7 20.6 19.9 19.2 22 25.2 26.1 26.6 27.8 28.8 29.8 29.1 29.2 30.6 30.4 29.1 29 29.8 30.6 31.4 31.7 32 32.8 33.8 34.2 36 35.8 35.7 36.2
-1.2 -1.2 -1.2 -1.2 -1.2 -1.2 -1.2 -1.2 -1.2 -1.2 -1.2 -1.2 -1.2 -1.2 -1.2 -1.2 -1.2 -1.2 -1.2 -1.2 -1.2 -1.2 -1.2 -1.2 -1.2 -1.2 -1.2 -1.2 -1.2 -1.2 -1.2 -1.2 -1.2 -1.2 -1.2 -1.2 -1.2 -1.2 -1.2 -1.2 -1.2 -1.2 -1.2 -1.2 -1.2 -1.2 -1.2 -1.2 -1.2 -1.2 -1.2 -1.2 -1.2 -1.2 -1.2 5.7 5.8 5.9 6 6.1 6.1 6.2 6.3 6.4 6.7 7.2 6.5 6.5 6.6 6.6 6.6 6.4 6.3 6.4 6.7 7.1 7.5 7.8 8.3 9 9.5 10 10.5 9.1 10.5 11 11 11 10.7 10.5 10.3 10.7 11.2 11.7 12.1 12.5 13 13.4 13.9 14.2 14.6 15.5 16 16 16 14 14 14 14 14 14.7 15.4 16 16.7 17.6 18.3 19.1 20.7 22.3 24.1 26 28.3 30.5 31.8 32.9 34.2 35.7 35.4 36.2 36 35.5 34.8 32.9 32.3 31.3 31 29.5 27.8 26.1 24.5 24 24.4 25.6 25.5 25.7 25.7 25.4 23.5 22.1 18.8 15.6 14.4 13.7 13.2 13.2 13.8 14 14.3 14.9 14.4 14.1 15.2 18.5 20.7 20.7 20.4 19.8 20.7 21.7 22.3 22.5 22.7 22.5 21.9 20 19.7 23.2 25.8 25.9 27 28 29.1 29.8 30.2 28.5 25.5 27.5 29.8 30.2 31.1 32.1 33.1 33.8 34.1 34.6 35.4 35.7 36 35.8 36.1
-1.2 -1.2 -1.2 -1.2 -1.2 -1.2 -1.2 -1.2 -1.2 -1.2 -1.2 -1.2 -1.2 -1.2 -1.2 -1.2 -1.2 -1.2 -1.2 -1.2 -1.2 -1.2 -1.2 -1.2 -1.2 -1.2 -1.2 -1.2 -1.2 -1.2 -1.2 -1.2 -1.2 -1.2 -1.2 -1.2 -1.2 -1.2 -1.2 -1.2 -1.2 -1.2 -1.2 -1.2 -1.2 -1.2 -1.2 -1.2 -1.2 -1.2 -1.2 -1.2 -1.2 -1.2 5.7 5.9 6 6.1 6.2 6.2 6.3 6.4 6.5 6.8 7 7.3 7 6.8 6.8 6.9 6.6 6.4 6.5 6.6 6.9 7.3 7.6 8 8.4 9.1 9.7 10.3 10.1 9 10 11 11 11 11 11 10.2 10.6 11.1 11.6 12 12.5 13 13.5 13.9 14.4 14.5 15.9 16 16 16 14 14 14 14 14 14.5 15.2 15.9 16.5 17.5 18.5 19.3 21.3 23 24.5 26.5 29 30.8 31.9 33 34.6 35.8 35.2 36 36.8 36.3 35.7 35.1 34 32.6 31.5 30.5 28.9 27.3 25.6 24.2 24.7 25.7 25.8 26.7 26.9 26.3 25.6 25.2 22.1 18.3 15 13.6 13.3 13.1 14 14.3 14.6 14.6 14.3 13.9 15 18.3 20.1 20.3 20.6 20 20.2 21.6 23.4 23.4 24.1 24.6 24.4 23.4 20.7 20.6 23.9 25.4 26 27 28 28.5 29.8 25.7 24.4 27.5 30.7 30.2 31.2 32.3 33.3 34.3 35.4 36 35.9 35.3 35.7 35.4 35.1
-1.2 -1.2 -1.2 -1.2 -1.2 -1.2 -1.2 -1.2 -1.2 -1.2 -1.2 -1.2 -1.2 -1.2 -1.2 -1.2 -1.2 -1.2 -1.2 -1.2 -1.2 -1.2 -1.2 -1.2 -1.2 -1.2 -1.2 -1.2 -1.2 -1.2 -1.2 -1.2 -1.2 -1.2 -1.2 -1.2 -1.2 -1.2 -1.2 -1.2 -1.2 -1.2 -1.2 -1.2 -1.2 -1.2 -1.2 -1.2 -1.2 -1.2 -1.2 -1.2 -1.2 5.3 5.9 6.1 6.2 6.3 6.4 6.5 6.6 6.7 6.8 7.1 7.4 7.3 7.1 7.1 7.1 6.8 6.6 6.6 6.6 6.8 7.2 7.5 7.8 8.2 8.6 9.1 9.9 10.5 9.4 9 10.6 11 11 11 11 11 10 10.3 10.8 11.3 11.8 12.2 12.7 13.2 13.6 14.2 14.7 14.8 15.4 15.3 15.1 14 14 14 14 14 14 15 15.7 16.4 17.4 18.3 19.9 21.8 23.3 24.9 27 29.8 31 31.8 32.6 33.8 35 35.5 35.6 36.7 36.4 35.7 35.3 34.9 33.6 31.7 30.9 30 28.5 27 25.6 24.6 25.3 26.1 27.3 28 27.5 26.7 26 24.1 21.1 18.1 14.7 14.3 13.2 13.6 14.2 14.5 14.5 14.6 13.9 14.6 16.6 18.3 19.8 20.5 20.2 20.6 21.9 23.4 24.3 24.9 25.8 25.8 25.5 25 24 24.3 25.5 25.8 25 25.8 25.4 24.4 24 25.8 28.5 30.7 30.4 31.4 32.4 33.5 34.3 35.1 36 36 35.2 35.5 34 34.8
-1.2 -1.2 -1.2 -1.2 -1.2 -1.2 -1.2 -1.2 -1.2 -1.2 -1.2 -1.2 -1.2 -1.2 -1.2 -1.2 -1.2 -1.2 -1.2 -1.2 -1.2 -1.2 -1.2 -1.2 -1.2 -1.2 -1.2 -1.2 -1.2 -1.2 -1.2 -1.2 -1.2 -1.2 -1.2 -1.2 -1.2 -1.2 -1.2 -1.2 -1.2 -1.2 -1.2 -1.2 -1.2 -1.2 -1.2 -1.2 -1.2 -1.2 -1.2 -1.2 5.7 5.9 5.9 6.3 6.4 6.5 6.6 6.7 6.9 7 7.1 7.4 7.5 7.3 7.1 7.2 7 6.7 6.7 6.7 6.8 7 7.4 7.7 8 8.4 8.7 9.2 9.9 10.7 9 9 10.3 11 11 11 11 11 9.8 10 10.4 10.9 11.3 11.7 12.1 12.6 13.2 14.1 15 15.1 15.4 15.8 15.2 14 14 14 14 14 14 14.3 15.5 16.4 16.8 18.3 19.7 21.7 23.5 25.3 27.4 29.1 30.6 30.8 31.7 33.5 34.2 34.8 34.9 35.7 35.8 35.8 35.6 35.5 33.2 32.1 31 30.4 29 27.5 26.9 26.5 26.4 27.4 28.1 28.9 28.6 28.2 28 26.1 23.5 21.1 17.8 14.5 13.4 13.6 14.3 14.4 14.5 14.5 14.2 14.1 15.6 16.7 18.2 19.7 20.4 20.8 21.8 23.2 24.3 26 25.9 25.9 25.6 25.7 24.4 24 24.1 25 24 24 24.1 25.1 25.4 27.3 29.7 30.6 30.5 31.6 32.4 33.1 33.9 34.7 35.5 35.1 34.1 33.2 33.2 35.3
-1.2 -1.2 -1.2 -1.2 -1.2 -1.2 -1.2 -1.2 -1.2 -1.2 -1.2 -1.2 -1.2 -1.2 -1.2 -1.2 -1.2 -1.2 -1.2 -1.2 -1.2 -1.2 -1.2 -1.2 -1.2 -1.2 -1.2 -1.2 -1.2 -1.2 -1.2 -1.2 -1.2 -1.2 -1.2 -1.2 -1.2 -1.2 -1.2 -1.2 -1.2 -1.2 -1.2 -1.2 -1.2 -1.2 -1.2 -1.2 -1.2 -1.2 -1.2 5.8 6 6.2 6.4 6.5 6.7 6.8 6.9 7 7.1 7.2 7.5 7.7 7.5 7.3 7.1 7 6.8 6.8 6.8 6.9 6.9 7.2 7.6 7.9 8.2 8.6 8.9 9.3 10 10.7 10.1 9 11 10.8 11 11 11 11 9.8 10.7 10.8 10.3 10.7 11.1 11.5 12.2 13.1 14 14.9 15.4 15.7 15.9 15.7 14 14 14 14 14 14 14 15.3 15.5 16.8 18.2 19.7 21.4 23.9 25.7 26.7 28.4 29.9 29.7 31.8 32.7 33.3 33.9 34.6 34.9 35.6 34.5 35.5 34.2 32.8 31.7 30.6 30 29.4 28.5 28.2 27.9 27.6 28.8 29.5 30.2 31 31 30.5 28.6 26.3 24 20.3 17.2 14 13.8 14.3 14.4 14.4 14.4 14.8 14.9 15.9 16.4 17.2 18.9 19.8 20.2 21.4 22.7 24.2 25.7 26 26 25.8 26 26 24.7 24.4 24.2 24 25.5 25.5 26.2 27.1 28.5 30.7 31 30.4 31.1 31.9 32.7 33.4 34.3 34.4 34 32.4 32.1 33.6 35.5
-1.2 -1.2 -1.2 -1.2 -1.2 -1.2 -1.2 -1.2 -1.2 -1.2 -1.2 -1.2 -1.2 -1.2 -1.2 -1.2 -1.2 -1.2 -1.2 -1.2 -1.2 -1.2 -1.2 -1.2 -1.2 -1.2 -1.2 -1.2 -1.2 -1.2 -1.2 -1.2 -1.2 -1.2 -1.2 -1.2 -1.2 -1.2 -1.2 -1.2 -1.2 -1.2 -1.2 -1.2 -1.2 -1.2 -1.2 -1.2 5.5 5.8 6 6.2 6.4 6.6 6.7 6.8 6.9 7.1 7.2 7.3 7.4 7.5 7.8 7.7 7.5 7.4 7.2 7 6.9 6.9 7 7 7.1 7.4 7.8 8.1 8.5 8.8 9.1 9.5 10.1 10.9 9.3 10.7 9.8 9.8 10.9 10.6 10.9 11 10.6 9.3 9 9 9.4 10.5 11.3 12.2 13 13.9 14.9 15.3 15.5 15.6 15.9 14 14 14 14 14 13.9 13.9 13.9 14.8 16.3 17.9 19.5 21.2 23.5 25.9 26 27.2 28 29.4 31.1 31.5 31.9 32.9 33.8 34 35.1 34.9 34.1 33.2 32.4 31.5 30.8 29.9 29.2 29 28.7 28.4 28.1 29.3 30.6 31 31 31 31 30.3 28.2 26 24.1 20.8 16.2 14 14.3 14.3 14.3 14.3 15.1 15.3 15.6 15.9 16.5 17.5 18.5 19.5 20.8 22 23.4 24.8 25.7 26.1 26.2 26.3 26.4 26.3 25.5 25 24.5 24.5 25.6 26.3 27.4 28.7 29.7 30.2 31.2 31.6 31.8 32.2 33 33.1 33.2 32.9 32.2 32.2 33.9 35.3
-1.2 -1.2 -1.2 -1.2 -1.2 -1.2 -1.2 -1.2 -1.2 -1.2 -1.2 -1.2 -1.2 -1.2 -1.2 -1.2 -1.2 -1.2 -1.2 -1.2 -1.2 -1.2 -1.2 -1.2 -1.2 -1.2 -1.2 -1.2 -1.2 -1.2 -1.2 -1.2 -1.2 -1.2 -1.2 -1.2 -1.2 -1.2 -1.2 -1.2 -1.2 -1.2 -1.2 -1.2 -1.2 -1.2 5.7 5.8 5.6 6.2 6.4 6.6 6.7 6.9 7 7.1 7.2 7.3 7.4 7.6 7.7 7.9 7.9 7.8 7.6 7.4 7.2 7.1 7.1 7.1 7.1 7.2 7.3 7.6 8 8.3 8.7 9 9.3 9.7 10.3 10.4 9 11 10.6 12.4 10.7 9.5 10.9 10 9.1 9.2 9.3 9.1 9 10.3 11.2 12.1 13 13.8 14.4 14.6 14.9 15.4 15.3 14 13.9 13.8 13.8 13.7 13.7 13.7 13.7 14.7 16.3 17.8 19.1 20.9 22.7 24.9 24.8 25.5 26.4 27.9 29.5 30.5 31.5 32.4 33.2 32.8 33.6 33.4 33.3 32.8 32 31.2 30.9 29.6 29 29.2 29.1 28.8 28.7 29.3 30.9 31 31 31 31.3 30.9 29.3 27.2 26 23.9 19.3 15.4 14.2 14.2 14.2 14.3 15.3 15.3 16 14.4 15.6 16 17.1 18.2 19.1 20.6 22.4 23.8 25.5 26.1 26.3 26.3 26.3 26.2 26.2 26.3 26.2 25.1 25.2 27 28.2 29.4 29.9 29.8 30.7 31.2 31.5 31.8 32.1 32.1 32.1 32.5 33.2 33.7 34.2 35
-1.2 -1.2 -1.2 -1.2 -1.2 -1.2 -1.2 -1.2 -1.2 -1.2 -1.2 -1.2 -1.2 -1.2 -1.2 -1.2 -1.2 -1.2 -1.2 -1.2 -1.2 -1.2 -1.2 -1.2 -1.2 -1.2 -1.2 -1.2 -1.2 -1.2 -1.2 -1.2 -1.2 -1.2 -1.2 -1.2 -1.2 -1.2 -1.2 -1.2 -1.2 -1.2 -1.2 4 5.7 5.8 6 6.2 6.4 6.5 6.8 6.9 7 7.1 7.2 7.4 7.5 7.6 7.7 7.8 7.9 8.2 8 7.8 7.6 7.5 7.5 7.4 7.4 7.4 7.3 7.3 7.5 7.8 8.2 8.8 9.3 9.7 10.1 10.3 10.9 9 9 11 11.6 12.9 11 11 9.5 9.2 9 9 9 9 9 9.8 10.9 11.8 12.7 13.6 14.3 15.5 15 15.2 15.6 14.3 13.5 13.3 13.4 13.5 13.5 13.4 13.9 14.8 16.1 17.4 18.8 20.8 22.1 22.9 23.4 23.9 25.6 27.7 28.6 30.1 31 31.7 32.5 31.8 32 32.1 32.1 31.9 31.6 30.9 30.5 28.8 28.2 28.4 28.6 28.8 29.5 29 30.3 31 31 31.3 31.5 31 30.6 28.7 27.5 25.6 21.6 17.7 15.7 14.4 14.1 14.4 14.7 14 15.5 15 14.7 15.8 16.4 17 17.1 19.2 21.2 22.8 24.9 26.1 26.3 26.3 26.2 26.2 26.2 26.6 26.7 26.8 26.2 27.9 29.2 29.5 29.7 30 29.9 30.3 30.6 31 31.4 31.7 32.1 32.4 33.1 33.8 34.4 35
-1.2 -1.2 -1.2 -1.2 -1.2 -1.2 -1.2 -1.2 -1.2 -1.2 -1.2 -1.2 -1.2 -1.2 -1.2 -1.2 -1.2 -1.2 -1.2 -1.2 -1.2 -1.2 -1.2 -1.2 -1.2 -1.2 -1.2 -1.2 -1.2 -1.2 -1.2 0.3 0.3 0.5 0.6 -1.2 -1.2 -1.2 -1.2 -1.2 3.9 5.7 5.7 5.8 5.9 5.9 6.3 6.5 6.7 6.9 7.1 7.2 7.3 7.4 7.5 7.6 7.8 7.9 8 8.1 8.2 8.2 8 7.9 7.9 7.8 7.8 7.8 7.7 7.6 7.6 7.5 7.6 8 8.4 8.8 9.2 9.3 9.2 9.6 11 9 9 9 10 11.8 10.8 9.2 9.4 9.4 9.1 9 9 9 9 10.5 10.4 11.3 12.3 12.9 13.4 14.1 14.9 15.7 16 14.2 13.8 13 12.5 12.6 12.7 13 13.6 13.7 14.6 16.6 18.6 20.4 21 21.8 22.4 23.5 25.4 26.3 27.8 29.6 30.5 31.1 31.5 30.8 30.5 30.9 31 30.7 30.4 30 29.3 27.9 27.3 27.6 27.8 28.5 29.8 30.8 30.7 31 31.3 31.5 31.5 31.4 31 30.5 28.8 26.6 24.6 20.6 17.9 16.3 15.1 15.1 14.6 14.1 15.4 14 14.3 14 14.7 15 15.1 17.9 19.9 22 24.9 26.2 26.1 26.1 26 26 26.3 26.7 27.4 27.5 27.4 28.8 29.2 29.3 29.5 29.6 29.7 29.3 29.5 30.8 31.3 31.8 32 32.3 33 33.7 34.4 35
-1.2 -1.2 -1.2 -1.2 -1.2 -1.2 -1.2 -1.2 -1.2 -1.2 -1.2 -1.2 -1.2 -1.2 -1.2 -1.2 -1.2 -1.2 -1.2 -1.2 -1.2 -1.2 -1.2 -1.2 -1.2 -1.2 -1.2 -1.2 -1.2 -1.2 -1.2 0.7 1.4 2.2 2.5 3.5 5.5 5.6 5.8 5.8 5.8 5.9 6 6 6.1 6.1 6.4 6.8 7 7.2 7.3 7.4 7.6 7.7 7.8 7.9 8 8.1 8.3 8.4 8.4 8.3 8.3 8.2 8.1 8 8 7.9 7.8 7.7 7.7 7.6 7.7 7.9 8.3 8.5 8.9 9.3 9.7 10 11 9 9 9 9 11.6 10 9.1 9.3 9.3 9.3 9.1 9 9 9 9 10.3 10.9 11.7 12.3 12.7 13.3 14 14.4 14.2 13.7 12.8 12.4 12.2 11.7 12.1 13.4 14 14.1 14 16.1 18.1 20.3 19.7 20.7 21.7 23.3 25.3 26 27.8 29.1 29.5 30.3 30.6 29.8 29.4 29.7 29.8 29.3 28.7 28.1 27.4 26.8 26.5 26.8 27.2 28.5 29.6 30.7 30.9 30.8 31.1 31.3 31.1 31.1 31.1 31.1 30.1 27.9 26 22.6 20.3 18.5 17.1 16.3 15.8 14.7 15.2 15.4 15.8 15.9 15.6 14.9 16 17.9 20 20.9 24.3 26 25.9 25.8 25.8 25.9 26.2 26.5 27 27.9 28.4 29 29.4 29.5 29.6 29.8 29.8 29.4 29.7 30.9 31.4 31.7 31.8 32.1 32.8 33.5 34.2 35.2
-1.2 -1.2 -1.2 -1.2 -1.2 -1.2 -1.2 -1.2 -1.2 -1.2 -1.2 -1.2 -1.2 -1.2 -1.2 -1.2 -1.2 -1.2 -1.2 -1.2 -1.2 -1.2 -1.2 -1.2 -1.2 -1.2 -1.2 -1.2 -1.2 -1.2 -1.2 0.3 2.5 3.1 4 5.4 5.8 6 6.1 6.1 6.1 6.1 6.2 6.3 6.3 6.3 6.4 6.8 7.3 7.5 7.6 7.7 7.8 8 8.1 8.2 8.3 8.4 8.5 8.5 8.5 8.5 8.4 8.3 8.2 8.1 8.1 8 7.9 7.8 7.8 7.7 7.8 8 8.4 8.6 9 9.4 9.7 10.7 9.3 9 9 9 9.4 9.4 9 9.1 9.2 9.2 9.2 9.2 9.1 9 9 9 10 10.4 11.1 11.7 12.1 12.5 13.2 12.8 12.6 12.1 11.7 11.3 10.9 11.6 12.5 13.9 14.5 14.4 14.1 15.7 17.7 19.7 19.3 19.2 21.2 23 24.6 25.6 26.9 28.2 27.6 28.5 28.7 28.2 28.1 28.3 28.8 27.9 27.1 26.4 25.6 24.9 25.4 25.9 27 28.2 29.5 30 30.4 30.6 30.8 31.1 30.8 30.7 30.7 30.7 30.5 29 27.4 24.8 22.7 20.2 18.7 18.1 16.5 14.9 14.8 15.9 16 15.9 15.9 15.4 16.4 18.1 19.1 20.1 21.8 25.2 25.6 25.6 25.5 25.8 26.1 26.4 26.8 27.5 28.5 29.2 29.5 29.7 29.7 29.7 29.7 29.6 29.2 31.2 31.6 31.5 31.6 32 32.7 33.4 34 35.2
-1.2 -1.2 -1.2 -1.2 -1.2 -1.2 -1.2 -1.2 -1.2 -1.2 -1.2 -1.2 -1.2 -1.2 -1.2 -1.2 -1.2 -1.2 -1.2 -1.2 -1.2 -1.2 -1.2 -1.2 -1.2 -1.2 -1.2 -1.2 -1.2 -1.2 -1.2 -0.2 3 4.1 5.2 5.6 6 6.3 6.5 6.4 6.4 6.4 6.4 6.5 6.5 6.6 6.6 6.9 7.3 7.7 7.9 8 8.1 8.2 8.2 8.3 8.4 8.4 8.5 8.6 8.5 8.5 8.5 8.4 8.3 8.3 8.2 8.1 8 7.9 7.9 7.8 7.9 8.1 8.5 9 8.9 9.3 9.5 10.2 9 9 9 9 9.1 9.9 9 9 9.1 9.1 9.1 9.1 9.1 9 9 9 9 9.2 10.5 11.1 11.4 11.8 11.9 11.4 10.9 10.3 9.9 10.2 11.3 12.4 13.4 14.3 14.8 14.4 14 15.9 17.4 18.9 19.6 19.2 21.2 22.5 23.8 25 26 27 25.7 26.6 26.5 26.4 26.3 26.7 27.1 27.6 26.6 25.8 24.4 24 24.2 25.2 26.4 28 29 29.4 30 30.5 30.6 30.8 30.6 30.3 30.3 30.2 30.4 28.9 28 27.5 26.4 24.8 20 18.4 16.6 14.5 14.1 15.2 16 15.9 15.8 16.4 17.1 17.6 18.5 19.4 20.1 21.5 23.4 25.3 25.4 25.7 26 26.3 26.6 27.3 28.3 29.4 29.7 29.7 29.7 29.7 29.7 29.7 29.9 31.4 31.6 31.6 31.6 31.8 32.5 33.1 34.1 35.1
-1.2 -1.2 -1.2 -1.2 -1.2 -1.2 -1.2 -1.2 -1.2 -1.2 -1.2 -1.2 -1.2 -1.2 -1.2 -1.2 -1.2 -1.2 -1.2 -1.2 -1.2 -1.2 -1.2 -1.2 -1.2 -1.2 -1.2 -1.2 -1.2 -1.2 -1.2 -0.6 2.6 4.8 5.5 5.9 6.2 6.6 6.7 6.8 6.7 6.7 6.7 6.7 6.8 6.8 6.8 6.9 7.3 7.7 8 8.1 8.1 8.2 8.3 8.3 8.4 8.5 8.5 8.6 8.5 8.5 8.5 8.5 8.4 8.4 8.3 8.2 8.1 8 8 7.9 8 8.3 8.7 9.1 9.6 9.6 9.5 10.8 9 9 9 9 10.5 10.7 10.1 9 9 9.1 9.1 9.1 9.1 9 9 9 9 9 9 10.8 11.3 11.2 10.5 9.9 9.3 9.4 10.4 11 11.9 13.1 14.2 14.5 14.6 14.3 14.5 15.7 16.6 18.1 19.2 20 20.4 21.6 22.9 24.1 25.9 24.7 24.3 24.8 24.8 24.8 24.9 25.1 25.5 25.9 26.4 25.4 24.4 24.1 24 25.1 25.8 27.5 29.1 29.5 30 30.5 31.3 30.6 30.3 29.9 29.9 30.3 30.7 31 29.3 29.5 29.9 27.7 23.1 19.8 17.1 14.5 15.6 14.1 14.8 15.8 16.2 16.6 16.9 17.2 17.7 18.6 19.3 19.6 19.8 21.4 24.3 24.8 25.2 25.6 26.1 27 28.5 29.7 29.6 29.5 29.6 29.6 29.6 29.7 30.6 31.2 31.5 31.4 31.4 31.8 32.2 33.1 33.6 34
-1.2 -1.2 -1.2 -1.2 -1.2 -1.2 -1.2 -1.2 -1.2 -1.2 -1.2 -1.2 -1.2 -1.2 -1.2 -1.2 -1.2 -1.2 -1.2 -1.2 -1.2 -1.2 -1.2 -1.2 -1.2 -1.2 -1.2 -1.2 -1.2 -1.2 -1.2 -1 2.2 5.4 5.5 6.1 6.5 6.9 7 7.1 7.1 7 7 6.9 7 7 7 7.1 7.4 7.6 7.8 8.1 8.2 8.2 8.3 8.3 8.4 8.5 8.5 8.6 8.6 8.5 8.5 8.6 8.5 8.5 8.4 8.3 8.2 8.1 8.1 8 8.1 8.4 8.8 9.3 9.7 10.2 10.7 10.8 9.2 9.5 9.8 9.9 10.8 12.4 11.4 9.8 9.4 9.4 9.1 9 9 9 9 9 9 9 9 9 10.2 10.1 9 9.5 10.1 10.6 11.2 11.9 12.7 13.6 14.4 14.7 14 14.1 14.8 15.7 16.6 17.5 18.9 19.8 20.5 20.8 22 23.2 24.1 23.9 23.5 23.9 23.9 23.7 23.9 24.1 24.3 24.5 24.8 24.5 24.4 24.1 24 25.2 25.2 26.9 28.5 30.1 30 30.4 31.7 30.6 30.1 29.5 29.8 30.8 30.3 30.6 30.8 30.8 30.8 29.5 26.6 22.1 18.7 15.4 15.8 15.2 14 14 14.5 15.3 16.1 16.4 16.9 17.7 18.2 18.4 18.7 20.1 20.4 22.8 24.4 25 25.7 26.8 27.8 29.7 29.6 29.4 29.3 29.2 29.2 29.6 30.4 30.9 31.3 31.3 31.5 31.8 32 32.4 32.9 33.1
-1.2 -1.2 -1.2 -1.2 -1.2 -1.2 -1.2 -1.2 -1.2 -1.2 -1.2 -1.2 -1.2 -1.2 -1.2 -1.2 -1.2 -1.2 -1.2 -1.2 -1.2 -1.2 -1.2 -1.2 -1.2 -1.2 -1.2 -1.2 -1.2 -1.2 -1.2 -1.2 1.7 5.6 5.9 6.2 6.8 7.1 7.3 7.4 7.4 7.4 7.3 7.3 7.1 7.2 7.2 7.2 7.3 7.5 7.7 7.9 8.2 8.2 8.3 8.4 8.4 8.5 8.6 8.6 8.6 8.5 8.5 8.5 8.6 8.6 8.5 8.4 8.3 8.2 8.2 8.1 8.2 8.6 9 9.4 9.9 10.2 10.2 9.6 9 9.1 9.4 9.7 10.4 11.8 11.8 9.8 9.2 9 9 9 9 9 9 9 9 9 9 9.1 9 9 9.3 9.8 10.5 11.1 11.7 12.3 12.9 13.8 14.5 15.8 15 15.1 16.2 16.5 16.8 17.4 18.5 19.3 20.2 20.5 20.8 22 22.8 23.1 22.8 22.8 22.9 22.4 22.8 23.1 23.3 23.5 23.4 23.3 23.2 23.3 23.9 24.2 24.7 25.6 27.4 29 30.9 30.2 30.5 31.3 29 30.4 29.8 29.6 29.5 30.3 31.5 31.8 31.8 31.1 30.1 26.5 22.4 17.1 16.3 15.4 14 14 14.9 15.5 16 16.1 16.1 17 17.6 18 19 19.4 19.9 19.6 20.7 23.2 25.3 26.4 27.3 28.5 29.1 29.3 29.2 28.9 28.6 29.3 30 30.6 31.1 31.2 31.5 31.6 31.5 31.6 31.9 32.1
-1.2 -1.2 -1.2 -1.2 -1.2 -1.2 -1.2 -1.2 -1.2 -1.2 -1.2 -1.2 -1.2 -1.2 -1.2 -1.2 -1.2 -1.2 -1.2 -1.2 -1.2 -1.2 -1.2 -1.2 -1.2 -1.2 -1.2 -1.2 -1.2 -1.2 -1.2 -1.2 5.1 5.5 6 6.5 7 7.4 7.6 7.6 7.7 7.7 7.7 7.5 7.3 7.3 7.3 7.4 7.4 7.5 7.5 7.8 8 8.3 8.3 8.4 8.5 8.5 8.6 8.7 8.6 8.5 8.5 8.5 8.5 8.6 8.6 8.5 8.4 8.3 8.3 8.2 8.4 8.7 9.2 9.6 9.9 9.5 10.4 9 9 9 9 9 9.7 11 10.3 9 9 9 9 9 9 9 9 9 9 9 9 9.1 9 9 9 10 10.8 11.5 12.1 12.8 13.4 14 14.9 15.9 15.5 15.8 16.7 17 17.3 17.7 18.1 18.9 19.7 19.6 19.6 20.7 21.4 21.7 22 21.8 21.9 21.2 21.8 22 22.3 22.1 21.9 22 22.1 22.6 23.1 23.6 24.2 25.1 26 27.5 29.4 29.2 30.5 30.9 30.9 29.4 29 28.5 29.4 30.7 33.2 34.2 32.9 32.6 32.1 30.4 27.9 23.4 19.1 16.5 14 14.3 15.3 16 16 16.1 16 16.6 17.2 17.9 18.3 18.8 19.2 19.3 19.6 19.4 20.6 23.4 25.3 26.2 27.3 27.8 27.9 27.7 27.6 28.5 29.7 30.3 30.9 30.8 30.6 30.4 31.4 29.9 30.9 31.3
-1.2 -1.2 -1.2 -1.2 -1.2 -1.2 -1.2 -1.2 -1.2 -1.2 -1.2 -1.2 -1.2 -1.2 -1.2 -1.2 -1.2 -1.2 -1.2 -1.2 -1.2 -1.2 -1.2 -1.2 -1.2 -1.2 -1.2 -1.2 -1.2 -1.2 -1.2 -1.2 5.3 5.8 6.3 6.7 7.1 7.5 7.8 7.8 7.9 7.9 7.9 7.7 7.5 7.4 7.5 7.5 7.6 7.6 7.7 7.7 7.9 8.1 8.4 8.4 8.5 8.6 8.6 8.7 8.7 8.6 8.4 8.5 8.5 8.5 8.6 8.6 8.5 8.4 8.4 8.3 8.5 8.9 9.3 9.6 9.7 9.3 10.5 9.4 9.2 9.1 9.1 9.2 9.1 9 9 9.1 9 9 9 9 9 9 9 9 9 9 9.5 9 9 9 9 9.6 10.5 11.4 11.8 12.5 13.2 13.9 14.6 15.9 15.4 16.3 16.7 16 16.7 17.1 17.6 18.3 18.8 18.6 18.6 19.5 20.1 20.4 20.7 21 20.7 19.9 20.7 21.1 21 20.7 20.5 20.6 21.4 22.1 22.6 23.1 23.6 24.3 25.1 25.2 27.4 30 30.6 31 31 29.3 28.3 27.8 29.3 30.7 33.6 35.9 35.4 34.4 33.4 32.2 29.9 28 23.9 18.7 15.9 14.2 15.2 16.3 16.1 16.1 16 16.3 17.2 17.2 17.7 18.1 18.5 18.9 19 19.8 20.3 20.4 19.9 22.9 25.1 25.9 26.7 26.4 26.8 27.6 28.9 30.1 30.9 30.4 29.4 30.5 31.1 29.2 30.3 30.6
-1.2 -1.2 -1.2 -1.2 -1.2 -1.2 -1.2 -1.2 -1.2 -1.2 -1.2 -1.2 -1.2 -1.2 -1.2 -1.2 -1.2 -1.2 -1.2 -1.2 -1.2 -1.2 -1.2 -1.2 -1.2 -1.2 -1.2 -1.2 -1.2 -1.2 -1.2 5.5 5.6 6 6.4 6.7 7.1 7.4 7.8 8 8 8.1 8 7.9 7.7 7.6 7.6 7.6 7.7 7.7 7.8 7.8 7.9 8 8.2 8.5 8.5 8.6 8.7 8.7 8.7 8.6 8.5 8.4 8.5 8.5 8.5 8.6 8.6 8.5 8.5 8.4 8.7 9.1 9.4 9.5 9.8 10.7 11 9.2 9 9.1 9.3 9.4 9.3 9 9 9.4 9 9 9 9 9 9.1 9.1 9.1 9.1 9 9.7 9 9 9 9 9.6 10.6 11.3 11.7 12.1 12.7 13.4 14 14.5 14.8 15.7 16.4 15.5 14.7 16.4 17.1 17.8 17.8 17.5 17.7 18.3 18.8 19.1 19.4 19.8 20 19.3 21 21 21 20.8 19.8 19.6 20.4 21.2 22 22.7 23.3 23.8 24.2 25.2 26.8 29.3 31 31 31 30.2 28.7 26.9 28.4 30.2 33.3 35.7 36.7 35.7 34.5 33.4 32 31.2 28.4 23.3 18.7 15.8 15.8 16.7 16.1 16.1 16 17.6 17.9 18 18 18.1 17.9 18.3 18.8 18.9 19.1 19.4 19.7 20.1 21.7 21.5 25 25.5 25.9 26.6 28.4 29.8 30.8 31 30.3 29 29.6 30 29.6 30
-1.2 -1.2 -1.2 -1.2 -1.2 -1.2 -1.2 -1.2 -1.2 -1.2 -1.2 -1.2 -1.2 -1.2 -1.2 -1.2 -1.2 -1.2 -1.2 -1.2 -1.2 -1.2 -1.2 -1.2 -1.2 -1.2 -1.2 -1.2 -1.2 -1.2 5.6 5.5 5.7 6 6.3 6.7 7 7.4 7.7 8 8.1 8.2 8.2 8.1 8 7.8 7.8 7.8 7.8 7.9 7.9 8 8 8.1 8.1 8.3 8.6 8.6 8.7 8.8 8.7 8.6 8.5 8.4 8.4 8.5 8.5 8.6 8.6 8.6 8.6 8.5 8.8 9.1 9.2 9.5 9.8 11 9.6 9.1 9.2 9.4 9.6 9.7 9 9 9 9.7 9.1 9 9 9.1 9.1 9.1 9.1 9.1 9.1 9.1 9.8 9 9 9 9 9.4 10.5 11.1 11.5 11.7 12.3 12.9 13.4 13.9 14.4 15 15.7 14.9 14.3 15.5 16.6 17.1 16.8 16.5 16.7 17.1 17.5 17.8 18.2 18.3 18.6 19 20.1 20.2 19.8 19.3 19.2 19.5 19.4 20.2 21.2 22.3 22.8 23.2 23.3 24.6 25.8 28.1 31 31 31 30.6 28.3 26.4 27.4 29.8 32.2 34.5 36.4 36.3 35.6 34.2 33.8 32.4 30.5 27.3 22.8 19.1 17.2 17.6 16.8 16.1 16 17.9 18 18 18.1 18.1 18.2 18.3 18.3 18.6 18.9 19.3 19.3 19.3 20.4 18.9 19.1 19.4 24.3 25.6 26.6 28.2 30.1 30.9 29.9 29.2 29 29.6 30.7 31
-1.2 -1.2 -1.2 -1.2 -1.2 -1.2 -1.2 -1.2 -1.2 -1.2 -1.2 -1.2 -1.2 -1.2 -1.2 -1.2 -1.2 -1.2 -1.2 -1.2 -1.2 -1.2 -1.2 -1.2 -1.2 -1.2 -1.2 -1.2 -1.2 5.6 5.6 5.6 5.9 6.1 6.3 6.6 7 7.3 7.7 7.9 8.1 8.3 8.3 8.2 8.1 8 7.9 7.9 8 8 8.1 8.1 8.2 8.2 8.3 8.3 8.4 8.7 8.7 8.8 8.8 8.6 8.5 8.4 8.4 8.4 8.5 8.5 8.6 8.6 8.6 8.6 8.9 9 9.1 9.5 10.5 11 9.1 9.3 9.5 9.7 9.8 9.9 9 9 9.1 9.9 9.4 9.1 9.1 9.1 9.1 9.1 9.1 9.1 9.1 9.1 9.3 9.1 9 9 9 9 9.2 10.5 10.6 11 12 12.7 13.2 13.7 14.2 14.7 15.2 14.8 14.6 15.5 16.2 16 15.7 15.5 15.7 16 16.2 16.6 16.9 16.9 17.1 17.9 18.6 18.7 18.3 18.1 18.3 18.9 18.9 19.9 21 21.8 22.2 21.9 22.5 23.8 25 27.1 29.7 30.8 30.9 31 28.7 26.2 26.8 28.1 29.8 32.1 34.7 35.9 35.5 34.4 33.4 32.7 31.7 30.5 27.6 23.5 19.6 18.1 17.7 17 17.9 18 18 18.1 18.1 18.1 18.2 18.5 18.3 18.5 18.8 19 18.9 18.8 18.7 19 18.9 18.9 19 19.3 22.1 25.9 28.3 28.3 27.7 28.2 29.5 31 31 31
-1.2 -1.2 -1.2 -1.2 -1.2 -1.2 -1.2 -1.2 -1.2 -1.2 -1.2 -1.2 -1.2 -1.2 -1.2 -1.2 -1.2 -1.2 -1.2 -1.2 -1.2 -1.2 -1.2 -1.2 -1.2 -1.2 -1.2 -1.2 5.6 5.8 5.8 5.8 6 6.3 6.5 6.7 7 7.2 7.6 7.9 8.1 8.3 8.2 8.1 8.1 8 8 8.1 8.1 8.2 8.2 8.3 8.3 8.4 8.4 8.5 8.5 8.6 8.8 8.8 8.8 8.7 8.6 8.4 8.4 8.4 8.5 8.5 8.5 8.6 8.8 8.8 8.8 8.9 9.2 10.2 10.4 10.5 9.3 9.5 9.7 9.9 10.1 9.5 9 9 9.1 10 9.7 9.1 9.1 9.1 9.1 9.1 9.1 9.1 9.1 9.4 9.1 9.1 9 9 9.3 9 10.9 9.9 10.6 11.1 11.6 12.6 13.1 13.5 14 14.5 14.5 14.3 14.9 14.9 15.4 14.8 14 14.3 14 15.2 15.5 15.5 15.7 15.6 16.2 17 17.4 17.2 17 17.2 17.5 17.6 18.7 19.8 20.6 20.7 20.9 20.7 21.8 23.1 24.2 25.4 28.1 30.7 31 30.8 28.4 26.2 26.4 27.5 28.9 30.4 32.2 33.9 33.9 32.7 32.6 31.9 32.9 32.8 30.7 28.7 23.5 19.7 19 18.3 18.5 18.1 18 18.1 18.1 18.2 18.5 18.7 18.4 18.3 18.6 18.6 18.5 18.5 18.7 18.8 18.9 18.9 19 19.2 19.8 19.3 23 25.2 25.5 26.4 29.2 30.1 30.1 30.6
-1.2 -1.2 -1.2 -1.2 -1.2 -1.2 -1.2 -1.2 -1.2 -1.2 -1.2 -1.2 -1.2 -1.2 -1.2 -1.2 -1.2 -1.2 -1.2 -1.2 -1.2 -1.2 -1.2 -1.2 -1.2 -1.1 -1.2 5.4 5.6 5.9 5.9 6 6.2 6.5 6.7 6.9 7.1 7.4 7.6 7.9 8.1 8 8 8 8.1 8.1 8.1 8.1 8.2 8.3 8.3 8.4 8.4 8.5 8.6 8.6 8.7 8.7 8.8 8.9 8.8 8.7 8.6 8.5 8.4 8.4 8.6 8.9 9.1 9.3 9.3 9.2 9 9.5 10.4 10.4 9.5 9.6 9.5 9.7 9.9 10.1 10.4 9 9 9.1 9.1 10.2 10.1 9.4 9.1 9.1 9.1 9.1 9.1 9.1 9.1 10 9.1 9.1 9 9 9 9.3 10.4 10.6 11 11.4 11.8 12.3 12.9 13.4 13.8 14.3 13.8 14 14.2 14.5 14.5 14.6 14.3 14.8 14 14.5 14.8 14.8 16 14.8 15.2 15.7 15.9 15.8 16.3 16.5 16.7 17.1 17.8 18.6 19.4 19.7 19.6 19.9 21.6 22.6 22.9 24.3 25.9 28.3 30.4 29.5 27.6 26 25.9 27 28.2 29.4 30 30.1 30.4 30.9 31.1 31.2 33.7 34.4 33.1 31.5 28.2 24.4 21.6 19.9 19.3 19 18.5 18.1 18.2 18.5 18.8 18.8 18.5 18.3 18.3 18.3 18.3 18.4 18.6 18.8 18.9 18.9 19.1 19.3 19.2 19.4 19.8 23.5 24.8 25.9 28.1 28 27.7 29.2
-1.2 -1.2 -1.2 -1.2 -1.2 -1.2 -1.2 -1.2 -1.2 -1.2 -1.2 -1.2 -1.2 -1.2 -1.2 -1.2 -1.2 -1.2 -1.2 -1.2 -1.2 -1.2 -1.2 -1.2 2.2 5.4 5.8 5.7 5.5 6 6 6.2 6.4 6.6 6.9 7.1 7.3 7.5 7.8 8 8.1 8.1 8.1 8.1 8.1 8.2 8.2 8.2 8.3 8.3 8.4 8.5 8.5 8.6 8.6 8.7 8.7 8.8 8.9 8.9 8.8 8.8 8.6 8.5 8.4 8.8 9.3 9.8 9.8 9.8 9.8 9.7 9.7 10.3 10.2 10 9 9.5 10 10.6 10.8 10.5 10.2 9.1 9.7 9.2 9.1 10.4 10.4 9.8 9.1 9.1 9.1 9.1 9.1 9.1 9.1 11 9.2 9.5 9.8 10 9.2 9.3 11.2 11.2 11.1 11.4 11.9 12.3 12.7 13.2 13.6 13.5 13.5 13.7 14 14.2 14.4 14.1 13.6 13.4 13.6 13.7 14 13.8 14.6 14.9 14.7 14.5 14.6 14.7 15.7 16.1 16 16.1 16.7 17.4 18.1 18.8 18.7 19.3 20.8 21.4 21.9 23.3 24.4 25.5 26.8 27 25.6 24.2 24.9 26.2 27.6 28 28.8 28.1 27.4 27.6 28.8 30.4 33.7 35.9 35.7 33.9 31.7 29.1 25.8 22.9 20.4 20.2 19.9 18.5 18.5 18.8 19.1 18.9 18.7 18.4 18.3 18.3 18.2 18.2 18.5 18.7 18.9 19 19.1 19.5 19.1 21 20.8 22 23.2 24.5 25.5 25.6 26 27.9
-1.2 -1.2 -1.2 -1.2 -1.2 -1.2 -1.2 -1.2 -1.2 -1.2 -1.2 -1.2 -1.2 -1.2 -1.2 -1.2 -1.2 -1.2 -1.2 -1.2 -1.2 -1.2 -1.2 -1.2 5.4 5.7 5.9 6 5.8 6.1 6.1 6.4 6.6 6.8 7.1 7.3 7.5 7.7 8 8 8.1 8.2 8.2 8.2 8.2 8.3 8.2 8.3 8.3 8.4 8.5 8.5 8.6 8.6 8.7 8.8 8.8 8.9 8.8 8.8 8.8 8.7 8.7 8.6 8.5 8.8 9.3 9.6 10.1 9.9 9.9 10.3 10.6 10.2 9.5 9.3 9.2 9.7 9.8 9.9 10 10.6 10.3 10 9.5 10.4 10.8 10 9.1 10.2 10.4 10.6 10.4 11 9.1 10.1 11 11 10.9 10.6 10.5 10.7 9.8 9 10.6 11.5 11.5 11.5 11.8 12.2 12.6 13 13.3 13.2 13.2 13.4 13.7 14 14.2 14 13 13.3 13.5 13.4 13.3 13.3 13.6 14.3 14.2 14.4 14.3 14.2 15.2 15.6 15 15.2 15.8 16.4 17 17.6 18.1 19.2 19.9 20.1 20.9 21.6 22.6 23.6 24.3 24.7 24.3 24.1 24.8 25.3 26.3 26.6 26.7 26 25.4 24.7 25.7 28.6 32.1 36 35.9 35.9 34.3 31.6 29.1 25.8 22.7 19.8 19.5 18.9 18.8 19.1 19.3 19 18.7 18.6 18.6 18.5 18.5 18.7 18.8 18.8 18.8 19 19.2 19.5 19.6 19.5 21.4 22 22.5 23.1 23.8 23.9 24.1 25.7
-1.2 -1.2 -1.2 -1.2 -1.2 -1.2 -1.2 -1.2 -1.2 -1.2 -1.2 -1.2 -1.2 -1.2 -1.2 -1.2 -1.2 -1.2 -1.2 1.6 2.6 2.7 5.5 5.4 5.8 6.1 6.4 6.3 6.2 6.2 6.3 6.6 6.8 7 7.2 7.5 7.7 7.9 8 8 8.2 8.3 8.3 8.3 8.3 8.3 8.3 8.4 8.4 8.5 8.5 8.6 8.7 8.7 8.8 8.8 8.8 8.8 8.7 8.7 8.7 8.6 8.6 8.6 8.5 8.8 9.1 9.5 10.5 10.2 10.1 10.6 10 9.8 9.7 9.5 9.5 9.4 9.4 9.5 9.6 9.7 9.8 10.1 9.8 11 9.2 9.1 9.1 9.1 10 9.3 9.1 9.8 10.8 11.7 11.5 11.1 11 10.9 10.8 10.8 10.5 9.2 9.6 11.2 11.5 11.8 11.9 12.1 12.5 12.7 12.9 13 13 13.1 13.4 13.7 13.9 13.8 13.2 13.2 13.3 13.2 13.1 13 13.4 14.2 14.3 14.3 14.2 14.1 14.8 14.6 14 14.4 15 15.6 16.2 16.8 17.3 18.1 18.7 18.9 19.2 19.7 20.8 21.7 22.2 22.5 22.9 23.6 24.7 25.9 25.9 26.1 25.5 24.9 24.4 24.3 25 27.4 29.7 32.9 36 35.9 36.2 34.6 32 28.3 24.9 22 21.2 20.1 19.6 19.6 19.5 19.1 18.8 18.9 18.9 18.8 18.7 19.1 19.6 19.6 19.6 19.1 19 20 20.2 20.8 21.4 21.7 22 22.3 22.3 22.5 22.7 23.4
-1.2 -1.2 -1.2 -1.2 -1.2 -1.2 -1.2 -1.2 -1.2 -1.2 -1.2 -1.2 -1.2 -1.2 -1.2 -1.2 -1.2 -1.2 0.4 3.5 4.9 5.8 6.2 6.4 6.7 6.7 6.6 6.5 6.5 6.4 6.5 6.7 7 7.2 7.4 7.6 7.8 8 8 8.1 8.2 8.3 8.4 8.4 8.4 8.4 8.4 8.4 8.5 8.5 8.6 8.7 8.7 8.8 8.8 8.8 8.7 8.7 8.7 8.6 8.6 8.6 8.5 8.5 8.5 8.7 9 9.3 10.4 10.7 10.8 10.2 9.7 9.3 9.3 9.2 9.1 8.9 9.1 9.2 9.3 9.4 9.5 9.6 9.7 10.6 9.4 9.1 9.1 9.7 9.8 9.1 9.1 9.1 9.1 9.8 10.7 11 11 11 11 10.9 10.7 10.6 9.3 10 10.8 11.1 11.5 12 12.2 12.3 12.5 12.7 12.7 12.7 13 13.3 13.8 13.7 13.4 13.2 13.2 13 13 13.3 13.4 14 14.3 14.2 14.1 14.1 14.4 14.2 14 14 14 15 15.6 16.1 16.6 17.1 17.6 18 18.5 19 20 20.5 20.4 20.5 21.5 22.5 23.6 25.2 25.4 24.7 24.4 24.1 23.8 24 24.3 25.4 27.6 30.2 35.3 37 38.2 37.6 35.1 31.6 27.7 25.3 22.9 21.6 21.1 20.9 19.8 19.1 19.1 19.1 19.1 19.1 19 19.5 20.7 20.8 19.9 19 19 20.5 21 21.1 21.1 21.1 21 21.3 21.3 21.3 21.3 21.7
-1.2 -1.2 -1.2 -1.2 -1.2 -1.2 -1.2 -1.2 -1.2 -1.2 -1.2 -0.3 0.2 0.8 1.2 -1.2 -1.2 -1.2 -1.2 4.8 5.4 6.3 6.7 7 7.1 7.1 7 6.9 6.9 6.8 6.6 6.6 6.8 7 7.2 7.4 7.8 8 8 8.1 8.2 8.3 8.4 8.5 8.5 8.5 8.5 8.5 8.6 8.6 8.7 8.7 8.8 8.7 8.7 8.7 8.7 8.6 8.6 8.6 8.5 8.5 8.5 8.5 8.7 8.8 9 9.4 10.9 10.7 10.3 9.8 9.4 9 8.8 8.7 8.6 8.5 8.8 8.9 9 9.1 9.2 9.3 9.7 10.1 11 9.1 9.4 9.5 9.6 9.1 9.1 9.1 9.1 9.1 9.1 10.9 10.9 10.8 10.8 10.8 10.9 10.8 10.8 9.8 10.3 11 11.4 11.8 12.2 12.4 12.3 12.2 12.4 12.5 12.7 13.2 13.4 13.4 13.3 13.1 13 13 13.2 13.5 13.5 14.1 14.6 14.1 14 14.3 14.6 14.7 14.6 14 14 14.3 14.1 15.4 16 16.8 17.6 18.1 18.6 19.1 19 19.4 19.3 19.4 20.4 21.4 22.5 23.4 23.5 24.1 23.9 23.4 23.3 23.4 23.6 24.3 26 29.1 32.7 36.1 39.6 41 38.4 35.6 31.1 27.5 25.1 23 22.4 22 21 19.4 19.1 19.4 19.4 19.3 19.2 20 20.4 21 21 19.7 19 20.6 21.2 21.1 21.1 21 21 21 21.1 21.1 21 21.2
-1.2 -1.2 -1.2 -1.2 -1.2 -1.2 -1.2 -1.2 -1.2 -0.1 0.6 1 1.4 2.1 2.8 1.8 -1 -1.2 5.8 6.1 6.5 6.7 7.2 7.5 7.6 7.6 7.5 7.5 7.4 7.1 6.9 6.9 6.9 6.9 6.9 7.2 7.6 8 8 8.2 8.3 8.4 8.5 8.6 8.6 8.6 8.6 8.6 8.6 8.7 8.8 8.7 8.7 8.7 8.6 8.6 8.6 8.6 8.5 8.5 8.5 8.4 8.5 8.7 8.8 8.9 9.9 10.7 10.2 10.2 10 9.5 9.1 8.7 8.3 8.2 8.1 8.2 8.5 8.6 8.7 8.8 8.9 9.3 9.6 9.8 10.4 9.1 9.2 9.4 9.3 9.1 9.1 9.1 9.1 9.1 9.1 10.1 10.5 10.5 10.6 11 10.9 10.9 10.9 11 11.1 11.2 11.3 11.7 12 12.3 12.6 12.6 12.5 12.4 12.7 13.2 13.3 13.2 13.1 13 13 13.2 13.4 13.5 13.6 14.3 14.9 15.1 14.9 15.4 15.5 15.6 14 15.6 14.3 14.9 14.6 15.4 16 17 17.9 18.5 19 19 19 19.3 19.5 19.3 19.3 20.3 21.2 21.6 22.1 22.7 23.2 23.2 23.1 22.9 22.9 24 25.6 28.6 32.2 35.7 39.5 40.5 39 36.7 33.7 29.9 26.3 24.3 23.3 22.8 22.6 21.6 20.8 20.3 19.8 19 19.6 21 21 21 19 19 19.3 20.8 21.2 21.1 21.1 21 21 21.1 21.2 21.2 21.1 21.1
-1.2 -1.2 -1.2 -1.2 -1.2 -1.2 -1.2 -1.2 -1.2 -0.1 1.7 2.2 2.5 3.4 4 4.8 5.6 5.9 6.3 6.6 6.9 7.3 7.6 7.9 8.1 8.1 8.1 7.9 7.7 7.4 7.2 7.1 7.1 7.1 7.1 7.1 7.4 7.8 8 8.1 8.3 8.4 8.5 8.6 8.7 8.7 8.6 8.6 8.7 8.7 8.7 8.7 8.6 8.6 8.6 8.5 8.5 8.5 8.4 8.4 8.4 8.4 8.6 8.8 9 10.1 10.7 10.3 9.8 9.9 9.6 9.2 8.8 8.4 8 7.7 7.6 7.9 8.2 8.3 8.4 8.5 8.9 9.1 9.3 9.6 9.9 10.2 9.1 9.2 9.1 9.1 9.1 9.1 9.1 9.1 9.1 9.1 10.5 10.3 10.5 11 10.9 11 11 11.1 11.2 11.3 11.5 11.7 11.9 12.2 12.5 12.9 12.8 12.7 13.2 13.4 13.6 13.6 13.5 13.4 13.2 13.6 13.9 13.9 13.7 14.5 15.7 15.6 15.6 15.6 15.7 15.6 14.8 15 15.3 15.5 15.8 16 16.4 17.2 18.1 18.9 19.4 19 19.2 19.3 19.4 19.5 19.3 19.4 19.8 20.6 21.3 21.9 22.3 22.8 23 22.8 22.9 24 25.3 28.5 33.1 36.5 40.2 40.1 39 36.3 33.6 30.7 27.8 25.5 23.9 23.6 24.3 24.5 23.5 22.8 22.1 21.6 21.1 20.6 19.7 19.2 19 19.4 19.5 20.9 21.3 21.2 21.1 21 21 21.2 21.3 21.3 21.2 21.1
-1.2 -1.2 -1.2 -1.2 -1.2 -1.2 -1.2 -1.2 -1.2 -0.2 2.8 3.3 3.8 4.5 5.3 5.2 5.6 6.1 6.7 7 7.4 7.7 8.1 8.4 8.6 8.6 8.5 8.3 8 7.8 7.5 7.3 7.4 7.4 7.3 7.2 7.2 7.6 7.8 8 8.2 8.3 8.6 8.7 8.7 8.7 8.7 8.7 8.7 8.6 8.6 8.6 8.5 8.5 8.5 8.5 8.4 8.4 8.4 8.3 8.4 8.6 9 9.5 10.2 10.8 10.1 9.3 9.1 8.9 9 8.7 8.4 8.1 7.7 7.3 7.3 7.6 7.8 7.9 8.1 8.4 8.6 8.9 9.2 9.5 9.8 11 9.1 9.1 9.1 9.1 9.1 9.1 9.1 9.1 9.1 9.1 10.3 10.3 10.7 11 11 11.1 11.2 11.3 11.3 11.4 11.6 11.8 12.1 12.3 12.5 12.8 13.1 13.2 13.4 13.5 13.7 13.9 13.9 13.9 13.7 13.9 14.3 14.4 14.1 14.6 16 15.3 15.7 15.9 16 16 15.3 15.6 15.9 16.2 16.8 17 17.3 17.8 18.5 19.3 19 19 19.1 19.2 19.3 19.4 19.5 19.1 19.2 19.3 20.7 21.1 21.5 22.2 22.4 22.7 23.1 24.2 26.1 28.7 33.8 38.1 40.7 39.8 39.1 37.5 34.7 31.9 29.4 27.9 26.1 26 27.1 27.6 26.6 25.4 24.7 24.2 23.7 23 21.2 21 19.3 20.1 20 20.9 21.4 21.3 21.1 21 21.1 21.3 21.4 21.4 21.3 21.1
-1.2 -1.2 -1.2 -1.2 -1.2 -1.2 -1.2 -1.2 -1.2 -0.2 2.9 4.5 5 5.6 5.7 5.7 6 6.4 6.8 7.4 7.8 8.2 8.5 8.6 7.9 8.2 8.5 8.5 8.3 8.1 7.9 7.6 7.6 7.5 7.4 7.3 7.3 7.4 7.6 7.8 8 8.2 8.4 8.4 8.7 8.7 8.7 8.7 8.7 8.7 8.7 8.6 8.6 8.6 8.5 8.5 8.5 8.4 8.4 8.4 9 9.5 10 10.5 10.4 9.3 8.9 8.7 8.5 8.4 8.2 8 7.8 7.6 7.3 7.1 7 7.3 7.5 7.7 7.9 8.2 8.5 8.8 9.1 9.4 9.7 9.9 10.4 9.3 9.1 9.1 9.1 9.1 9.1 9.1 9.1 9.1 10.1 10.3 11 11.1 11.2 11.3 11.3 11.4 11.4 11.5 11.8 12 12.2 12.5 12.7 12.9 13.2 13.3 13.5 13.7 13.9 14 14.2 14.3 14.2 14.4 14.5 15.1 15.2 14.1 15.3 15.4 15.7 16 16.3 16.3 15.9 16.2 16.4 16.7 16.9 17.6 18.2 18.5 19.1 19.6 19 19 19.7 19.7 19.6 19.5 19.4 19.1 19.3 19 19.1 19.7 20.7 21.6 21.8 22 22.7 23.6 26.8 29.6 33.4 38.2 41 40.4 39.9 38.8 35.9 33.3 31.7 29.9 28.6 28.2 29.8 30.3 29.8 28.3 27.4 26.9 27 25.3 23.3 20.5 19 21.2 20.9 21 21.5 21.4 21.2 21.1 21.2 21.4 21.5 21.4 21.2 21.2
-1.2 -1.2 -1.2 -1.2 -1.2 -1.2 -1.2 -1.2 -1.2 -1.2 2.8 5.6 5.9 6.2 6 6.3 6.7 7 7.4 7.8 8.2 8.6 8.7 8.3 8 7.7 8 8.1 8 8 7.8 7.7 7.6 7.6 7.5 7.4 7.4 7.3 7.5 7.7 8 8.2 8.4 8.4 8.4 8.7 8.7 8.8 8.8 8.8 8.7 8.7 8.7 8.6 8.6 8.6 8.5 8.5 8.5 8.7 9.4 10.1 10.6 10.7 9.1 8.9 8.8 8.7 8.5 8.4 8.2 8 7.8 7.6 7.3 7.1 7.1 7 7.2 7.5 7.8 8.1 8.5 8.8 9.1 9.4 9.7 9.8 10.4 9.6 9.1 9.1 9.1 9.1 9.1 9.1 9.1 9.1 10.1 10.7 11.3 11.2 11.3 11.4 11.5 11.6 11.5 11.7 11.9 12.1 12.4 12.6 13 13.3 13.5 13.4 13.5 13.7 13.9 14.1 14.3 14.5 14.7 14.6 14.5 15.8 15.7 15.5 15.7 15.9 16 16.2 16.3 16.6 16.6 16.8 17 17.2 17.5 17.7 18.4 19.1 19.7 19.8 19.6 19.4 19.5 19.5 19.4 19.3 19.3 19.1 19.9 19.8 19 19 19.6 20.9 21.1 21.4 22.1 23.8 27.3 30.6 34.7 38.4 41 41 40.9 40.2 37.7 34.8 33.3 31.6 30.1 29.3 30.1 30.6 31.4 31.1 30.2 29.8 29.4 29.7 26.2 22.8 22.2 22.5 21.9 21.4 21.6 21.4 21.2 21.1 21.2 21.6 21.6 21.4 21.2 21.2
-1.2 -1.2 -1.2 -1.2 -1.2 -1.2 -1.2 -1.2 -1.2 -1.2 6.3 6.6 6.8 7 6.6 6.7 7.1 7.5 7.8 8.2 8.6 9 8.9 8.6 8.3 8 7.8 7.7 7.7 7.7 7.7 7.7 7.6 7.6 7.5 7.5 7.5 7.5 7.6 7.8 8.1 8.3 8.4 8.4 8.4 8.8 8.8 8.8 8.8 8.8 8.8 8.8 8.8 8.7 8.7 8.7 8.6 8.6 8.7 9.3 10.4 10.7 10.3 9.2 9 8.9 8.8 8.7 8.5 8.4 8.2 8 7.8 7.6 7.3 7.2 7.1 7.1 7.2 7.5 7.8 8.2 8.5 8.8 9.1 9.4 9.6 9.8 9.4 11 9.1 9.1 9.1 9.1 9.1 9.1 9.1 9.1 9.9 11.3 12 11.8 11.7 11.6 11.7 11.7 11.6 11.8 12.1 12.4 12.7 13.1 13.4 13.6 13.6 13.5 13.5 13.7 13.9 14.1 14.3 14.6 14.8 14.4 14.5 15.4 15.6 15.8 15.9 16.1 16.3 16.5 16.6 16.8 17.1 17.3 17.6 17.8 18 18.3 18.5 19.2 20 20.4 20.8 20 19.7 19.3 19.2 19.1 19.1 19.4 21 21.1 20.2 19.1 19 20.1 20.7 21.3 22.1 23.9 27.8 32 36.2 40.1 40.4 40.9 41.4 41 40 37 34.6 33 31.3 29.8 31.2 32.8 33.1 33.1 33.1 32.7 31.6 31.1 29.6 26.3 26.1 25.3 23.6 22.8 22.4 22.1 21.8 21.4 21.1 21.5 21.5 21.3 21.2 21.2
-1.2 -1.2 -1.2 -1.2 -1.2 -1.2 -1.2 -1.2 -1.2 6.5 7.4 7.6 7.8 7.7 7.5 7.1 7.4 7.8 8.2 8.5 8.9 9.3 9.2 8.9 8.7 8.4 8 7.7 7.6 7.7 7.7 7.7 7.7 7.7 7.6 7.6 7.6 7.7 7.8 8 8.2 8.4 8.4 8.4 8.5 8.9 8.9 8.8 8.8 8.9 8.9 8.9 8.8 8.8 8.8 8.7 8.7 8.8 9.3 10.2 10.6 10.1 9.8 8.7 8.8 8.9 8.8 8.7 8.6 8.4 8.2 8 7.8 7.6 7.3 7.3 7.2 7.4 7.5 7.6 7.9 8.2 8.5 8.8 9.2 9.4 9.7 9.6 9.2 9.9 10.8 9.1 9.1 9.1 9.1 9.1 9.1 9.1 9.4 11.1 12.6 12.4 12.3 12.2 12.1 11.9 11.8 12.1 12.4 12.8 13.1 13.4 13.7 13.9 13.7 13.6 13.6 13.8 14 14.1 14.4 14.8 14.5 14.2 14.9 15 15.8 16 16.2 16.4 16.5 16.7 16.9 17.1 17.4 17.8 18 18.3 18.5 18.8 19.1 19.3 20.3 20.5 20.6 20.7 19.9 20.5 19 19 19 20.3 21.3 20.9 20.9 20.6 19.5 19.9 20.8 21.8 22.4 24.1 28 33.5 37.9 40.9 40.8 42.2 42.7 42 40.8 38.5 35.7 34.1 32.4 31.9 33.3 35.7 34.5 35.5 36 35.1 33.7 32.3 30.8 29.6 29.2 28.1 26.7 25.7 24.4 23.8 23.5 23.1 22.7 23 22.9 22.2 21.8 22.1
-1.2 -1.2 -1.2 -1.2 -1.2 -1.2 -1.2 -1.2 -1.2 6.8 8.3 8.3 8.3 8 8.1 7.8 7.8 8.2 8.5 8.9 9.2 9.6 9.2 8.9 8.5 8.2 7.9 7.8 7.8 7.7 7.7 7.8 7.8 7.7 7.7 7.7 7.8 7.9 8 8.1 8.3 8.4 8.4 8.4 8.6 8.9 9 9.1 9.1 8.9 8.9 8.9 8.9 8.9 8.9 8.8 8.8 9.4 10 10.4 9.4 9.2 9.3 8.5 8.6 8.7 8.8 8.7 8.6 8.4 8.2 8 7.8 7.6 7.4 7.4 7.5 7.6 7.8 7.9 8 8.2 8.5 8.9 9.2 9.4 9.8 9.4 9.4 9.7 10 9.9 9.4 9.1 9.1 9.1 9.1 9.1 9.8 11.1 12.8 13.2 13.1 13 13.1 12.9 12.5 12.5 12.9 13.2 13.5 13.8 14 14 13.9 13.7 13.7 13.8 14 14.2 14.3 14.2 14.2 14.2 14.1 15.3 16.1 16.3 16.5 16.6 16.8 17 17.2 17.4 17.6 18.3 18.5 18.7 19 19.2 19.5 19.2 20.5 20.7 20.8 20.8 20.9 20.5 19.6 19 19 20.1 20.7 21.1 21 20.6 20.5 21.1 21.7 22.2 22.8 24.6 27.7 33.3 37.4 39.7 41.4 42.9 42.9 41.9 40.5 39.3 36.7 34.5 33.7 33.9 34 36 36 36 36 35.4 34.6 34.2 33.6 32.8 31.5 30.5 31.2 31.1 29.3 27.9 27.7 26.2 24.8 24.1 24.6 24 23.7 23.4
-1.2 -1.2 -1.2 -1.2 -1.2 -1.2 -1.2 6.9 6.4 7.6 8.8 8.9 8.9 8.4 8.4 8.5 8.2 8.5 8.9 9.2 9.6 9.4 9 8.6 8.3 8.1 8.1 8.1 8 7.9 7.7 7.9 7.9 7.8 7.9 7.9 8 8.1 8.2 8.3 8.4 8.4 8.4 8.6 8.7 9 9.1 9.2 9.2 9.3 9.2 9 9 8.9 8.9 8.9 9.8 10.9 9.8 9.3 8.8 8.6 8.8 8.4 8.5 8.5 8.6 8.7 8.6 8.4 8.2 8 7.8 7.6 7.5 7.6 7.7 7.9 8 8.2 8.3 8.4 8.6 8.9 9.2 9.6 9.7 9.1 9.9 9.6 9.3 10.6 10.6 10.1 9.6 9.1 9.1 9.4 10.4 12 13.4 14.6 13.9 13.9 14 13.5 13.2 13 13.3 13.5 13.8 14.1 14.3 14.1 14 13.9 13.8 13.9 14.1 14 14.1 14.2 14.1 14.1 14.6 15.6 16.4 16.6 16.7 16.9 17.1 17.3 17.5 17.7 17.9 18.4 19.3 19.5 19.4 19.6 19 19.8 20.9 20.9 20.9 20.9 20.7 20.6 19.7 19.3 19.4 20.2 20.6 21.1 21.1 21 20.9 21.2 21.8 22.4 23 23.8 26.7 30.2 34.9 37.3 41 42.7 42.8 41.7 40.4 38.9 36.6 34.6 34 34 34 36 36 36 36 34.1 34.3 34 34.5 35.9 34.1 33.2 34.6 34.7 33.5 32.5 31.8 31.2 30.3 28.9 27.7 27.3 26.8 26.2
15.1 11.2 10.4 8.6 7.6 -1.2 9 9.5 8.6 8.4 9.4 9.4 9.2 8.7 8.6 8.8 8.9 8.9 9.2 9.6 9.7 9.2 8.8 8.4 8.3 8.3 8.3 8.3 8.2 8.1 8 7.9 8 8 8 8.1 8.2 8.3 8.4 8.5 8.5 8.4 8.5 8.7 8.9 9 9.2 9.3 9.3 9.4 9.5 9.4 8.8 8.8 9.1 10.2 10.6 10.2 9.2 8.7 8.5 8.3 8.1 8.2 8.3 8.4 8.5 8.6 8.7 8.5 8.3 8.1 7.9 7.7 7.7 7.9 8 8.1 8.3 8.4 8.5 8.7 8.8 9.1 9.4 9.7 9.4 9.5 9.7 9.4 9.1 10.4 9.5 9.2 9.1 9.1 9.1 9.7 10.9 12.6 14.7 16 15.6 14.9 14.7 14.1 13.9 13.5 13.6 13.9 14.2 14.5 14.4 14.2 14.1 14 14 14 14 14.1 14.2 14.1 14.1 14 15.4 15.9 16.6 16.8 17 17.2 17.4 17.6 17.8 17.9 18.1 18.4 19.3 20.3 20.6 19 19.2 19.8 21 20.9 20.8 20.7 20.9 20.7 19.9 19.7 20.4 20.7 21.1 21.5 21.5 21.4 21.4 21.4 21.9 22.5 23.1 23.6 25.7 28.4 32.2 36.4 40.6 41.4 41.7 40.8 39.2 37.4 35.7 34 34 34 34 35.9 36.1 36 34.9 34.4 34.6 34.7 35.5 35.4 34.1 35.1 37.1 37.5 37.3 36.8 36 35.6 34.5 33 32.1 31 31.1 30
19 15.6 15 11.2 9.2 9.9 11 11.2 10.6 9.8 10 10.2 9.8 9 8.9 9 9.2 9.4 9.6 9.7 9.6 9 8.6 8.6 8.6 8.6 8.6 8.6 8.4 8.3 8.2 8.1 8.1 8.2 8.3 8.4 8.5 8.5 8.6 8.7 8.6 8.5 8.4 8.7 9 9.2 9.3 9.4 9.4 9.5 9.6 9.7 9.5 10 10.7 10.1 10 9.7 8.7 8.3 8.1 8 8 8 8.1 8.2 8.3 8.5 8.7 8.6 8.4 8.2 8 7.9 7.9 8.1 8.3 8.4 8.5 8.7 8.8 8.9 9.1 9.9 10.5 10.9 11 11 9.2 9.5 10 9.1 11 10.2 9.1 9.1 9.1 10.1 11.6 13.1 15.1 15.2 17.1 16.5 15.1 14.8 14.4 14.1 14.9 14.1 14.5 14.6 14.5 14.4 14.2 14.1 14.1 14.3 14.3 14.1 14.2 14.1 14 14 15.3 16.5 16.9 17.1 17.3 17.5 17.7 17.9 18 18.2 18.4 18.6 19.3 21 21 19.7 19.6 19.2 19.7 20.6 20.4 20.9 20.9 20.8 20.2 20.6 20.8 21.2 21.6 21.7 21.7 21.8 21.7 21.7 22.1 22.6 23.2 23.8 25.2 27.1 29.8 33.8 37 39.4 39.9 38.5 36.4 35.6 34.5 34 34 34 34 34.6 36 37.2 37.5 37 36.5 36.6 36.6 37.1 37 38.3 39.5 40.3 40.2 40.4 39.9 39.1 37.7 36.7 35.9 34.5 33.9 34
14.6 12.9 11.1 9.3 9.2 10.4 10.5 11.3 11.6 10.8 10.6 11 11 9.7 8.8 9.3 9.5 9.7 9.9 9.8 9.2 8.8 8.9 8.9 8.9 8.9 8.9 8.8 8.7 8.5 8.4 8.3 8.2 8.4 8.5 8.6 8.7 8.8 8.9 8.8 8.7 8.6 8.4 8.6 8.9 9.3 9.4 9.5 9.6 9.7 9.8 9.9 10.3 10.7 10.4 9.3 8.9 9.1 8.2 8 7.9 7.8 7.9 7.9 7.9 8 8.2 8.4 8.6 8.8 8.6 8.4 8.2 8.2 8.1 8.3 8.5 8.6 8.8 8.9 9.1 9.2 9.3 10.7 10.9 11 11 11 11 11 10.3 10 11 10.7 9.6 9.2 9.3 10.7 12.3 13.8 15.3 16.7 19.1 18.2 17.1 15.7 15.2 14.7 16 14.2 14.7 14.4 14.2 14.1 14.1 14.5 14.2 14.5 14.6 14.3 14.3 14.2 14 14 15.5 16.4 17.4 17.6 17.8 18 18.2 18.4 18.6 18.8 19 19 19.6 21 20.5 20.6 20.5 19.9 19.1 20 20.3 20.9 20.9 20.8 20.7 21 21.3 21.7 21.9 22 22 22 22 22 22.2 22.6 23 23.4 24 25.3 27.8 31.2 33.2 34.4 35.3 35.5 34.3 34.2 34.3 33.8 34 34 34 34.4 37.1 39.4 40.7 39.5 38.1 38.8 38.7 38.6 39.6 40.8 42 43.1 43.8 43.4 43 42.1 40.9 39.8 39.3 37.7 37.1 37.1
10.8 9.3 9.2 9.3 9.1 9.1 9.7 11.2 11.8 10.8 10.2 9.1 9.6 10 8.8 8.5 9.3 10.2 10.8 9.9 9.5 9 9 9.1 9.1 9.1 9.2 9 8.9 8.8 8.6 8.4 8.4 8.5 8.6 8.8 8.9 9 9 8.9 8.8 8.7 8.5 8.5 9 9.5 9.7 9.7 9.8 9.8 9.9 10.3 10.2 10.1 9.8 9.2 8.6 8.1 7.8 7.8 7.7 7.7 7.7 7.8 7.8 7.9 8.1 8.3 8.5 8.7 8.8 8.6 8.4 8.4 8.3 8.5 8.7 8.9 9 9.2 9.3 9.5 9.6 10.7 11 11 11 11 11 11 11 10.1 9.1 10.9 10.5 10 10.1 11.3 12.8 14.5 16.3 18.5 20.3 19.3 18.8 17.8 17 16 15.1 14.1 14.5 14.1 14.4 14.7 15 15 14.8 14.3 14.8 16 15.6 14.2 14 14 15.2 16.5 17.7 18.3 18.5 18.7 18.9 19.1 19.3 19.4 19.3 19 19.2 19.7 20.3 20.3 20.8 20.5 19 19.7 20.5 20.9 20.8 20.8 21.2 21.5 21.7 22.1 22.2 22.2 22.2 22.2 22.3 22.3 22.5 22.9 23.3 23.8 24.2 24.1 25.2 28.1 30 31 32.1 32.7 32.5 32.8 33.2 33.3 33.5 34.1 34.1 34.8 37.6 40.3 40.8 40.4 39.7 40.9 40.9 41.2 41.8 43.2 44.4 45.5 46.1 45.8 45.5 45.1 43.7 42.5 41.4 39.6 39.8 39.6
9.2 9.2 10.1 10.2 10.4 10.7 10.1 10.4 10.7 10.7 10.3 9.7 9.5 9.6 8.8 8.8 9.4 9.5 9.1 9.2 9.2 9.1 9.2 9.2 9.4 9.4 9.4 9.3 9.1 8.9 8.7 8.5 8.5 8.6 8.7 8.9 9 9.2 9.1 9 8.9 8.7 8.6 8.6 8.8 9.4 9.8 9.9 9.9 10 10.1 9.4 9.1 9.1 9.1 8.6 8.3 8 7.7 7.6 7.6 7.6 7.6 7.8 8 8.1 8.2 8.3 8.4 8.6 8.8 8.7 8.7 8.6 8.6 8.6 8.8 9.1 9.3 9.4 9.6 9.7 9.5 11 11 11 11 11 11 11 11 9.1 9.1 10.9 10.8 11.2 11.6 12 13.5 15.2 16.9 19.6 20.9 20 19.8 19.3 18.5 17.1 15.8 14.4 14.5 14.9 15.5 15.8 16 15.6 15.5 16 16 16 16 16 14.3 14.3 15.4 16.5 17.8 18.9 19.2 19.4 19.6 19.7 19.7 19.7 19.6 19.1 20.1 20 20.1 20.3 20.7 20.9 19.7 19.3 20.5 20.9 20.9 20.9 21.3 21.9 22.2 22.4 22.4 22.4 22.4 22.5 22.6 22.6 23 23.4 23.9 24.3 24.6 25.2 24 25.9 27.9 29.3 30.2 30.8 31.1 31.7 32.2 32.7 32.9 33.4 34.5 35.5 38 40.6 40.9 40.9 42 43.1 44 44.1 44 45.3 46.1 46.9 47.6 47.4 47.1 46.6 45.6 44.6 43.6 42 42.4 42.1
9.4 10.7 11 11 10.6 10 9.4 9.4 9.7 10 10.2 10.4 9.3 10.5 10.2 9.9 10.5 9.6 9.1 9.5 9.6 9.5 9.7 9.7 9.6 9.7 9.6 9.4 9.2 9.1 8.9 8.7 8.6 8.7 8.8 9 9.2 9.4 9.5 9.1 9 8.8 8.7 8.7 8.9 9 9.5 9.9 10.8 10.6 9.1 9.1 9 8.9 8.9 8.6 8.4 8.1 7.8 7.5 7.5 7.6 7.8 8 8.3 8.5 8.3 8.4 8.6 8.7 8.9 9 8.9 8.9 8.8 8.8 9 9.2 9.4 9.6 9.7 9.4 9.1 11 11 11 11 11 11 11 11 10.9 9.1 10.9 11.1 11.3 11.6 11.9 12.8 14.2 16.2 20.1 20.3 21.3 20.5 19.9 19 17.8 17.1 16.3 16 16.3 16.7 16.7 16.7 16.1 15.3 15.9 16 16 16 16 15 14 15.7 16.8 17.9 19.1 19.8 20.1 20 20 20.1 19.8 19.4 19 20.9 20.6 20.1 20.3 20.5 20.6 20.8 20.2 19.7 20.6 20.7 21 21.5 22.3 22.6 22.6 22.7 22.8 22.9 23 23 22.9 23.4 23.9 24.5 24.5 24.1 25.4 26 26.8 27.7 28.3 29.1 29.2 29.9 30.7 31.1 31.8 32.2 33 34.5 36.3 38.5 40.7 41 41 43.5 45.6 46 46.2 45.9 46.8 47.7 48.5 48.6 48 48.4 48.3 47.3 46.2 45.2 45 44.8 44.2
10.5 9.5 9.3 9.6 9.5 9.3 9.1 9 9 8.9 8.9 8.9 9.3 9.7 10 10.4 10.7 10.8 10.2 9.9 9.8 9.9 10.2 10.2 10.2 10 9.8 9.6 9.4 9.3 9.1 9.2 8.9 8.8 9 9.2 9.4 9.6 10.2 9.3 9.1 9 8.8 8.9 9.5 10.2 10.5 11 9.7 9.2 9 8.9 8.8 8.8 8.8 8.6 8.3 8 7.7 7.5 7.6 7.9 8.1 8.3 8.5 8.7 8.7 8.6 8.7 9 9.6 9.8 9.4 9.8 9.1 9.1 9.2 9.3 9.3 9.5 9.9 9.1 10.5 10.6 10.7 11 11 11 11 11 11 10.2 9.3 10.8 10.9 11.1 11.4 11.7 12.5 13.6 15 20.9 20.9 22.5 22.4 20.8 19.5 18.9 18.4 17.7 17.3 17.4 17.4 17.4 17.4 16.6 15.7 15.5 16 16 16 16 15.2 14 15.8 17.1 18.2 19.4 20.7 21 20.3 19.9 19.1 19 19 19 20.9 20.5 20.8 20.7 20.7 20.8 20.8 20.6 19.3 20.8 21 21.3 21.9 22.7 23 23.1 23.2 23.3 23.3 23.4 23.3 23.4 23.9 24.2 24.9 25.6 24.5 25.8 26.1 26.7 27.5 28 28.4 28.7 29 29.3 29.7 30.3 31 32.4 34.1 35.4 38 41 40.1 40.3 43.5 46 46.3 46.9 47.5 48.3 49.2 50.1 49.5 48.8 50 49.6 48.9 47.8 46.9 46.6 46.7 45.1
8.4 9.2 9.2 9.3 9.3 9.1 8.9 8.8 8.7 8.7 8.6 8.8 9.2 9.3 9.4 9.3 9.6 10.1 10.3 10.4 11 10.8 10.6 10.8 10.5 10.5 10 9.9 9.7 9.8 10 9.9 9.6 9.7 9.7 9.4 9.6 9.8 10.4 9.4 9.3 9.6 9 10 10.6 10.7 9.9 9.7 9.4 9 8.8 8.7 8.6 8.6 8.7 8.5 8.2 8 7.7 7.5 7.8 8 8.3 8.6 8.8 9 9.2 8.7 9.1 9.7 10.2 10.4 9.1 9.1 10.2 10.9 9.5 9.5 9.5 9.8 10.2 10.7 10.8 10.7 10.5 10.3 10.6 10.9 10.8 10.7 10.7 9.4 9.9 10.9 10.9 11 11.2 11.5 12.3 13.7 15.2 19.4 20.9 22.4 23.3 22.4 20.4 19.8 19.9 18.4 18.1 18.1 18 18 17.9 17 16.2 15.3 15 15.8 16 16 14.1 14 15.5 17 18.5 19.7 21 21 20.3 19.5 19 19 19 19.3 20.4 20.9 21.4 21.7 21.6 21.7 21.7 20.9 20 20.1 21.4 21.7 22.4 23.3 23.5 23.6 23.6 23.7 23.8 23.7 23.6 23.9 24.4 24.8 24 26.2 26.7 26 26.3 26.8 27.4 28 28.7 28.7 29 29 29.1 29.6 29.3 31.2 33.2 34.3 35.6 37.2 37.3 38.6 42.1 45.4 46.3 47 47.9 49.3 50.7 51 50.8 50.7 51 50.9 50.3 49.4 48.6 48.2 48.6 47.5
8.3 8.7 8.9 9 9 8.8 8.6 8.6 8.5 8.4 8.4 8.7 8.9 9 9.1 9.1 9 8.9 9.1 9.4 9.9 10.2 10.6 11 11 11 10.7 10.6 10.7 10.6 10.9 11 10.6 10.5 10.7 10.5 10.1 10 10.6 11 10.9 11 10.7 11 10.2 9.5 9.6 9.4 9.2 8.8 8.6 8.5 8.5 8.5 8.5 8.4 8.2 7.9 7.6 7.7 7.9 8.2 8.5 8.7 9 9.2 9.5 9.4 9.8 10.4 10.8 11 11 10.9 10.4 10.5 10.2 10.1 10.1 10.5 10.6 10.9 11.1 11.1 10.9 10.7 11.2 11.1 10.7 10.3 10.4 10.2 10.9 11 11.1 11.1 11.2 11.5 12.1 13 13.8 16.3 19.7 20.9 21.9 23.6 23.6 22.3 20.6 19.3 18.8 18.7 18.6 18.6 18.3 17.5 16.6 15.7 14.9 15.1 14.2 14 14.2 14.4 15.6 17.1 18.5 19.7 21 20.1 19.6 21 20.3 19.3 20 20.5 20.8 21.4 21.9 22.3 22.6 22.6 22.6 21.4 20.3 19.3 20.2 22.2 23.1 23.8 24 24 24.1 24.2 24.1 24 23.8 24.3 24.9 24.3 24.7 25.6 26 26.4 26.7 27.1 27.7 28.1 28.7 29.2 29 29.1 29.2 30.2 30.5 31.7 33.1 34.3 34 34.5 34.5 36.1 39.9 44 46.2 47.3 48.2 49 49.2 51 51 50.9 50.9 51 51 51 50.3 50.1 50.7 49.1
7.8 8.1 8.4 8.7 8.7 8.6 8.4 8.3 8.3 8.2 8.3 8.4 8.5 8.7 8.8 8.9 8.8 8.7 8.9 9 9 8.9 9 9.1 9.3 9.9 10.3 10 9.8 10.2 10.5 9.8 9.9 9.9 10.1 9.6 9.5 10 10 10 10 9.8 9.6 9.4 8.9 9.1 9.2 9.1 8.9 8.6 8.4 8.3 8.4 8.4 8.4 8.4 8.1 7.8 7.6 7.8 8.1 8.4 8.6 8.9 9.1 9.3 9.4 9.5 10.1 11 11 11 10.7 10.3 10.4 10.8 10.9 10.7 10.7 11.1 11.1 11 11.4 11.4 11.2 11.2 11.5 11.2 10.8 10.8 10.8 10.9 11.1 11.2 11.2 11.2 11.4 11.6 12.2 13 13.8 14.6 17.1 19.5 21.1 22.9 24.1 24 23.3 21.7 19.4 19.4 19.3 19.3 18.8 17.9 17 16.2 15.5 14.7 14.8 14 14.1 14.9 16.1 17.3 18.6 19.5 19.2 19 19 20 20.8 21 21 20.7 20.5 21.8 22.3 22.8 23.2 23.5 23 22.6 21.7 20.6 20.5 22 23.9 24.3 24.5 24.5 24.6 24.5 24.4 24.2 24.2 24.8 25.6 26.2 25.2 26 26.5 26.8 27.2 27.6 28.3 28.7 29.2 29.6 29.4 29.5 29.8 30.7 31.8 33 34.2 35.1 35.9 36.6 36.5 34.5 37.1 42 45.5 46.2 47.1 48.1 48.1 49.2 50.8 50.8 50.8 51.1 51.1 51 51 50.8 50.9 49.6
7.4 7.6 7.8 8.1 8.4 8.4 8.2 8.1 8.1 8 8 8.1 8.2 8.4 8.5 8.6 8.6 8.6 8.9 8.9 8.9 8.9 8.8 8.8 9.3 10.1 10 9.8 9.5 9.2 9.3 9.1 8.5 8.2 8.5 9 9.5 9.8 9.8 9.8 9.7 9.5 9.2 8.7 8.5 8.7 8.7 8.7 8.7 8.4 8.2 8.2 8.2 8.3 8.3 8.3 8 7.7 7.7 8 8.3 8.5 8.8 9 9.1 9.2 9.3 9.4 9.6 11 10.7 10.6 10.2 10.4 10.7 11 11.4 11.3 11.5 11.5 11.5 11.5 11.7 11.8 11.6 11.9 11.6 11.3 11.3 11.3 11.3 11.4 11.7 11.7 11.7 11.7 11.7 11.8 12.1 12.9 13.7 14.5 14.5 17.8 20.6 21.9 23 23.6 25.7 24.1 21.6 20.2 19.8 19.7 19.2 18.6 18 17.3 16.6 15.9 15.5 14 14.5 15.8 17 17.7 18.6 19.2 19.3 19 19 19 19 20.4 21 20.8 19.9 21.4 22.8 23.3 23.7 24.1 24.6 24.3 23.6 22.1 22 22.7 24.3 25.3 24.2 24.2 24.5 24.5 24.4 24.3 24.8 25.6 26.3 26.9 27 26.7 27.2 27.2 27.6 28 28.9 29.4 29.6 29.4 30.5 30.8 31 31.6 33.2 34.6 35.7 37.1 38.3 40 40.9 37.9 36.8 39.5 43.8 45.6 46 46.3 46.2 46.6 49.2 50.6 50.7 51.2 51.1 51.1 51 50.9 51 48
7.9 7.9 7.9 7.8 7.8 8.1 8 8 8 8 8 8 8.1 8.1 8.2 8.3 8.4 8.6 8.9 8.9 8.9 8.9 8.9 8.9 9.5 10 9.8 9.5 9.2 8.9 8.6 8.4 8.1 8.1 8.4 8.9 9.4 9.6 9.6 9.6 9.4 9.2 8.9 8.6 8.2 8.3 8.3 8.3 8.2 8.2 8.1 8.1 8.1 8.1 8.2 8.2 8 7.7 7.9 8.2 8.4 8.6 8.7 8.8 9 9.1 9.2 9.3 10.1 11 10.5 10.2 10.3 10.6 11 11.3 11.6 11.9 12 12 12 11.9 11.9 12.2 12 12.1 11.8 11.8 11.8 11.8 11.8 11.9 12.1 12.5 12.5 12.1 12.1 12.1 12.1 12.8 13.6 14 14.2 15 18.4 20.4 21.2 23.7 25.9 25.8 24.4 22.5 22.2 21.8 20.5 19.9 19.2 18.5 17.6 16.5 15.5 14.4 15.8 16.8 17.2 17.6 18.4 18.7 18.9 19.1 19 19 19 19 20 20.6 19.4 20.9 22.3 23.8 24.2 24.8 25.8 26 24.6 23.7 23.7 24.4 25 25.8 24 24 24.2 24.1 24.4 24.8 25.7 26.4 27 27.2 27.4 27.6 27.7 27.7 28 28.6 29.5 29.3 29.1 29.9 30.9 31.4 31.8 32.3 33.6 35 36.5 38.4 40.4 40.8 40.9 40.2 39.1 39.4 39.6 42.5 43.4 44.4 44.2 44.6 47.4 50.1 50.7 51.1 50.9 50.5 50.5 50.3 48.6 45.9
8.7 8.4 8.4 8.4 8.3 8.2 8 8 8 8 8 8 8 8.1 8.1 8.1 8.1 8.7 8.9 8.9 8.9 8.9 8.9 9 9.7 9.7 9.5 9.2 8.9 8.6 8.2 8.1 8 8.1 8.3 8.8 9.3 9.4 9.4 9.3 9.1 8.8 8.6 8.3 8.1 7.8 7.9 7.8 7.8 7.9 7.9 8 8 8 8 8 7.9 7.8 8.1 8.3 8.4 8.5 8.6 8.7 8.8 9 9.2 9.3 9.7 9.2 10.2 10.1 10.5 10.9 11.2 11.5 11.8 12.2 12.4 12.4 12.4 12.4 12.4 12.5 12.5 12.3 12.3 12.3 12.3 12.3 12.3 12.3 12.5 12.9 13.1 12.8 12.5 12.4 12.4 12.7 13.4 13.5 13.9 14.6 15 17.6 19.6 22.2 25.5 25.8 25.9 25 23.8 24 22.8 21.4 19.9 19.3 18.6 17.6 16.6 16 16.4 16.9 17.1 17.4 17.9 18.1 18.8 19.3 19 19.1 19.1 19.1 19 19 19 20.8 22.4 23.8 25.3 26 25.8 25.6 24.6 24.8 24.2 24.1 24.8 25.8 25.6 25.3 25.2 25.8 25.2 25.1 26 26.8 27.3 27.5 27.6 27.8 27.9 28 28.5 29 29.8 29.5 29.1 30.9 31.6 32.1 32.5 32.9 33.7 34.4 36 38.4 41 41 41 39 39 39 39 39 39.4 41.4 42.8 43.7 46.1 48.9 50.9 51.1 51 51 49.2 47.7 46 43.3
9.1 9 8.9 8.8 8.7 8.4 8.1 8.1 8.1 8 8 8 8 8 8 8 8 8.9 8.9 8.9 8.9 8.9 8.9 9.2 9.7 9.5 9.2 8.9 8.6 8.3 8.2 8.2 8 8.1 8.3 8.7 9.2 9.2 9.2 9 8.8 8.5 8.3 8 7.8 7.5 7.4 7.5 7.7 7.8 7.8 7.8 7.8 7.9 7.9 7.9 7.8 8 8.1 8.2 8.3 8.5 8.7 8.9 9.1 9.3 9.4 9.4 9.8 9.4 9.5 10.3 10.7 11.1 11.4 11.7 12 12.3 12.6 12.7 12.7 12.7 12.8 12.8 12.8 12.8 12.8 12.8 12.8 12.8 12.8 12.8 13 13.4 13.8 13.6 13.3 13.1 12.8 12.7 13 13.1 13.5 14 14.5 15.7 18.1 20.6 23.7 25.9 26 26 25.8 26 25 24.3 22.8 21.4 19.7 19 18.3 17.5 17.2 17.6 17.7 17.9 18.4 19.3 19.9 19 19.6 19.1 19.1 19.1 19 19 19 21.2 22.8 24.2 25.7 25.9 25.8 26 25.5 25.7 24.2 24.2 25.6 27 27.1 26.8 26.4 26.1 25.7 25.7 26.2 26.8 27.5 27.7 27.9 28 28.1 28.5 29 29.4 30.4 30 29.5 30.5 31.4 32.4 33 33.3 33.9 35.3 36.3 38.4 41 41 40.9 39.5 39 39 39 39 39 39.5 41.6 43 45.4 48.2 51.3 52.6 51.3 49.7 47.5 45.4 44 41.1
9.1 9.1 9.2 9.1 9 8.6 8.2 8.1 8.1 8.1 8.1 8.1 8 8 8 8 8.9 8.9 9 9 9 9 9 9.4 9.5 9.2 8.9 8.6 8.4 8.4 8.3 8.2 8.1 8 8.2 8.6 9.1 9 9 8.7 8.5 8.2 8 7.7 7.5 7.3 7.3 7.5 7.6 7.7 7.7 7.7 7.7 7.7 7.8 7.8 7.8 8 8.2 8.4 8.6 8.8 9 9.2 9.4 9.4 9.4 9.7 9.5 9.2 9.8 10.4 10.9 11.3 11.6 11.9 12.2 12.5 12.7 12.9 13 13 13.1 13.1 13.3 13.3 13.3 13.3 13.4 13.4 13.4 13.3 13.2 13.6 14.2 14.3 13.7 13.5 13.2 13 12.9 13 13.3 13.8 14.3 14.9 16.6 19 21.5 23.9 26 26 26 26 26 26 25.7 24.4 22.1 21.3 20.2 19 18.4 18.3 18.4 18.6 19 19.8 20.3 20.1 19.7 19.8 19.2 19.1 19 19 19 20.2 22.2 24.4 25.5 26.3 26.9 26.8 26.3 25.7 25 24.1 25.4 26.9 27.5 27.1 26.7 26.3 26.3 26.1 26.3 26.9 27.5 27.9 28.1 28.2 28.5 28.9 29.4 29.9 29.5 30.9 31.3 31.3 31.7 32.6 33.9 34 34.2 35.6 37.1 38.7 39.4 40.8 40 39 39 39 39 39 39.7 39.9 41.1 42.8 44.7 47.6 51 55 52 49.4 47.3 45.5 43.5 40.6
11 10 9.5 9.4 9.2 8.8 8.4 8.2 8.2 8.2 8.2 8.2 8.1 8.1 8 8.1 8.9 8.9 9 9 9 9 9 9.4 9.2 8.9 8.6 8.6 8.5 8.5 8.4 8.3 8.1 8 8.1 8.5 8.9 8.8 8.6 8.4 8.1 7.9 7.6 7.5 7.4 7.3 7.3 7.4 7.5 7.5 7.6 7.6 7.6 7.6 7.7 7.9 8.1 8.3 8.5 8.7 8.9 9.1 9.3 9.4 9.4 9.5 9.5 9.6 9.3 9.1 10.1 10.6 11.1 11.5 11.8 12.1 12.4 12.7 12.9 13.2 13.2 13.3 13.3 13.4 13.4 13.9 13.9 13.9 13.9 14 14 13.6 13.4 13.7 14.3 15 14.4 13.6 13.3 13.2 13.1 13 13.3 13.8 14.3 14.7 15.5 18.2 20.3 22 24.8 26 26 26 26 26 26.1 26 24.5 23.9 23.3 21.3 19.9 19.6 20.3 19.5 20.8 21.2 22.5 22.8 21.8 20.8 19.5 19.1 19 19 19 20.2 22.3 24 25.7 27.2 28 28.3 27.8 26.8 25.8 24.7 25.2 26.4 27 27.3 26.9 26.8 26.6 26.5 26.6 27 27.5 28.1 28.3 28.4 28.9 29.4 29.9 29.5 30 31 31.8 32 32.5 33.1 33.8 35.1 35.4 35.9 37.5 38.6 39.6 41 41 39 39 39 39 40 40.8 40.8 41.7 43.4 45.5 47.7 50.7 56 51.3 49.3 47.4 45.6 43 40.2
15.3 13.5 10.1 9.7 9.3 9 8.6 8.2 8.2 8.3 8.3 8.2 8.2 8.5 8.3 8.3 8.9 8.9 9 9 9 9 9.1 9.2 8.9 8.8 8.7 8.7 8.6 8.6 8.5 8.3 8.2 8.1 8.1 8.4 8.7 8.6 8.3 8.1 7.8 7.6 7.5 7.5 7.4 7.3 7.3 7.3 7.4 7.4 7.4 7.5 7.7 7.8 8 8.2 8.4 8.6 8.8 9 9.2 9.4 9.4 9.5 9.5 9.5 9.6 9.4 9.3 9.2 10.2 10.8 11.3 11.7 12 12.3 12.6 12.8 13.1 13.3 13.5 13.5 13.6 13.6 13.6 14 14.5 14.5 14.5 14.5 14.2 13.8 13.6 14 14.3 15.7 15 14.1 13.5 13.4 13.3 13.3 13.3 13.8 14.1 14.4 14.7 16.6 18.4 20.4 22.1 23.9 25 25 26 26.2 26.4 26.7 27.4 27.1 25.8 24 23 22.2 22.7 22.6 23.3 22.8 24.3 25.4 24.8 23.5 21.8 20 20.1 19.6 19.9 21 22.7 24.3 26 27.7 29 29.6 28.9 27.8 26.4 24.4 24 25.8 26.2 26.8 27.3 27.1 27 26.9 27 27.2 27.7 28.2 28.5 28.9 29.4 29.8 30.2 30.9 31.5 31.7 32.2 32.7 33.3 33.8 34.4 35.6 36 36.6 37.3 38.2 39.2 41 41 39 39 39 39.6 40.5 40.8 41.6 42.6 44.1 46.2 48 50.1 52.6 50.5 48.4 46.4 44.5 42.5 40
18.9 15.9 15.3 10.2 9.6 9.1 8.8 8.4 8.3 8.4 8.4 8.3 9 8.7 8.9 8.6 8.9 8.9 9 9 9 9.1 9.2 9 8.9 8.9 8.8 8.8 8.7 8.7 8.5 8.4 8.3 8.1 8 8.3 8.5 8.2 8 7.7 7.7 7.6 7.5 7.5 7.4 7.4 7.3 7.2 7.3 7.4 7.6 7.7 7.9 8.1 8.3 8.5 8.6 8.8 9 9.3 9.4 9.5 9.5 9.5 9.6 9.6 9.6 9.4 9.2 9.6 10.4 10.9 11.5 11.9 12.2 12.5 12.8 13 13.2 13.5 13.7 13.8 13.9 13.9 13.9 13.9 14.8 15.1 15.1 14.9 14.5 14.1 13.9 14.2 14 15 14.8 14.5 13.8 13.6 13.5 14 14.1 13.8 14.1 14.2 14.2 15.1 16.6 18.6 20.3 21.7 23.2 24.6 25.7 26.1 26.6 28.2 29.3 29.5 28.2 26.6 26.3 25.2 25.3 25.4 25 24.6 25.7 26.7 26.3 25.4 24.1 21.9 21.5 20.8 20.7 22.1 23.3 25.4 27.1 28.4 29.4 31 29.1 26.7 24.5 24 24.7 25.2 25.9 26.6 27.5 27.5 27.3 27.4 27.4 27.5 27.9 28.3 28.8 29.2 29.6 29.6 30.4 31.5 31.9 32.1 32.7 33.4 34.2 34.9 35.7 35.5 36.2 37 37.7 38.4 39.2 41 40.6 40.3 40.5 40.3 40.6 41.1 41.7 42.7 43.9 44.2 44.9 47.2 49.3 50.7 49.7 47.6 45.5 43.6 41.2 39.5
21.5 17.5 15.9 13.2 10.1 9.7 9.3 8.7 8.5 8.5 8.7 9.4 10.1 9.2 9.7 9 8.9 9 9 9.1 9.2 9.2 9 9.1 9 9 8.9 8.9 8.8 8.7 8.6 8.5 8.3 8.2 8.1 8.3 8.2 7.9 7.8 7.7 7.7 7.6 7.6 7.5 7.4 7.4 7.3 7.3 7.4 7.6 7.8 8 8.2 8.4 8.5 8.7 8.9 9.1 9.3 9.5 9.6 10.1 10.1 10.2 10.2 9.9 9.8 9.6 9.3 10 10.6 11.1 11.6 12.1 12.4 12.7 12.9 13.2 13.4 13.6 13.9 14.1 14.1 14.1 14.1 14.1 14.5 15.6 15.6 15.2 14.8 14.3 14 14 15.2 14 14.3 14.7 14.2 13.8 14.1 14.7 14.8 14.4 14 14.1 14.1 14 15.1 16.9 18.2 19.7 21.1 22.8 24.5 25.8 26.7 28.5 29.5 30.2 30.2 29.3 28.9 29 28.2 27.6 27 27.3 28.2 28.9 28.6 27.7 25.7 23.8 22.9 22.1 22.1 23.3 24.3 26 28 30.1 30.6 30.3 29.2 26.6 26.3 25.7 25.6 25.7 25.7 26.5 27.3 27.8 27.7 27.8 27.9 27.9 28.1 28.1 28.2 29.4 29.2 30.2 31.4 31.9 32.4 32.4 32.5 33.1 34.5 34.7 34.5 35.9 36.8 37.4 38.1 38.8 39.5 40.1 40.8 41.2 41.6 41.4 41.6 42 42.3 43.5 45.1 45.5 45.6 46.9 47.9 48.2 47.8 46.7 44.8 44 42.8 41
22.5 17.5 15.9 15.9 12.7 10 9.4 9 8.8 8.8 9.6 10.5 9.4 9.7 10.5 10 9.6 9.7 9.8 9.9 9.1 8.8 8.6 8.9 9.1 9.1 9 8.9 8.9 8.8 8.7 8.5 8.4 8.2 8.1 8.1 7.9 7.9 7.8 7.8 7.7 7.7 7.6 7.5 7.5 7.4 7.4 7.3 7.4 7.6 7.9 8.1 8.3 8.5 8.7 9 9.2 9.4 9.5 9.7 9.8 9.9 10.4 10.5 10.2 10.3 10.3 9.7 9.4 10.1 10.7 11.3 11.8 12.3 12.6 12.9 13.1 13.3 13.6 13.8 14 14.3 14.3 14.4 14.4 14.4 14.4 14.9 15.4 15.1 14.9 14.7 15 15.2 14 14.8 14.4 14 14.1 14.7 14.8 15.4 15.4 14.4 14 14 14 14 14 15.2 16.3 17.4 19.3 21.2 24.6 25.9 25.6 27 29.1 30 31 29.5 29 30.2 30.7 29.4 29.7 29.2 30 30.7 29.8 29.8 27.8 25.7 24.2 23.6 23 23.8 25 26.8 29.4 31 31 30.2 29 28 26.9 26.6 26.5 26.4 26.3 26.3 27.1 28 28.1 28.2 28.2 28.2 28.7 28.6 28.7 29.8 30 31.3 31.8 32.4 32.9 32.9 32.9 32.9 34.6 34.6 34.9 36.1 37.5 38.1 38.7 39.3 40.5 40.8 41.4 42.2 42.6 42.5 42.8 43.1 43.5 43.7 44.8 45.5 45.9 46.4 46.9 47 47 45.5 44.4 44.6 45.4 43.8
22.7 17.1 15.9 15.9 15.9 11.2 9.4 9 9.2 9.2 10 10.5 9.9 9.3 10.3 10.7 10 10.5 9.9 9 8.7 8.4 8.3 8.4 8.7 9 9.1 9 9 8.8 8.7 8.6 8.4 8.3 8.2 8.1 8 8 7.9 7.8 7.8 7.7 7.6 7.6 7.5 7.5 7.4 7.4 7.5 7.7 7.9 8.1 8.4 8.6 8.8 9 9.2 9.4 9.6 9.7 9.5 9.5 10 9.9 10.7 10.8 10.7 10.2 10.1 10.4 10.8 11.4 12 12.5 12.8 13 13.3 13.5 13.7 14 14.3 14.5 14.1 14.4 14.4 15.3 15.2 15.2 15.5 15.7 15.5 15.3 15.5 15.6 15.7 15.7 14.8 14.2 14 15.5 15.6 15.7 14.4 14 14 14 14 14 14 14 14.4 15.4 17.1 19.6 23.1 25.4 24.3 24.9 27.2 29.9 30.8 31 30.3 31 31 30.7 31 31 30.7 30.7 31.6 31.8 30 27.9 26.1 25.1 23.8 24 25.8 27.5 30.1 30.9 31 29.9 29.1 28.5 27.3 27.4 27.5 27.4 27.3 27.2 27.7 28.4 28.4 28.4 28.4 28.4 29.5 29.3 29.2 30.2 31.2 31.7 32.3 32.8 33.3 33.4 33.4 33.4 34 35.4 35.9 36.6 37.8 38.8 39.4 39.5 39.8 41.5 41.8 42.8 43.5 43.6 43.9 44.2 44.8 44.7 44.4 46.3 46.6 46.8 46.6 46.2 46.3 44.8 45 45.8 45.9 44
20.9 15.9 15.9 15.9 15.9 14.1 9.6 9.1 9.4 9.4 11.1 11.9 12 12.1 12.4 11.5 10.8 9.9 9 8.6 8.3 8 7.9 8 8.2 8.6 8.9 9.1 9 8.9 8.8 8.7 8.7 8.6 8.5 8.3 8.2 8.1 8.1 8 7.9 7.8 7.7 7.7 7.6 7.5 7.5 7.4 7.5 7.7 8 8.2 8.4 8.6 8.7 8.9 9.1 9.3 9.5 9.7 9.5 9.4 9.1 9.7 10.5 11.3 11.2 11 10.8 11 11.4 11.7 12.1 12.6 12.9 13.2 13.5 13.8 14.1 14.4 14.5 14.6 14 14 15.5 15.7 15.8 16 16 16.1 16.1 16.2 16.2 16.2 16.2 16.1 15.5 14.8 14.7 15.3 15.3 15.5 14.7 14 14 15.5 14 14 14 14 14 14.1 15.1 18 21.2 22.4 22.6 23 25.2 27.8 30.8 31 31.1 31.6 31.7 30.9 31 31.1 31.2 31.7 33.2 33.6 32.3 30.9 28.9 26.5 24.4 24 25.9 28.4 30 30.7 30.9 31 29.4 28.9 27.9 28.3 28.5 28.4 28.3 28.2 28.7 28.6 29.3 28.7 28.7 28.7 29.8 29.9 29.5 29.9 31.3 32 32.7 33.2 33.8 34 33.9 34.1 34.1 34.5 36.1 37.3 38.4 39.6 40.4 40.7 40.9 41.3 42.3 43.3 44.3 44.7 45 45.5 46 46.1 45.8 46.7 47.4 47.5 47.2 46.8 46.4 45.5 45.5 45 45.3 44.6
18.8 15.9 15.8 15.6 15.8 15.7 12.9 9.5 10.1 10.6 13.1 14.8 14 15.2 14.8 12.7 10.7 9.8 9 8.6 8.3 8 8 8.1 8.1 8.4 8.7 9 9.2 9.2 9.1 9 8.9 8.8 8.7 8.5 8.4 8.3 8.2 8.2 8.1 8 7.9 7.8 7.8 7.7 7.6 7.7 7.5 7.7 7.9 8.1 8.3 8.5 8.7 8.8 9 9.2 9.5 9.6 9.5 9.3 9.2 9.7 10.6 11.4 12 11.8 11.6 11.7 12 12.4 12.7 13.1 13.2 13.5 13.8 14.1 14.4 14.6 14.6 14 14 15.1 15.4 15.6 15.9 16.1 16.3 16.5 16.7 16.7 16.7 16.7 16.7 16.6 16.2 15.4 15.4 15.9 15.8 15.7 15.8 15.1 14.4 15.6 14.2 14 14 14 14 14 14.1 16 18.2 19.5 20.1 20.9 23 25.2 28 30.1 30.6 31.1 31.4 30.7 30.9 31 31 31.8 34.1 34.9 35.6 34.1 31.6 29.2 27 25.3 26.2 28.8 30.5 31.1 31.3 30.3 29.6 29.2 28.8 29.2 29.4 29.4 29.3 29 28.9 29.1 29.8 30 29 28.9 29.9 30.9 30.1 29.9 31.4 32.2 32.9 33.6 34.2 34.5 34.6 34.3 34.4 34.8 35.6 37.4 39 40.4 40.9 40.6 40.9 41.7 42.9 43.6 44.5 45.2 46.1 46.6 47.1 47.2 47.1 47.6 48.6 48.6 48.1 47.5 47.1 47 46.7 46.3 46 44.5
17.1 16 15.1 14.9 15.4 15.5 15.6 10.1 10.1 11.4 14.4 15.8 14.2 15.9 15.9 13.9 11.9 10.3 9.2 8.9 8.6 8.4 8.5 8.4 8.3 8.4 8.7 9.1 9.7 9.4 9.3 9.2 9.2 9.1 8.9 8.7 8.6 8.5 8.4 8.3 8.2 8.2 8.1 8 7.9 7.9 8 7.8 7.6 7.6 7.8 8 8.2 8.4 8.6 8.8 8.9 9.2 9.4 9.6 9.5 9.3 9.2 10.1 10.9 11.6 12.2 12.5 12.4 12.4 12.7 13 13.4 13.7 13.8 13.9 14.2 14.5 14.6 14.6 14.8 15.4 15.2 15.2 15.9 16.1 16.3 16.5 16.8 17 17.2 17.2 17.2 17.2 17.2 17.1 16.9 16 16.1 16.4 16.3 16.3 16.2 16.1 16.2 16.1 15.9 15 14 14 14 14 14.3 14.7 15.6 17.3 18.2 19 20.7 23.3 25.1 26.6 27.9 29.4 30.4 30.8 31 30.8 30.8 31 33.1 34.7 35.9 35.8 34 31.5 29.2 28 28 29.2 30.9 31.5 31.4 30.7 29.5 29.3 29.6 30 30.2 30.1 29 29 29 29.7 30.3 30.4 29.8 29.7 29.8 30.6 30.5 29.6 31.1 32 32.8 33.6 34.4 35.2 35.5 35.9 35.6 36 36.6 38.2 39.6 40.1 39.5 39.7 41.2 42.6 43.9 44.8 45.3 45.9 46.7 47.6 48.2 48.4 48.2 48.5 49.9 50.1 49.4 48.8 48.2 48.4 48 47.6 47.1 46.8
17.1 16.4 15.6 14.7 14 14.5 15.9 12.7 9.1 10.8 15.2 15.6 15.9 15.9 15.9 14.6 13.4 10.8 9.6 9.1 9.3 8.8 8.8 8.7 8.7 8.6 8.7 9.2 10 9.9 9.6 9.5 9.4 9.2 9.1 8.9 8.8 8.7 8.6 8.5 8.4 8.3 8.3 8.2 8.1 8.2 8.4 7.9 7.7 7.7 7.7 7.9 8.1 8.3 8.5 8.7 8.9 9.1 9.3 9.5 9.4 9.3 10.3 10.6 11.1 11.8 12.4 13 13.1 13 13.3 13.7 14.3 14.4 14 14.4 14.6 14.5 14.5 14.4 15.2 15.5 15.9 15.6 16.1 16.6 16.8 17 17.2 17.4 17.4 17.7 17.7 17.7 17.7 17.6 17.5 16.6 16.8 17 16.9 16.8 16.7 16.5 16.4 16.3 16.1 16 15.3 14.7 15.1 15.3 15.2 14.9 14.6 15.3 16.3 17.6 19.6 22.1 22.9 24.5 25.9 27.6 29.7 30.7 30.9 30.9 30.6 30.8 31.6 33.8 35.9 36 36 33.4 30.5 29.2 29 29.3 30.9 32.2 31.9 31.2 29.1 29.1 29.8 30.3 31 31.2 30.7 30.3 29.8 30.6 30.7 30.9 30.9 31 31.1 31.2 31.3 31.5 31.5 31.9 32.9 33.9 34.6 35.8 36.5 36.8 36.6 37.2 37.8 39.1 40.7 40.7 40.3 41.4 42.3 43.7 44.9 45.5 46 46.6 47.4 48.3 49.1 49.6 49.3 49.5 50 50.3 50.3 50.2 49.9 49.1 49 48.5 48.3 49.3
17.2 16.6 16 15.3 14.2 14.3 14.8 15.7 9.9 9.8 15.6 15.9 15.9 15.9 15.9 15.4 14.8 12.3 10.6 9.8 10.1 9.2 9.2 9.1 9 8.9 8.9 9.4 10.1 10.5 10.1 9.7 9.6 9.4 9.3 9.1 9 8.9 8.8 8.7 8.6 8.5 8.4 8.4 8.4 8.9 8.5 8 7.8 7.8 7.8 7.8 8 8.2 8.4 8.6 8.8 9 9.2 9.4 9.5 9.9 10.1 11 11.3 12 12.6 13.2 13.7 13.7 14 14.7 14.9 15.1 14.3 14.7 14.7 14.5 14.2 14.4 15.3 15.7 16.2 16.6 16.2 17 17.2 17.5 17.7 17.7 17.8 18.2 18.2 18.2 18.2 18.1 18 17.3 17.5 17.5 17.4 17.3 17.2 16.8 16.8 16.7 16.5 16.3 16.1 15.9 15.9 15.9 15.5 15.6 15.2 14.8 14.9 16.3 18.6 19.8 21.6 23.5 24.9 26.8 29.7 30.6 30.8 30.9 30.8 30.7 30.6 32.5 34 35.8 35.9 34.7 32.4 30.5 29 29.7 31 32.6 32.5 30.4 29 29 29.5 30.7 31.3 32 31.6 31 31 31.2 31.4 31.6 31.5 31.5 31.6 31.7 31.8 31.9 32.5 33.1 33.7 34.5 34.8 36.1 37.5 37.8 37.8 38.4 39 39.6 39.4 40.2 41.1 42.3 43.5 44.6 45.6 46.1 46.6 47.3 48.2 49 49.8 50.9 50.7 50.7 51.3 51.7 51.3 50.9 50.4 50 49.8 49.5 49.7 50.1
16.8 16.3 15.7 15.2 15.2 14 14.3 12.3 9.5 10.4 15.9 15.9 15.9 15.9 15.8 15.9 15.9 13.8 12.2 10.9 9.6 9.5 9.3 9.2 9.1 9 8.9 9 9.4 11 10.7 10.3 9.8 9.6 9.5 9.3 9.2 9.1 9 8.9 8.8 8.7 8.6 8.6 9.5 9 8.6 8.1 7.9 7.9 7.9 7.9 7.9 8.1 8.3 8.5 8.7 8.9 9 9.1 9.5 9.6 9.9 10.4 11.7 12.2 12.8 13.4 13.9 14.4 14.9 15.5 15.6 15.8 14.2 14.2 14.2 14 14.5 15.3 15.5 16 16.4 16.8 17.3 17.2 17.7 17.9 18.1 18.1 18.3 18.6 18.7 18.7 18.7 18.6 18.5 17.9 18.1 18 18 17.9 17.4 17.2 17.2 17 16.9 16.7 16.6 16.3 16.3 16.3 16 15.7 15.7 15.8 15.4 15.1 17.7 19.3 21.5 23.2 24.5 27.2 30.3 31.3 31.9 31.5 31.7 31.2 30.4 29.6 31.5 35.8 39.1 36.7 34.1 32.2 30 30 31.8 33.2 32.5 30.3 29.5 29 29.8 31.4 31.9 32.6 32.6 32 31.8 32 32.3 32.2 32.1 32.1 32.2 32.3 32.2 32.4 33 33.4 34.7 35.3 35.6 36.7 37.8 38.8 39 39.6 39.7 39.4 40.2 41 41.9 43.2 44.4 44.5 46.2 46.8 47.3 48 48.9 49.7 50.8 51.9 52.2 52.3 52.8 53.1 52.8 52.3 51.5 51.1 50.7 51.1 51.4 52.1
16.2 15.8 15.2 15.4 15.6 15.5 12.2 10.4 9.2 10.8 15.8 15.9 15.9 15.8 15.8 15.9 15.9 14.2 13.9 12.8 11.6 9.8 9.6 9.3 9.1 9 8.9 9 9.1 10.2 10.3 10.5 9.8 9.8 9.7 9.5 9.4 9.3 9.2 9.1 9 8.9 8.8 10 9.6 9.2 8.7 8.2 8 8 8 8 8 8 8.2 8.3 8.3 8.3 8.4 8.8 9.1 9.5 10.2 10 11.1 12.5 13 13.6 14.2 14.8 15.8 15.7 15.4 15.4 14.5 14.5 15.3 15.5 15.5 15.9 15.8 16.2 16.6 17.1 17.5 17.9 18.1 18.4 18.6 18.5 18.8 18.8 19.2 19.2 19.2 19.1 19 18.5 18.7 18.6 18.5 17.9 17.7 17.6 17.6 17.4 17.3 17.1 17 16.7 16.8 16.8 16.5 16 15.8 15.9 16 15.8 18 18.9 20.6 23 24.8 28.4 31.5 33.1 34 34.3 33.5 32.2 30.3 29 29.3 33.7 39.8 39.5 35.1 33.1 31.7 30.9 32.9 33.7 32.8 31 30.3 29.6 30.7 31.8 32.7 33.5 33.7 32.8 32.6 32.8 32.9 32.8 32.8 32.6 32.7 32.7 32.7 33 33.5 33.6 34.6 35.3 36.5 37.5 38.9 39.5 40.2 39.9 39.9 39.7 40 41.6 42.7 44 44.8 45.8 46.2 47.5 48 48.7 49.6 50.7 51.9 53 53.6 53.9 54.3 54.5 54.3 53.3 53.3 52.8 52.5 52.8 53 54.1
15 15.3 15.3 15.7 15.9 15.8 11.8 9.3 10.6 9.3 10.5 15 15.8 15.7 15.8 15.9 15.9 14 15 14.7 13.6 11.5 9.9 9.5 9.1 9.2 9 10.2 10.6 10 10.1 10.7 10.5 9.6 9.9 9.7 9.6 9.5 9.4 9.3 9.1 8.9 9.3 10.5 9.5 9.1 8.6 8.2 8.2 8.2 8.2 8.1 8.1 8.1 8 8 8.1 8.1 8.2 8.5 8.8 9.2 9.5 10.7 11 13 14.5 14.2 14.7 14.6 16 16.1 16.1 16.1 15.7 15.4 16 16.1 16.2 16.3 16.3 16.4 16.9 17.3 17.7 18.2 18.6 18.8 19 19 19.3 19.1 19.7 19.7 19.6 19.6 19.5 19.2 19.2 19.1 18.5 18.2 18 18 18 17.8 17.7 17.5 17.4 17.2 17.3 17.3 16.9 16.5 16.1 16 16 16.7 17.7 18.6 19.7 22.1 24.5 28.1 32.5 35.1 35.7 35.7 35 32.8 30.4 29.1 29 31.6 37.6 39.6 36.4 34.5 33.3 32.7 33.6 34.1 33.6 32.1 31.5 31.4 31.8 32.7 33.7 34.4 34.8 33.6 33.4 33.6 33.5 33.5 33.4 33.2 33.3 33.2 33.1 33.5 33.9 34.1 34.5 35.5 37.1 38.8 39.5 40.8 40.3 40.3 40.2 41.7 41.5 42.6 43.8 44.4 45.1 46.7 47.3 47.8 48.7 49.5 50.6 51.8 52.9 54 55.1 55.3 55.7 55.6 55.1 54.5 55.2 54.5 54.6 54.8 54.9 57.1
15 14 14.1 14.8 15.9 14.8 12.7 12.9 13.6 11.2 9.7 10.4 15.4 15.7 15.8 15.9 15.6 15.4 15.3 15.6 15.4 13.2 10.8 9.2 9.6 9.1 9.1 9.1 9.8 10.8 11.6 12.2 12 10.6 10.1 9.9 9.8 9.6 9.4 9.2 9 9.2 10.5 10.6 9.9 8.8 8.4 8.4 8.4 8.3 8.3 8.2 8.2 8.1 8 8.1 8.1 8.1 8.2 8.3 8.7 9.2 9.7 10.5 11.8 13.8 15.6 15.3 15.2 15.7 16.2 16.3 16.4 16.5 16 15.7 16.2 16.8 16.8 16.8 16.8 16.7 17.1 17.5 18 18.4 18.8 19.3 19.3 19.5 19.8 19.3 20 20.2 20.1 20 20 19.9 19.7 19.2 18.7 18.5 18.3 18.4 18.4 18.2 18.1 17.9 17.8 17.6 17.7 17.8 17.4 17 16.5 16.1 16.1 16.8 17.5 18.3 19.2 21.2 23.6 26.7 31 35.9 36 35.9 36 33.9 30.6 29.1 29 29.3 36 39.8 37.3 35.5 34.4 33.6 33.5 34.1 34.1 33.5 32.6 33.1 33.5 33.8 35 35.6 35.7 34.4 34.2 34.2 34.2 34.1 34.1 33.9 33.8 33.7 33.6 34 34.3 34.6 34.7 35.9 37.4 39.1 40.2 41.2 41.3 41.5 41.8 42.2 43.3 43.8 44.5 44.6 45.9 47 48.1 48.8 49.5 50.6 51.7 52.7 53.7 54.8 55.8 56.2 56.8 56.8 56.1 56.6 57.1 56.9 57.1 57.3 57.8 60.5
15.4 15.8 14 14 14 14.3 14.5 15.9 15 13.1 11.8 10.7 14.1 15.5 15.7 15.7 15.8 15.9 15.7 15.6 15.9 14.2 13 11.7 10.6 9.4 9.1 9.1 10.1 11 11.9 13 13.4 11.7 10.5 10.2 9.9 9.3 9.2 9.1 9.5 9.5 10.8 10.9 10.6 8.8 8.6 8.5 8.5 8.4 8.3 8.3 8.2 8.1 8.1 8.1 8.1 8.1 8.2 8.3 8.6 9 9.4 10.5 12.2 13.9 15.1 15.4 15.7 16 16.4 16.5 16.6 16.5 15.8 16 16.4 17.1 17.3 17.2 17.2 17.2 17.3 17.7 18.2 18.6 19.1 19.5 20.2 20.3 20.7 19.8 20.3 20.7 20.6 20.5 20.4 20.4 19.8 19.3 19 18.8 18.6 18.8 18.7 18.6 18.5 18.3 18.2 18.1 18.2 18.3 17.9 17.5 17 16.7 16.4 16.8 17.6 18.3 19 20.9 22.7 25.2 29 33.2 35.9 35.8 35.9 35.2 31.1 29.2 29.1 30.1 34.5 38.2 39.4 37.8 34.7 34 34 34 35.7 33.9 33.7 34 34.3 34.7 35.4 35.5 36 34.1 34.9 34.9 34.8 34.8 34.7 34.6 34.4 34.2 34.1 34.4 34.8 35.2 35.9 37 38.4 39.8 40.7 41.4 42.2 42.8 43.4 44.2 43.9 44.9 45.4 45.8 46.7 47.9 49 50 50.6 52 53.1 54.1 55.2 56.2 57.1 58 57.9 58 58.4 58.4 59.8 60 60 60.2 60.9 61.9
15.9 15.6 14 14 14 14.8 15.6 15.8 15.8 15.7 14.7 13.8 14.2 14.9 15.7 15.2 15.4 15.6 15.8 16 16 15.1 15.9 14.1 11.1 10 9.5 9.3 10.4 11.5 12.6 13.8 14.4 12.5 11.4 10.8 10.3 9.8 9.4 9.8 10 10.5 11 11 10.6 8.7 8.7 8.6 8.5 8.5 8.4 8.3 8.2 8.2 8.1 8.1 8.1 8.2 8.3 8.3 8.7 8.9 9.2 9.9 11.6 14 15.4 15.8 16.1 16.4 16.7 16.6 16.5 16 16.1 16.4 16.9 17.5 17.7 17.7 17.7 17.6 17.6 17.9 18.4 18.8 19.3 19.6 20.6 21 20.5 20.3 20.1 20.3 20 19.7 19.4 21 19.5 19.6 19.3 19.1 19 19.2 19.1 19 18.9 18.7 18.6 18.5 18.6 18.7 18.5 18.2 17.8 17.5 17.3 17 17.7 18.2 19 19.7 21.8 23.9 26.6 31.8 36.4 37.7 37.9 35.3 31.6 29.4 29 30.8 34.2 38.2 41 41 36.7 34 34 35.2 35.8 34 34.8 35.1 35.4 35.7 35.7 35.5 34.9 34.3 35.3 34.8 35 35.3 35.4 35.3 34.9 35 34.4 35.5 35.9 36.2 36.8 37.6 38.5 39.8 40.7 42.2 43.2 43.4 44.2 44.8 45.6 45.5 45.9 46.5 47.4 48.4 49.4 50.7 51.1 52.7 54.1 55.3 56.5 57.6 58.5 59.4 59.7 60.7 60.8 60.6 62.2 64.3 63.9 64.4 64.9 65.3
16.4 15.7 14.8 14 14 15.2 15.5 15.8 15.5 15.4 15.3 15.2 14.7 14.1 14.9 14.8 15 15.2 15.4 15.8 16 15.6 15.7 14.4 11.1 9.5 10 10.3 10.2 11.3 12.7 14.1 14.5 12.8 12.4 11.8 11.3 10.9 10.6 10.4 10.4 10 11 10.8 9.9 8.9 8.7 8.6 8.6 8.5 8.4 8.4 8.3 8.2 8.2 8.1 8.1 8.2 8.3 8.3 8.7 9.2 9.3 9.4 11.9 14.5 15.6 16.2 16.5 16.8 16.6 16.6 16.5 16.3 16.6 16.8 17.3 17.8 18 18 18.1 18.1 18.1 18.2 18.6 19 19.3 19.7 20.1 20.2 20.3 20.4 20.4 20.5 20.7 20.3 20.6 20.1 19.6 20.4 20.1 19.4 19.4 19.6 19.5 19.4 19.3 19.1 19 19 19 19 18.9 18.9 18.6 18.3 18 17.7 17.4 18.6 19.4 19.2 21.2 22.9 25.6 30.7 35.9 39 39.6 36.1 30.6 28.8 28.5 29.7 32.4 38 41 39.3 37.5 35.4 34.9 35.4 36 36.1 35.9 36.3 36.5 36.8 36.8 36.3 35.5 35.7 35.7 35.8 34.9 34.4 34.4 35.3 36 36 36.1 36 36.4 37 37.8 38.9 40 40.5 41.9 43.2 44.4 44.2 45.1 46.1 46.7 46.6 46.9 47.5 48.1 48.7 49.8 51 52.2 53 54.9 56.2 57.4 58.8 60 60.6 61.3 62.9 65.7 65.1 66.5 67 67.8 69.9 70.4 70.3
16.1 14.3 14.7 14.3 15.1 15.3 15.6 15.9 15.6 15.3 15.4 15.6 15.3 14.2 14.3 14.4 14.8 15.2 15.7 16.1 16.1 15.8 15.6 14.2 9.7 9.3 9.6 10 9.8 11.8 13.1 14.4 14.7 13.8 13.4 12.8 12.4 12.1 11.8 11.6 11.4 10.8 10.3 9.9 9.5 9.1 8.9 8.8 8.7 8.6 8.5 8.4 8.3 8.3 8.2 8.1 8.2 8.3 8.3 8.3 8.6 9.2 9.6 10.3 13.1 15.5 16 16.6 16.9 16.8 16.6 16.5 16.4 16.7 17 17.3 17.8 18.1 18.3 18.3 18.4 18.4 18.5 18.5 18.8 19.2 19.6 20.1 20.4 20.6 20.7 20.9 20.9 20.8 20.8 20.9 20.6 20.5 21.3 20.7 19.1 19 19 19.6 20.1 20 19.9 19.8 19.1 19 19.1 19.2 19.2 19.1 19 18.9 18.5 18.2 17.9 17.6 18.7 18.7 20.6 22.1 25 29.2 35.6 37.5 38 34.7 29.7 26.8 26.2 27.9 30.3 33.4 40.1 41.5 39.8 38.2 35.9 35.9 35.8 36.1 36.7 37.1 37.6 38 37.8 37.5 37.1 36.6 36.7 36 35.5 35.1 34.9 35.5 36.4 36.8 36.7 36.5 36.8 37.4 38.1 39.5 40.1 41.8 43.1 44.3 45.5 45.2 46.2 47.2 47.9 47.7 48.3 48.7 49.8 49.9 50.1 51.3 52.5 53.7 55.2 57.1 58.5 60.6 61.9 62.5 63.6 67.9 71 69.6 70.4 70.6 70.9 73.6 74.7 73.7
15.4 14.3 14 14 15.9 15.9 15.8 15.8 15.4 15.6 15.8 15.9 15.9 15.3 14.3 14.7 15.1 15.6 16.1 16.2 16.1 15.8 15.5 10.6 9.7 9.1 9.3 9.6 9.5 11.5 13.7 14.9 15 14.7 14.3 13.9 13.6 13.3 13 12.8 11.9 11.3 10.7 9.3 9.7 9.3 9 8.9 8.8 8.7 8.6 8.5 8.4 8.3 8.2 8.2 8.2 8.3 8.3 8.3 8.6 9.2 9.7 11.9 14.9 15.8 15.9 16.6 16.6 16.5 16.4 16.2 17 17.2 17.4 17.7 18.2 18.4 18.6 18.7 18.7 18.7 18.8 18.7 19.2 19.7 20.1 20.5 20.8 21 21.1 21.3 21.5 21.4 21.3 21.2 21.2 21 22.4 22 20.4 19.8 19.6 20.3 21.1 20.9 20.8 19.7 19 19 19 19.2 19.3 19 19.1 19 18.9 18.7 18.4 18.1 17.7 18.4 20.1 21.6 23.7 26.8 32.2 35.7 35 29.8 27.5 25 25.1 27.2 28.4 31.5 37.5 41.7 40.2 37.6 36 35.7 35.6 36.2 37.8 38 38.4 39.1 38.7 38.3 37.8 37.2 37.3 36.6 36.2 35.7 35.7 35.7 36.5 37.1 37.1 36.9 37.2 38 38.6 40.1 41.4 42.7 44.4 45.4 45.9 46.5 47.3 48.4 49.1 48.8 49.8 49.9 51 50.9 51.1 51.7 52.9 54.2 56.4 58.4 61.2 63.3 64.4 64.1 67.2 72.8 76 73.8 73.5 74 74.9 78.2 79.6 78.7
15.7 14.5 14.5 14.5 15.9 15.2 15.3 15.4 15.8 15.9 16 16 16.1 15.8 14.8 14.4 15.2 16 16.3 16.2 16.1 15.4 14.5 12.5 13.1 12.4 9.7 9.2 9.2 11.2 14.2 14.4 14.1 14.5 14.3 14.7 14.8 14.5 13.8 12.9 12.1 11.5 10.7 10.1 9.8 9.6 9.2 9 8.9 8.8 8.7 8.6 8.5 8.4 8.3 8.2 8.2 8.3 8.3 8.3 8.6 9 9.2 11.6 15.3 15.4 15.8 16.5 16.2 16.1 15.9 16.5 17.6 17.8 18 18.2 18.5 18.7 18.9 19 19 19.1 19 19.7 19.8 20.2 20.5 20.8 21.1 21.4 21.5 21.7 21.9 22 21.9 21.8 21.7 21.5 24.3 23.7 22.3 21.3 21 20.7 21 21 21 21.1 20.2 19 19 19 20 19.1 19.2 19.2 19.1 19 18.8 18.6 17.7 18 20 21.1 23.2 25.7 29.6 35.7 35 25.4 24 24.2 24.6 26.6 26.7 28.5 32.5 37 37.2 36.9 36 35.5 35.4 36.3 38 38.9 39.7 40.3 39.3 39 38.5 38 37.6 37.2 36.8 36.4 36.5 36.5 36.7 37.5 37.4 37.4 37.7 38.1 38.9 40 41.7 43.4 45.3 46.6 47.3 47.8 48.6 49.6 50.2 50 51.1 50.8 52.1 51.8 52.2 53.3 54 55.5 57.9 61.2 64.5 66.8 68.5 68.3 68.2 74.1 76.7 76.2 77.2 78.1 79.9 80.7 82.9 83.8
14.7 14.2 13.5 13.4 13.6 14.1 15.4 15.4 15.7 15.8 15.8 15.9 16 15.8 14.4 14.3 15.1 16 16 16.1 15.8 14.3 15 13.8 15.9 14.2 10 9.5 9.4 10.7 14.4 14 13.5 13 14.5 15.6 15.8 14 13.1 12.1 12 11.4 10.6 10.3 9.9 9.7 9.4 9.1 9 8.9 8.8 8.7 8.6 8.5 8.4 8.4 8.5 8.5 8.3 8.3 8.5 8.7 9.1 10.2 13.2 14.4 14.8 16 15.9 15.7 15.5 16.9 18 18.5 18.7 18.9 19 19.2 20 19.5 19.4 19.2 19.1 20.2 20.3 20.6 20.9 21.2 21.5 21.8 21.9 22.1 22.3 22.5 22.5 22.4 22.3 22 24.2 25.5 22.4 21.9 21.6 21.4 21.4 21.4 21.5 21.6 21.3 20.2 20 20.3 19 19.1 19.3 19.4 19.3 19.1 19 18.9 18.8 18.7 19.4 20.5 21.8 24.6 27.8 34.2 32.8 23.9 24.4 24.8 24 24.4 25.6 27.1 29.3 31.7 33.8 34.3 36 36 35.2 36.4 38.3 40 40.9 41 40.2 39.7 39.1 38.7 38.2 37.8 37.4 37.2 37.2 37.3 37.3 37.8 37.8 38 38.3 38.4 38.9 40.6 42.7 43.5 44.9 46.9 48.5 49.1 49.9 50.8 51.4 51.4 52 52.5 53.1 53.3 54 55 56.5 58 61.4 65.4 69 71.8 73 72.5 69.8 74.6 78.5 80.4 82.2 82.2 82 83.2 84.4 85.4
14.5 13.9 13.3 12.5 12.4 13.1 15.1 15.5 15.6 15.6 15.7 15.8 15.7 15.8 14.5 14.1 14.9 16.1 16.1 15.5 14.9 14.2 15.4 14.8 14.4 14.5 11 9.6 9.2 9.1 9.5 10.5 10.3 10.4 11 13 12.9 12.5 11.6 11.2 11.2 10.9 10.5 10.5 10.3 9.7 9.5 9.3 9.1 9 8.9 8.8 8.7 8.6 8.6 8.7 8.9 8.9 8.6 8.3 8.5 8.8 9 9.2 10 11.5 13.8 14.6 15.2 15.3 15.8 17.4 18.4 19.1 19.4 19.6 20.1 19.9 20.5 20.4 19.9 19.8 20.2 20.5 20.6 20.9 21.2 21.5 21.8 22.1 22.2 22.5 22.7 22.9 23.1 23 22.9 22.5 22.6 23.1 22.5 22.3 22.2 22 21.9 22.1 22.1 22.2 21.8 21.4 21.2 20.4 19 19.3 19.3 19.5 19.4 19.3 19.2 19.2 19.3 19.5 20 19.6 20.5 22.4 24.4 25 24.3 24.3 24.6 25.6 25.3 25.3 25.4 26.6 28.2 29.5 31.3 33 34.5 34.8 34.6 36.2 38.5 40.5 41 41 41 41 39.7 39.2 38.8 38.5 38.1 38 38 38 38.1 38.1 38.3 38.6 38.8 39.1 39.4 41.3 43.4 45.5 45.8 47.3 48.7 50.4 51.2 52 52.6 52.7 53.6 53.9 54.9 55.8 55.9 57.2 58.7 62 66.9 70.6 75.7 77.7 77.1 76.3 73.3 74.3 80.2 84.9 85.9 85.3 84.8 85.3 86.5 87.8
14.2 13.7 13.1 12.4 12.2 12.7 14.5 14.7 15 15 15 15.4 15.9 15.9 15.2 14.1 15.1 16.6 17 16 14.6 15.5 15.2 15.2 15.3 15.4 12.7 10.8 9.3 9.3 9.2 9.3 9.1 9 8.9 9 9.6 10.5 10 10.6 10.7 10.4 10.2 10.7 11 10.2 9.8 9.4 9.4 9.1 9.1 9 8.9 8.8 8.9 9.1 9.3 9.2 8.9 8.7 8.6 8.8 9.1 9.4 9.3 11 13.3 14.3 14 14.6 15.8 17.6 19.3 19.4 20.1 20.9 20.7 20.2 20.4 20.7 20.9 21 21.1 21 21.1 21.3 21.6 21.9 22.2 22.4 22.6 22.8 23.1 23.3 23.5 23.6 23.5 23.1 23 22.8 23.1 22.9 22.7 22.6 22.3 22.7 22.7 22.8 22.3 21.9 21.8 21.4 20.6 19.9 19.1 19.6 19.6 19.6 19.5 19.5 19.6 20 20.2 20.3 19 19.7 21.5 23.9 24.7 25 25.6 26.1 25.3 24.6 25.3 26.6 28 29 29.5 31.5 33.4 34.4 34 35.6 37.9 40.2 41 41 41 41 40.8 39.9 39.5 39.1 38.7 38.8 38.8 38.8 38.8 38.9 38.8 38.8 39.5 40.7 41.6 42.7 44.2 45.6 46.8 48.3 49.8 51.2 52.4 53.4 54.3 54.1 54.9 55.7 56.3 57.5 58 58.7 61.1 65.6 71.6 79 82.3 81.3 80.4 77.8 75 75.7 83.6 87.4 87.8 87.5 88.1 87.8 89.9 91.6
13.8 13.4 13.4 13.2 12.7 13.4 14.3 14.1 14.2 14.6 15.2 15.8 16.2 15.9 16.3 15.6 16.4 17.8 18.4 17.6 15.8 16.3 16.2 16.2 16.1 15.6 14.4 12.3 10.2 9.5 9.2 9.1 8.9 8.6 8.5 8.9 9.1 9.1 9.2 10 10.2 10.7 10.3 13.2 12.9 12.1 11 10.1 9.8 9.7 9.3 9.1 9.1 9.1 9.2 9.5 9.8 9.5 9.4 8.8 8.7 9.2 9.2 9.5 10.6 12.3 14.1 14 14.3 14.4 15.4 15.6 17.8 19.2 19.4 20.8 20.3 20.4 20.8 21.3 21.8 21.7 21.6 21.5 21.6 21.7 22 22.2 22.5 22.8 23 23.2 23.5 23.7 23.9 24.2 24.1 24.1 23.9 23.5 23.5 23.5 23.3 23.2 22.7 23.3 23.3 23.3 22.8 22.5 22.2 21.8 21.3 20.8 19 19.3 19.4 19.3 19.3 19.4 19.6 20.7 20.8 20.8 20.6 20.7 21.7 24.4 25.6 26.2 26.5 26.8 26.3 25.9 26.2 27.1 28.2 28.5 28.9 31.4 32.5 33.6 33.9 35 37.4 39.8 41 41 41 40.9 40.7 39.9 39.4 39.9 39.5 39.5 39.6 39.6 39.6 39 38.9 39.6 39.1 40.6 42.2 43.8 45.2 46.6 47.5 49.4 50.8 52.2 53.5 54.6 55.7 56.6 56.1 57.1 57.8 58.7 60 60.1 64.2 68.9 77.4 82.5 83.1 84 82.1 80.2 77.9 79.2 86.2 89.8 89.4 90.7 91.8 92.7 95.3 98.3
13.9 13.8 14.4 14.5 14 14.2 14 14.4 14.1 15 15.6 16.2 16.2 16.6 17 17.4 18.3 19.8 20.2 19.5 18.4 18 18 17.8 17.6 16.6 15.1 13.5 11.7 9.8 9.2 8.9 8.7 8.4 8.2 9.1 9.1 9.1 9.1 9.1 9.5 10.3 12.7 14.8 14.2 14 12.9 11.3 10.2 10.3 10.1 9.7 9.3 9.4 9.5 9.9 10.2 10.1 9.8 9.1 9 9.8 9.7 10.2 11.8 13.5 15 16.4 17 17 16.8 16.6 17.3 19.8 20.2 21 20.4 21.7 22.3 22.7 23.2 22.3 22 22.1 22.2 22.2 22.4 22.6 22.9 23.1 23.4 23.6 23.9 24.1 24.3 24.5 25.1 25.2 24.6 24.2 23.9 24.1 23.9 23.7 23.1 23.7 23.9 23.8 23.3 23 22.6 22.2 21.7 21 19.6 19.1 19 19 19 20.8 21 21.2 21.4 21.4 21 21.3 23.1 24.6 25.9 27.4 27.9 28.3 27.8 27.6 27.8 28.4 28.8 28.9 29 30.3 31.8 33.4 34.5 35.5 37.4 39.3 40.5 40.7 40.9 41.4 41.6 40.9 40.8 40.7 40.2 40 39.9 39.9 39.9 39.4 39.6 40.8 40.8 40.7 41.7 43 44.3 46.2 48.3 50.4 51.7 53.2 54.6 55.7 57.3 58.8 58.1 59.4 59.6 60 61.6 62.8 66.8 72.5 81.6 84.9 86.2 87.6 87.4 85.4 80.8 79.7 85 89.6 91.5 94.1 96.2 99.2 103.1 107.4
14.4 14.2 15.2 15.5 15.3 14.1 14 14.5 14.2 15 15.8 16.6 16.8 17.1 17.4 17.6 19.1 20.8 20.8 20.9 19.1 19.6 19.6 19.3 18.9 17.4 15.9 14.3 12.6 10.9 9 8.8 8.6 8.3 8.2 9.1 9.1 9.1 9.1 9.1 9.1 9.1 11.4 14.4 15.6 15.1 13.7 11.2 10.9 10.9 10.4 9.8 9.6 9.5 10.1 9.9 9.9 10.1 9.1 9.4 9.2 9.9 11.5 12.2 13.4 14.8 16.6 19 20.2 20.2 18.8 18.7 18.7 21 20.5 20.8 21.8 22.4 23.7 24.2 23.8 22.9 22.5 22.6 22.7 22.8 22.9 23 23.3 23.5 23.8 23.9 24 24.2 24.3 25.8 26 26 25.3 24.6 24.2 24.5 24.5 24.2 23.5 24.1 24.5 24.3 23.8 23.5 23 22.3 21.7 21.2 20.9 21 20.8 20.5 20.9 21.1 21.3 21.5 21.7 21.9 21.3 22 23.4 24.9 26.2 27.2 29 29.7 29.5 28.2 29.3 29.7 29.3 29.1 29 29.6 32.4 34.1 35.4 35.9 37.6 38.8 40.2 41.3 41.9 42.5 42.4 41.5 41.6 41.4 41.1 40.9 40.7 40.5 40.2 40.1 40.7 41.8 41.8 41.5 42 42.9 43.8 45.5 47.7 49.7 52 54.5 55.8 57.4 59 60.4 60.3 60.9 61.2 62.2 63.5 65.5 68.5 76.5 83.7 89.7 92.8 93 92.4 89.5 84.6 81 90.7 90.9 93.4 96.6 101.5 106.4 113 115.9
14.5 14.6 15.9 15.9 15.9 14 15.1 15.6 15.3 15.3 15.4 16.7 17.2 17.4 17.7 18 18.6 20.3 21 21 19 19.1 19.7 20.4 19.8 18.2 16.6 15 13.4 11 9.1 8.9 8.6 8.5 8.4 9.1 9.1 9.1 9.1 9.1 9.1 9.1 9.1 11.8 15.1 15.5 13.8 11 10.7 10.5 10.6 10.6 10.7 10.4 11.1 10.9 10.8 10.7 10.6 10.3 9.7 10.7 13.3 14.3 15.5 16.7 18.3 20.4 21.4 21.5 20.4 19 19 20.6 22.5 23.7 24.3 23.8 24.6 25.4 24.3 23.5 23 23.1 23.2 23.3 23.4 23.5 23.7 24 24.2 24.4 24.6 24.4 25.8 25.6 25.7 25.8 24.9 24.2 24.6 24.9 25.1 24.7 23.9 24.5 25.1 24.8 24.3 23.8 23 22.4 21.9 21.7 21.7 21.2 21 20.9 21.2 21.5 21.7 21.9 22.1 22.4 22.7 22.4 23.3 24.3 24.6 26.3 28.3 30.5 30.7 29.8 29.7 31 29.1 29 29 30.1 32.6 34.9 37.4 37.6 37.8 39.2 41.4 42.4 42.9 43.5 43.3 42.2 42.4 42.1 41.9 41.7 41.5 41.5 40.9 40.9 41.2 42.2 42.6 42.3 42.3 43.3 44.2 44.7 47.2 49 51.6 53.3 55.8 57.7 60.1 61.9 62.7 62.7 63 63.9 66 68.2 71.8 81.7 89.3 96 97.2 96.7 95.9 92 87.2 84 90.5 93 96.9 100 106.3 114 121.2 131
14 15.5 15.6 15.7 15.7 15.4 14.6 15.8 15.5 15.7 15.8 16.3 17.5 17.8 18.1 18.4 18.9 20.1 19.5 21 19 19 20.9 20.9 20 18.5 17 15.6 14.1 12 9.8 9 8.8 8.7 9 9.1 9.1 9.1 9.1 9.1 9.1 9.1 9.1 9.1 11.8 13.3 12.5 11 10.5 12.1 12.1 12.2 12.2 11.6 12.1 12 11.8 11.8 11.9 11.5 10.6 12 14.2 16.5 17.5 18.8 20 20.5 23.3 23.6 22.7 20.5 19 21.7 24.4 26 24.1 24.1 25.5 25.4 24.7 23.5 23.7 23.7 23.8 23.8 24.1 24.2 23.8 23.8 24.2 24.6 25.4 25.5 24.9 25.1 25.2 25.4 25.1 24.5 24.6 25.3 25.2 26 24.2 25.2 25.6 25.8 24.6 23.7 23 22.7 22.4 22.4 21.8 21.3 21.2 21.3 21.6 21.9 22.1 22.3 22.5 22.8 23.2 23.6 23.7 24.2 24 25.8 27.9 30.1 30.7 30.9 30.6 30.4 29.1 29 29 30.1 32.8 35.2 37.2 39.6 39.8 40.6 42.5 43.4 43.9 44.5 43.9 43.2 43.1 42.9 42.7 42.5 42.5 42.2 41.5 41.6 41.9 42.7 43.4 43.1 42.8 43.7 44.6 44.8 47 49 51.3 52.9 53.9 57.6 61.7 64.3 65.1 64.3 64.6 66 68.1 70.3 75.1 86.4 96.4 100.3 100.4 98.2 95.9 92.5 88.5 84.9 91 96.1 100 104.5 111.8 121.4 133 144.7
14.9 14.9 15.4 15.7 15.9 16.2 15.9 15.7 15.9 16.1 16.3 16.7 17.7 18.1 18.4 18.8 19.2 19.2 19.4 21 19 19 20 21 21 19.2 17.9 16.4 14.7 12.5 10.4 9.1 9 8.9 9.1 9.1 9.1 9.1 9.1 9.1 9.1 9.1 9.2 9.6 9.3 10.2 10.3 10.7 11.7 13.5 13.7 13.7 13.7 12.9 13.1 13.2 12.8 13 13.2 12.8 12.4 13.5 15.7 17.8 19.5 20.9 21.8 24 25.9 25.9 24.7 19.9 20.4 24 25.8 26 25.9 25.9 26 25.6 24.4 24.2 24.4 24.2 24.3 24.7 25.1 24.8 24 24.1 24.1 24.4 25.3 25.4 25.4 25.5 25.5 25.7 25.8 25.6 25.4 25.5 25.6 24.4 24 25 24.6 24.6 24.2 23.7 23.5 23.2 23 22.5 21.8 21.5 21.4 21.6 21.9 22.2 22.5 22.7 22.9 23.3 23.7 24.1 24.4 24.2 24 25.8 27.8 29.8 29.7 31.3 31.1 31.4 30.4 29.4 29.1 30 32.5 35 38.6 41.2 42.9 42.9 43.5 44.4 44.9 45.6 44.4 44.1 44 43.7 43.6 43.4 43.4 42.9 42.2 42.4 42.7 43.2 43.7 44.4 43.5 44.1 45.3 46.2 47.3 49.2 51 52.3 53.6 56.7 62.8 65.9 66 65.6 66.4 67.9 70.1 72.1 77.4 90.7 101.5 103.8 103.1 99.4 96.6 93.3 89 90.9 93 98 103.8 108 118.8 129.2 140.8 157.1
15.2 15.5 15.7 16 16.3 16.4 16.2 16.1 16.3 16.5 16.8 17.2 17.7 18.5 18.8 19.1 19.2 19.5 19.9 20.2 20.8 19 19 21 20.6 20 18.5 16.8 14.9 12.8 11.4 10 9.1 9.1 9.1 9.1 9.1 9.1 9.1 9.1 9.1 9.1 9.7 11 9.5 9.2 9.2 10.5 13 14.8 15.3 15.3 14.9 14.2 14.1 14.4 13.8 14.2 15 15 14.1 14.9 16.9 19 20.8 21.9 23.4 25.4 26 26 26 20.7 19 24.6 26 25.8 25.7 25.7 25.7 25.9 25.7 25.2 25.1 24.3 24.2 24.5 26 25.9 24.8 24.6 24.8 25.3 25.5 25.9 26 26.1 26.3 26.5 26.5 26.6 26.5 26.3 26.4 24.9 24.7 24.6 24.5 24.5 24.1 24.3 24 23.7 23.1 22.5 21.9 21.7 21.6 22 22.2 22.5 22.8 23.1 23.4 23.8 24.1 24.4 25.1 24.2 24.7 26 27.9 29.6 29.5 31.3 31.9 32.2 31.2 30.4 30.4 31.2 32.6 34.8 39 43.3 45.6 45.1 44.6 44.3 45.9 46 46 45 45.2 44.6 44.4 44.4 44.4 43.5 42.9 43.2 43.5 43.8 44.1 45.2 44.9 44.7 46.2 47.5 48.6 49.9 51.4 52.7 54.1 57.4 61.5 65.9 65.6 67.7 68.3 69.9 71.6 74.4 77.5 88 101.7 106.3 104.8 100.4 97.8 94.7 93.7 96.4 98.7 102.5 107.2 115.9 124.7 135.7 147.6 168.2
14.9 15.8 16.1 16.3 16.7 16.8 16.6 16.5 16.7 17 17.3 17.7 18.2 18.7 19.1 19.2 19.1 19.3 19.8 20.5 20.5 20.8 19.3 21 20.9 20.9 20.3 17.7 15.6 13.9 12.6 11.2 10.3 9.5 9.4 9.1 9.1 9.1 9.1 9.1 9.9 10.2 9.2 11 10.9 10.4 10.4 10.9 13.2 15.6 15.9 15.9 15.8 15.1 15.8 15.9 14.4 14 15.6 15.6 15.7 16.2 17.8 19.9 21.5 22.8 24.5 26 26 26 26 23.7 22.6 25.6 25.8 25.6 25.5 25.5 25.5 25.9 26 26.1 25.3 24.4 24.5 24.6 25.3 25.1 25.2 25.3 25.4 25.7 26 26.4 26.8 27 27.2 27.3 27.3 27.4 27.5 27.3 27.2 26.3 25.5 24.7 24.5 24.5 24.1 24.9 24.6 24.1 23.4 22.5 21.9 21.9 22 22.3 22.6 22.9 23.2 23.7 23.9 24.1 24.4 24.4 25.5 24.9 26.2 26.9 27.8 29 30.4 31.8 33.4 33.2 32.2 31.4 31.2 31.6 32.5 34.1 37 42.3 45.9 45.9 45.3 45 46 46 45.9 45.8 44.6 44.1 44.3 44.9 45.3 44.2 43.7 44 44.4 44.1 44.7 45.4 45.2 45.1 46.7 48.2 49.6 50.8 52.4 53.8 55.5 57.8 61 63.1 65.1 68.9 70.8 71.4 73.3 77.2 81.4 85.5 98.6 107.6 105 103.3 101.4 98.8 98.8 102.1 105.3 108.4 113.2 120.8 129.6 141 157.3 178.1
14.6 16 16.4 17 17.4 17.2 17 17 17.3 17.6 18.1 18.1 18.6 19 19.1 19.1 19.1 19.1 19.5 21.5 22.4 21.3 19.3 19.8 20.7 20.7 20.6 19 17.7 15.4 13.9 12.5 11 10.3 10.7 9.1 9.1 9.1 9.1 9.1 10.9 10.5 9.5 9.7 10.8 10.7 11.1 12.5 14.4 15.8 15.9 15.9 16.4 16.4 16.6 15.8 14.1 14.1 16.9 18.1 17.8 18.4 19.3 20.6 22.1 23.7 25.6 25.8 25.9 26 26 24.6 24.1 26 25.7 25.4 25.3 25.7 26.2 26.6 26.7 26.9 27.3 26 26.2 26.3 26.3 26.4 26.2 25.9 26.1 26.4 26.8 27.1 27.5 27.8 28 28 28.1 28.2 28.2 28.3 28.1 27.5 26.6 26.4 24.7 24.4 24.2 25.5 24.2 24.5 23.9 23 22.2 22.1 22.4 22.7 23.2 23.6 24.1 24.1 24.8 24.7 24.1 24 25.1 25.7 26.6 27.3 28.2 29.2 30.3 33.1 35 34.5 33.5 32.1 31.6 31.5 32.1 33.3 36 40.4 45.3 46 46 46 46 45.9 45.8 45.6 45.6 44.8 45.2 45.6 46 45.2 45.2 45.7 45.9 45.4 45.9 46.4 46.1 46.4 47.6 48.9 50.3 51.7 53.3 54.8 56.7 59.1 60.8 62.7 65.3 70.3 72.8 73.9 76.2 80.2 86.9 88.8 94.5 106.4 107 108.2 106 104.1 104.9 108.4 111.8 116.4 122 128.9 138.7 152.1 170.9 190.3
15.6 16.6 17.3 17.9 17.8 17.7 17.6 17.7 17.9 18.2 18.7 18.5 19 19.3 19.4 19.3 19.2 19 19.7 22.9 24.4 22.9 20.5 19 20.5 21.2 22.3 21.6 19.8 17.5 14.8 13.3 11.9 11.2 10.4 9.5 9.1 9.1 9.1 10 10 10 10.1 9.4 10.2 10.8 11.8 13.2 14 15.2 15.7 15.3 17.3 17.9 17.9 17 14.8 14.1 19.2 20.5 19.7 19.2 19.2 19.7 21.5 23.8 25.8 25.7 25.7 25.9 25.8 25.8 24.1 25 25.8 25.4 25.9 26.4 26.9 27.3 27.5 27.8 28.2 27.8 27.8 27.6 27.6 27.5 27.2 26.8 26.7 27.1 27.4 27.7 28 28.4 28.4 28.5 28.5 28.6 28.7 28.7 28.5 27.9 27 26.1 25.5 24 24 25.7 24.1 24.8 24.4 23.6 23 22.8 22.8 23.4 24 24.5 25 24.2 25.7 25.5 25.3 25.2 24.5 26 26.8 27.7 28.6 29.7 30.8 33.8 34.8 34.5 34.5 33.4 32.3 32 32 33.1 34.1 36.4 39.6 43.2 43.6 44.2 46 45.9 46.3 46.6 46.6 45.9 46 46.5 46.7 46.5 46.4 47.3 47.5 47 46.7 47.1 47.5 47.7 48.6 49.7 51.1 52.6 54 55.4 58.1 60.3 61.8 63.5 66.3 71.5 75 76.8 79.1 85.5 92.3 96.1 98 108 112.2 113.1 111.6 110.9 111.8 114.9 120.7 125.6 131.1 138.1 151.3 164.7 184.7 207.2
